VERSION 0.7
FIELDS x y z intensity
SIZE 4 4 4 8
TYPE F F F F
COUNT 1 1 1 1
WIDTH 2079
HEIGHT 1
VIEWPOINT 0.0 0.0 0.0 1.0 0.0 0.0 0.0
POINTS 2079
DATA ascii
-8.21 -3.82 -1.66 0.17 
-8.28 -3.66 -1.66 0.17 
-8.34 -3.50 -1.66 0.17 
-8.41 -3.34 -1.66 0.17 
-8.47 -3.18 -1.66 0.17 
-8.53 -3.02 -1.66 0.17 
-8.58 -2.86 -1.66 0.17 
-8.63 -2.70 -1.66 0.17 
-8.68 -2.53 -1.66 0.17 
-1.11 -0.30 -0.21 0.16 
-1.12 -0.28 -0.21 0.16 
-1.12 -0.26 -0.21 0.16 
-1.13 -0.24 -0.21 0.16 
-1.13 -0.22 -0.21 0.16 
-1.14 -0.20 -0.21 0.16 
-1.14 -0.17 -0.21 0.16 
-1.14 -0.15 -0.21 0.16 
-1.15 -0.13 -0.21 0.16 
-1.15 -0.11 -0.21 0.16 
-1.15 -0.09 -0.21 0.19 
-1.15 -0.07 -0.21 0.19 
-1.14 -0.04 -0.21 0.19 
-1.14 -0.02 -0.21 0.19 
-1.13 -0.00 -0.21 0.19 
-1.13 0.02 -0.21 0.19 
-1.13 0.04 -0.21 0.19 
-1.12 0.06 -0.21 0.19 
-1.12 0.09 -0.21 0.19 
-1.12 0.11 -0.21 0.19 
-1.13 0.13 -0.21 0.19 
-1.13 0.15 -0.21 0.19 
-1.13 0.17 -0.21 0.19 
-1.13 0.19 -0.21 0.18 
-1.12 0.22 -0.21 0.16 
-1.12 0.24 -0.21 0.16 
-1.11 0.26 -0.21 0.16 
-1.11 0.28 -0.21 0.16 
-1.10 0.30 -0.21 0.16 
-1.10 0.32 -0.21 0.16 
-1.09 0.34 -0.21 0.16 
-1.08 0.36 -0.21 0.16 
-1.07 0.38 -0.21 0.16 
-1.07 0.40 -0.21 0.16 
-1.06 0.42 -0.21 0.16 
-1.05 0.44 -0.21 0.16 
-5.45 2.41 -1.10 0.39 
-5.34 2.48 -1.09 0.82 
-5.18 2.53 -1.07 0.72 
-5.09 2.61 -1.06 0.96 
-5.04 2.70 -1.06 0.95 
-5.03 2.82 -1.07 0.87 
-5.02 2.94 -1.08 0.87 
-5.02 3.07 -1.09 0.86 
-5.01 3.20 -1.10 0.83 
-5.01 3.33 -1.11 0.82 
-5.00 3.46 -1.13 0.81 
-5.01 3.61 -1.14 0.77 
-5.01 3.76 -1.16 0.74 
-5.01 3.91 -1.18 0.72 
-5.02 4.07 -1.19 0.71 
-5.04 4.25 -1.22 0.48 
-6.74 5.90 -1.66 0.18 
-6.62 6.03 -1.66 0.18 
-6.51 6.15 -1.66 0.18 
-6.39 6.27 -1.66 0.18 
-6.27 6.39 -1.66 0.18 
-6.15 6.51 -1.66 0.18 
-6.02 6.62 -1.66 0.18 
-5.90 6.74 -1.66 0.18 
-5.09 6.04 -1.46 0.49 
-4.87 6.01 -1.43 0.77 
-4.69 6.02 -1.41 0.78 
-4.52 6.02 -1.39 0.75 
-4.33 6.01 -1.37 0.75 
-4.19 6.06 -1.36 0.50 
-3.98 5.99 -1.33 0.79 
-3.82 5.99 -1.31 0.82 
-3.66 5.99 -1.30 0.82 
-3.51 5.99 -1.28 0.83 
-3.36 5.99 -1.27 0.84 
-3.21 5.99 -1.26 0.85 
-3.06 5.98 -1.24 0.86 
-2.92 5.99 -1.23 0.87 
-2.78 5.99 -1.22 0.88 
-2.65 5.99 -1.21 0.89 
-2.51 5.98 -1.20 0.89 
-2.38 5.98 -1.19 0.90 
-2.25 5.98 -1.18 0.90 
-2.12 5.98 -1.17 0.92 
-2.10 6.29 -1.23 0.26 
-1.88 6.01 -1.16 0.92 
-1.75 6.01 -1.16 0.92 
-1.63 6.01 -1.15 0.91 
-1.51 6.01 -1.15 0.92 
-1.39 6.01 -1.14 0.92 
-1.35 6.38 -1.21 0.94 
-1.16 6.05 -1.14 0.94 
-1.05 6.10 -1.14 0.94 
-0.94 6.17 -1.15 0.86 
-0.83 6.25 -1.17 0.85 
-0.73 6.37 -1.19 0.44 
-0.64 6.71 -1.25 0.14 
-0.68 8.94 -1.66 0.18 
-0.51 8.95 -1.66 0.18 
-0.34 8.96 -1.66 0.18 
-0.17 8.96 -1.66 0.18 
0.00 8.96 -1.66 0.18 
0.17 8.96 -1.66 0.18 
0.34 8.96 -1.66 0.18 
0.51 8.95 -1.66 0.18 
0.68 8.94 -1.66 0.18 
0.85 8.93 -1.66 0.18 
1.02 8.91 -1.66 0.18 
1.18 8.89 -1.66 0.18 
1.35 8.86 -1.66 0.18 
1.52 8.84 -1.66 0.18 
1.69 8.81 -1.66 0.18 
1.85 8.78 -1.66 0.18 
2.02 8.74 -1.66 0.18 
2.18 8.70 -1.66 0.18 
2.35 8.66 -1.66 0.18 
2.51 8.61 -1.66 0.18 
2.68 8.56 -1.66 0.18 
2.84 8.51 -1.66 0.18 
3.00 8.46 -1.66 0.18 
3.16 8.40 -1.66 0.18 
3.32 8.34 -1.66 0.18 
3.47 8.28 -1.66 0.18 
3.63 8.21 -1.66 0.18 
3.79 8.14 -1.66 0.18 
3.94 8.07 -1.66 0.18 
4.09 7.99 -1.66 0.18 
4.24 7.91 -1.66 0.18 
4.39 7.83 -1.66 0.18 
4.54 7.75 -1.66 0.18 
4.69 7.66 -1.66 0.18 
4.83 7.57 -1.66 0.18 
4.97 7.48 -1.66 0.18 
5.11 7.39 -1.66 0.18 
5.25 7.29 -1.66 0.18 
5.39 7.19 -1.66 0.18 
5.53 7.09 -1.66 0.18 
5.66 6.98 -1.66 0.18 
5.79 6.87 -1.66 0.18 
5.92 6.76 -1.66 0.18 
6.05 6.65 -1.66 0.18 
6.18 6.54 -1.66 0.18 
6.30 6.42 -1.66 0.18 
6.42 6.30 -1.66 0.18 
6.54 6.18 -1.66 0.18 
6.65 6.05 -1.66 0.18 
6.77 5.93 -1.66 0.18 
6.88 5.80 -1.66 0.18 
6.99 5.67 -1.66 0.18 
7.10 5.53 -1.66 0.18 
7.20 5.40 -1.66 0.18 
5.29 3.82 -1.21 0.74 
5.28 3.66 -1.19 0.71 
5.27 3.51 -1.17 0.80 
5.28 3.36 -1.16 0.83 
5.28 3.23 -1.14 0.85 
5.28 3.10 -1.13 0.91 
5.31 2.97 -1.13 0.92 
5.33 2.86 -1.12 0.96 
5.39 2.76 -1.12 0.86 
5.51 2.69 -1.13 0.52 
5.75 2.67 -1.17 0.34 
6.14 2.72 -1.24 0.34 
6.55 2.75 -1.31 0.26 
7.27 2.89 -1.45 0.35 
8.44 3.17 -1.67 0.18 
8.50 3.01 -1.67 0.18 
8.55 2.85 -1.67 0.18 
8.60 2.69 -1.67 0.18 
8.65 2.53 -1.67 0.18 
8.70 2.36 -1.67 0.17 
8.75 2.20 -1.67 0.17 
8.79 2.03 -1.67 0.17 
8.82 1.86 -1.67 0.17 
8.86 1.70 -1.67 0.17 
8.89 1.53 -1.67 0.17 
8.92 1.36 -1.67 0.17 
8.94 1.19 -1.67 0.17 
8.96 1.02 -1.67 0.17 
8.98 0.85 -1.67 0.17 
9.00 0.68 -1.67 0.17 
9.01 0.51 -1.67 0.17 
9.02 0.34 -1.67 0.17 
9.02 0.17 -1.67 0.17 
9.03 -0.00 -1.67 0.17 
9.03 -0.17 -1.67 0.17 
9.02 -0.34 -1.67 0.17 
9.01 -0.51 -1.67 0.17 
9.00 -0.68 -1.67 0.17 
8.99 -0.85 -1.67 0.17 
8.97 -1.02 -1.67 0.17 
8.95 -1.19 -1.67 0.17 
8.93 -1.36 -1.67 0.17 
8.90 -1.53 -1.67 0.17 
8.87 -1.70 -1.67 0.17 
8.84 -1.87 -1.67 0.17 
8.80 -2.03 -1.67 0.17 
8.76 -2.20 -1.67 0.17 
8.72 -2.37 -1.67 0.17 
8.67 -2.53 -1.67 0.17 
8.63 -2.69 -1.67 0.17 
8.57 -2.86 -1.67 0.17 
8.52 -3.02 -1.67 0.17 
8.46 -3.18 -1.67 0.17 
8.40 -3.34 -1.67 0.17 
8.33 -3.50 -1.67 0.17 
8.27 -3.66 -1.67 0.17 
8.20 -3.81 -1.67 0.17 
8.12 -3.97 -1.67 0.17 
8.05 -4.12 -1.67 0.17 
7.97 -4.27 -1.67 0.17 
7.89 -4.42 -1.67 0.17 
7.80 -4.57 -1.67 0.17 
7.71 -4.72 -1.67 0.17 
7.62 -4.86 -1.67 0.17 
7.53 -5.01 -1.67 0.17 
7.43 -5.15 -1.67 0.17 
7.34 -5.29 -1.67 0.17 
7.24 -5.43 -1.67 0.17 
7.13 -5.56 -1.67 0.17 
7.03 -5.70 -1.67 0.17 
6.92 -5.83 -1.67 0.17 
6.80 -5.96 -1.67 0.17 
6.69 -6.09 -1.67 0.17 
6.57 -6.21 -1.67 0.17 
6.46 -6.34 -1.67 0.17 
6.34 -6.46 -1.67 0.17 
6.21 -6.57 -1.67 0.17 
6.09 -6.69 -1.67 0.17 
5.96 -6.81 -1.67 0.17 
5.83 -6.92 -1.67 0.17 
5.70 -7.03 -1.67 0.17 
5.56 -7.13 -1.67 0.17 
5.43 -7.24 -1.67 0.17 
5.29 -7.34 -1.67 0.17 
5.15 -7.43 -1.67 0.19 
5.00 -7.52 -1.67 0.19 
4.85 -7.61 -1.67 0.19 
4.70 -7.69 -1.67 0.19 
4.55 -7.77 -1.67 0.19 
4.37 -7.80 -1.65 0.85 
4.18 -7.80 -1.64 0.85 
4.00 -7.81 -1.62 0.86 
3.81 -7.81 -1.61 0.87 
3.63 -7.81 -1.59 0.88 
3.46 -7.82 -1.58 0.89 
3.28 -7.82 -1.57 0.89 
3.11 -7.82 -1.56 0.90 
2.94 -7.82 -1.55 0.91 
2.77 -7.82 -1.54 0.91 
2.61 -7.83 -1.53 0.76 
2.45 -7.84 -1.52 0.18 
2.30 -7.89 -1.52 0.18 
2.15 -7.93 -1.52 0.18 
2.00 -7.97 -1.52 0.18 
1.85 -8.00 -1.52 0.18 
1.70 -8.04 -1.52 0.18 
1.55 -8.07 -1.52 0.18 
1.39 -8.09 -1.52 0.18 
1.24 -8.12 -1.52 0.18 
1.08 -8.14 -1.52 0.18 
0.93 -8.16 -1.52 0.18 
0.78 -8.17 -1.52 0.18 
0.62 -8.19 -1.52 0.18 
0.47 -8.20 -1.52 0.18 
0.31 -8.20 -1.52 0.18 
0.16 -8.21 -1.52 0.18 
0.00 -8.21 -1.52 0.18 
-0.16 -8.21 -1.52 0.18 
-0.31 -8.20 -1.52 0.18 
-0.47 -8.19 -1.52 0.18 
-0.62 -8.18 -1.52 0.18 
-0.78 -8.17 -1.52 0.18 
-0.93 -8.15 -1.52 0.18 
-1.08 -8.13 -1.52 0.18 
-1.24 -8.11 -1.52 0.18 
-1.39 -8.09 -1.52 0.18 
-1.54 -8.06 -1.52 0.18 
-1.70 -8.03 -1.52 0.18 
-1.85 -7.99 -1.52 0.18 
-2.00 -7.95 -1.52 0.18 
-2.15 -7.91 -1.52 0.18 
-2.30 -7.87 -1.52 0.18 
-2.45 -7.83 -1.52 0.77 
-2.61 -7.82 -1.53 0.92 
-2.77 -7.82 -1.54 0.91 
-2.94 -7.82 -1.55 0.91 
-3.11 -7.82 -1.56 0.90 
-3.28 -7.82 -1.57 0.89 
-3.46 -7.81 -1.58 0.89 
-1.78 -3.82 -0.78 0.33 
-1.78 -3.64 -0.75 0.39 
-1.79 -3.49 -0.73 0.49 
-1.81 -3.38 -0.71 0.50 
-1.84 -3.28 -0.69 0.57 
-1.86 -3.18 -0.68 0.58 
-1.90 -3.11 -0.67 0.62 
-1.94 -3.03 -0.67 0.85 
-1.99 -3.00 -0.67 0.85 
-2.06 -2.97 -0.67 0.83 
-2.14 -2.97 -0.68 0.78 
-2.23 -2.97 -0.69 0.77 
-2.31 -2.96 -0.70 0.76 
-2.40 -2.96 -0.70 0.75 
-2.49 -2.96 -0.72 0.74 
-2.59 -2.95 -0.73 0.73 
-2.68 -2.95 -0.74 0.72 
-2.79 -2.95 -0.75 0.64 
-2.90 -2.96 -0.77 0.62 
-3.02 -2.96 -0.78 0.58 
-3.15 -2.98 -0.80 0.53 
-3.31 -3.01 -0.83 0.49 
-6.77 -5.93 -1.67 0.18 
-6.88 -5.80 -1.66 0.18 
-6.99 -5.67 -1.66 0.18 
-7.10 -5.53 -1.66 0.18 
-7.20 -5.40 -1.66 0.18 
-7.30 -5.26 -1.66 0.18 
-7.40 -5.12 -1.66 0.18 
-7.49 -4.98 -1.66 0.18 
-7.58 -4.84 -1.66 0.18 
-7.67 -4.69 -1.66 0.18 
-7.76 -4.55 -1.66 0.18 
-7.84 -4.40 -1.66 0.18 
-7.93 -4.25 -1.66 0.18 
-8.00 -4.10 -1.66 0.18 
-8.08 -3.94 -1.66 0.18 
-8.15 -3.79 -1.66 0.18 
-8.22 -3.64 -1.66 0.18 
-8.29 -3.48 -1.66 0.18 
-8.35 -3.32 -1.66 0.18 
-8.41 -3.16 -1.66 0.18 
-8.47 -3.00 -1.66 0.18 
-8.52 -2.84 -1.66 0.18 
-8.57 -2.68 -1.66 0.18 
-8.62 -2.52 -1.66 0.18 
-1.10 -0.30 -0.21 0.16 
-1.11 -0.28 -0.21 0.16 
-1.12 -0.26 -0.21 0.16 
-1.12 -0.24 -0.21 0.16 
-1.12 -0.22 -0.21 0.16 
-1.13 -0.19 -0.21 0.16 
-1.13 -0.17 -0.21 0.16 
-1.14 -0.15 -0.21 0.16 
-1.14 -0.13 -0.21 0.16 
-1.14 -0.11 -0.21 0.16 
-1.14 -0.09 -0.21 0.19 
-1.14 -0.06 -0.21 0.19 
-1.14 -0.04 -0.21 0.19 
-1.13 -0.02 -0.21 0.19 
-1.12 0.00 -0.21 0.19 
-1.12 0.02 -0.21 0.19 
-1.12 0.04 -0.21 0.19 
-1.11 0.06 -0.21 0.19 
-1.12 0.08 -0.21 0.19 
-1.12 0.11 -0.21 0.19 
-1.12 0.13 -0.21 0.19 
-1.12 0.15 -0.21 0.19 
-1.12 0.17 -0.21 0.19 
-1.12 0.19 -0.21 0.19 
-1.11 0.21 -0.21 0.16 
-1.11 0.23 -0.21 0.16 
-1.11 0.26 -0.21 0.16 
-1.10 0.28 -0.21 0.16 
-1.09 0.30 -0.21 0.16 
-1.09 0.32 -0.21 0.16 
-1.08 0.34 -0.21 0.16 
-1.07 0.36 -0.21 0.16 
-1.07 0.38 -0.21 0.16 
-1.06 0.40 -0.21 0.16 
-1.05 0.42 -0.21 0.16 
-1.04 0.44 -0.21 0.16 
-5.45 2.41 -1.11 0.39 
-5.33 2.48 -1.09 0.82 
-5.18 2.53 -1.07 0.72 
-5.09 2.61 -1.07 0.96 
-5.04 2.70 -1.06 0.95 
-5.03 2.82 -1.07 0.87 
-5.02 2.94 -1.08 0.87 
-5.01 3.07 -1.09 0.86 
-5.01 3.20 -1.11 0.83 
-5.01 3.33 -1.12 0.82 
-5.00 3.46 -1.13 0.81 
-5.01 3.61 -1.15 0.77 
-5.01 3.76 -1.17 0.73 
-5.01 3.91 -1.18 0.72 
-5.02 4.07 -1.20 0.71 
-5.04 4.24 -1.23 0.48 
-6.69 5.86 -1.66 0.18 
-6.58 5.99 -1.66 0.18 
-6.47 6.11 -1.66 0.18 
-6.35 6.23 -1.66 0.18 
-6.23 6.35 -1.66 0.18 
-6.11 6.47 -1.66 0.18 
-5.98 6.58 -1.66 0.18 
-5.86 6.69 -1.66 0.18 
-5.09 6.04 -1.47 0.49 
-4.87 6.01 -1.44 0.77 
-4.69 6.02 -1.42 0.78 
-4.52 6.02 -1.40 0.75 
-4.33 6.01 -1.38 0.75 
-4.20 6.06 -1.37 0.50 
-3.98 5.99 -1.34 0.79 
-3.82 5.99 -1.32 0.82 
-3.66 5.99 -1.31 0.82 
-3.51 5.99 -1.29 0.83 
-3.36 5.98 -1.28 0.84 
-3.21 5.98 -1.26 0.85 
-3.06 5.98 -1.25 0.86 
-2.92 5.98 -1.24 0.87 
-2.78 5.98 -1.23 0.88 
-2.65 5.98 -1.22 0.89 
-2.51 5.98 -1.21 0.89 
-2.38 5.98 -1.20 0.90 
-2.25 5.98 -1.19 0.90 
-2.12 5.98 -1.18 0.92 
-2.10 6.30 -1.24 0.26 
-1.88 6.01 -1.17 0.92 
-1.75 6.01 -1.17 0.92 
-1.63 6.02 -1.16 0.91 
-1.51 6.01 -1.15 0.92 
-1.39 6.01 -1.15 0.92 
-1.35 6.38 -1.21 0.94 
-1.16 6.05 -1.15 0.94 
-1.05 6.10 -1.15 0.94 
-0.94 6.17 -1.16 0.86 
-0.83 6.25 -1.17 0.85 
-0.73 6.36 -1.19 0.44 
-0.64 6.70 -1.25 0.14 
-0.67 8.88 -1.66 0.18 
-0.51 8.89 -1.66 0.18 
-0.34 8.90 -1.66 0.18 
-0.17 8.90 -1.66 0.18 
0.00 8.90 -1.66 0.18 
0.17 8.90 -1.66 0.18 
0.34 8.90 -1.66 0.18 
0.51 8.89 -1.66 0.18 
0.67 8.88 -1.66 0.18 
0.84 8.87 -1.66 0.18 
1.01 8.85 -1.66 0.18 
1.18 8.83 -1.66 0.18 
1.34 8.81 -1.66 0.18 
1.51 8.78 -1.66 0.18 
1.68 8.75 -1.66 0.18 
1.84 8.72 -1.66 0.18 
2.01 8.68 -1.66 0.18 
2.17 8.64 -1.66 0.18 
2.33 8.60 -1.66 0.18 
2.50 8.56 -1.66 0.18 
2.66 8.51 -1.66 0.18 
2.82 8.46 -1.66 0.18 
2.98 8.40 -1.66 0.18 
3.14 8.35 -1.66 0.18 
3.29 8.28 -1.66 0.18 
3.45 8.22 -1.66 0.18 
3.61 8.16 -1.66 0.18 
3.76 8.09 -1.66 0.18 
3.91 8.01 -1.66 0.18 
4.06 7.94 -1.66 0.18 
4.21 7.86 -1.66 0.18 
4.36 7.78 -1.66 0.18 
4.51 7.70 -1.66 0.18 
4.66 7.61 -1.66 0.18 
4.80 7.52 -1.66 0.18 
4.94 7.43 -1.66 0.18 
5.08 7.34 -1.66 0.18 
5.22 7.24 -1.66 0.18 
5.36 7.14 -1.66 0.18 
5.49 7.04 -1.66 0.18 
5.62 6.94 -1.66 0.18 
5.75 6.83 -1.66 0.18 
5.88 6.72 -1.66 0.18 
6.01 6.61 -1.66 0.18 
6.13 6.49 -1.66 0.18 
6.26 6.38 -1.66 0.18 
6.38 6.26 -1.66 0.18 
6.49 6.14 -1.66 0.18 
6.61 6.01 -1.66 0.18 
6.72 5.89 -1.66 0.18 
6.83 5.76 -1.66 0.18 
6.94 5.63 -1.66 0.18 
7.05 5.50 -1.66 0.18 
7.15 5.36 -1.66 0.18 
5.29 3.81 -1.21 0.74 
5.28 3.66 -1.20 0.71 
5.27 3.50 -1.18 0.80 
5.27 3.36 -1.16 0.83 
5.28 3.23 -1.15 0.85 
5.28 3.10 -1.14 0.91 
5.30 2.97 -1.13 0.92 
5.33 2.85 -1.13 0.96 
5.38 2.76 -1.13 0.86 
5.51 2.69 -1.14 0.52 
5.75 2.67 -1.18 0.34 
6.14 2.72 -1.25 0.34 
6.55 2.75 -1.32 0.26 
7.27 2.89 -1.46 0.35 
8.38 3.15 -1.67 0.18 
8.44 2.99 -1.67 0.18 
8.49 2.83 -1.67 0.18 
8.55 2.67 -1.67 0.18 
8.60 2.51 -1.67 0.18 
8.64 2.35 -1.67 0.18 
8.69 2.18 -1.67 0.18 
8.73 2.02 -1.67 0.18 
8.77 1.85 -1.67 0.18 
8.80 1.69 -1.67 0.18 
8.83 1.52 -1.67 0.18 
8.86 1.35 -1.67 0.18 
8.88 1.18 -1.67 0.18 
8.90 1.02 -1.67 0.18 
8.92 0.85 -1.67 0.18 
8.94 0.68 -1.67 0.18 
8.95 0.51 -1.67 0.18 
8.96 0.34 -1.67 0.18 
8.96 0.17 -1.67 0.18 
8.97 -0.00 -1.67 0.18 
8.97 -0.17 -1.67 0.18 
8.96 -0.34 -1.67 0.18 
8.95 -0.51 -1.67 0.18 
8.94 -0.68 -1.67 0.18 
8.93 -0.85 -1.67 0.18 
8.91 -1.02 -1.67 0.18 
8.89 -1.18 -1.67 0.18 
8.87 -1.35 -1.67 0.18 
8.84 -1.52 -1.67 0.18 
8.81 -1.69 -1.67 0.18 
8.78 -1.85 -1.67 0.18 
8.74 -2.02 -1.67 0.18 
8.70 -2.19 -1.67 0.18 
8.66 -2.35 -1.67 0.18 
8.62 -2.51 -1.67 0.18 
8.57 -2.68 -1.67 0.18 
8.52 -2.84 -1.67 0.18 
8.46 -3.00 -1.67 0.18 
8.40 -3.16 -1.67 0.18 
8.34 -3.32 -1.67 0.18 
8.28 -3.48 -1.67 0.18 
8.21 -3.63 -1.67 0.18 
8.14 -3.79 -1.67 0.18 
8.07 -3.94 -1.67 0.18 
7.99 -4.09 -1.67 0.18 
7.92 -4.24 -1.67 0.18 
7.83 -4.39 -1.67 0.18 
7.75 -4.54 -1.67 0.18 
7.66 -4.69 -1.67 0.18 
7.57 -4.83 -1.67 0.18 
7.48 -4.97 -1.67 0.18 
7.39 -5.11 -1.67 0.18 
7.29 -5.25 -1.67 0.18 
7.19 -5.39 -1.67 0.18 
7.08 -5.52 -1.67 0.18 
6.98 -5.66 -1.67 0.18 
6.87 -5.79 -1.67 0.18 
6.76 -5.92 -1.67 0.18 
6.65 -6.05 -1.67 0.18 
6.53 -6.17 -1.67 0.18 
6.41 -6.29 -1.67 0.18 
6.29 -6.41 -1.67 0.18 
6.17 -6.53 -1.67 0.18 
6.05 -6.65 -1.67 0.18 
5.92 -6.76 -1.67 0.18 
5.79 -6.87 -1.67 0.18 
5.66 -6.98 -1.67 0.18 
5.53 -7.09 -1.67 0.18 
5.39 -7.19 -1.67 0.18 
5.25 -7.29 -1.67 0.18 
5.11 -7.38 -1.67 0.19 
4.97 -7.47 -1.67 0.19 
4.82 -7.56 -1.67 0.19 
4.67 -7.64 -1.67 0.19 
4.52 -7.72 -1.67 0.19 
4.37 -7.80 -1.66 0.85 
4.18 -7.80 -1.65 0.85 
4.00 -7.81 -1.63 0.86 
3.81 -7.81 -1.62 0.87 
3.63 -7.81 -1.60 0.88 
3.46 -7.81 -1.59 0.89 
3.28 -7.82 -1.58 0.89 
3.11 -7.82 -1.57 0.90 
2.94 -7.82 -1.56 0.91 
2.77 -7.82 -1.55 0.91 
2.61 -7.82 -1.54 0.92 
2.44 -7.83 -1.53 0.77 
2.29 -7.83 -1.52 0.18 
2.14 -7.87 -1.52 0.18 
1.99 -7.91 -1.52 0.18 
1.84 -7.95 -1.52 0.18 
1.69 -7.98 -1.52 0.18 
1.53 -8.01 -1.52 0.18 
1.38 -8.04 -1.52 0.18 
1.23 -8.06 -1.52 0.18 
1.08 -8.09 -1.52 0.18 
0.92 -8.10 -1.52 0.18 
0.77 -8.12 -1.52 0.18 
0.62 -8.13 -1.52 0.18 
0.46 -8.14 -1.52 0.18 
0.31 -8.15 -1.52 0.18 
0.15 -8.15 -1.52 0.18 
0.00 -8.15 -1.52 0.18 
-0.15 -8.15 -1.52 0.18 
-0.31 -8.15 -1.52 0.18 
-0.46 -8.14 -1.52 0.18 
-0.62 -8.13 -1.52 0.18 
-0.77 -8.12 -1.52 0.18 
-0.92 -8.10 -1.52 0.18 
-1.08 -8.08 -1.52 0.18 
-1.23 -8.06 -1.52 0.18 
-1.38 -8.03 -1.52 0.18 
-1.53 -8.00 -1.52 0.18 
-1.68 -7.97 -1.52 0.18 
-1.83 -7.94 -1.52 0.18 
-1.98 -7.90 -1.52 0.18 
-2.13 -7.86 -1.52 0.18 
-2.28 -7.83 -1.52 0.77 
-2.44 -7.82 -1.53 0.92 
-2.61 -7.82 -1.54 0.92 
-2.77 -7.82 -1.55 0.91 
-2.94 -7.82 -1.56 0.91 
-3.11 -7.82 -1.57 0.90 
-3.28 -7.81 -1.58 0.89 
-3.45 -7.81 -1.59 0.89 
-1.77 -3.81 -0.78 0.33 
-1.77 -3.63 -0.75 0.39 
-1.78 -3.49 -0.73 0.49 
-1.81 -3.37 -0.71 0.50 
-1.83 -3.27 -0.70 0.57 
-1.86 -3.18 -0.69 0.58 
-1.90 -3.10 -0.68 0.62 
-1.93 -3.03 -0.67 0.85 
-1.99 -2.99 -0.67 0.85 
-2.06 -2.97 -0.67 0.83 
-2.14 -2.97 -0.68 0.78 
-2.22 -2.97 -0.69 0.78 
-2.31 -2.96 -0.70 0.76 
-2.40 -2.96 -0.71 0.75 
-2.49 -2.95 -0.72 0.74 
-2.58 -2.95 -0.73 0.73 
-2.68 -2.95 -0.74 0.72 
-2.78 -2.95 -0.75 0.64 
-2.90 -2.95 -0.77 0.62 
-3.02 -2.96 -0.79 0.58 
-3.15 -2.98 -0.81 0.54 
-3.31 -3.01 -0.83 0.49 
-6.73 -5.89 -1.67 0.18 
-6.84 -5.76 -1.66 0.18 
-6.94 -5.63 -1.66 0.18 
-7.05 -5.50 -1.66 0.18 
-7.15 -5.36 -1.66 0.18 
-7.25 -5.23 -1.66 0.18 
-7.35 -5.09 -1.66 0.18 
-7.44 -4.95 -1.66 0.18 
-7.53 -4.81 -1.66 0.18 
-7.62 -4.66 -1.66 0.18 
-7.71 -4.52 -1.66 0.18 
-7.79 -4.37 -1.66 0.18 
-7.87 -4.22 -1.66 0.18 
-7.95 -4.07 -1.66 0.18 
-8.03 -3.92 -1.66 0.18 
-8.10 -3.77 -1.66 0.18 
-8.17 -3.61 -1.66 0.18 
-8.23 -3.46 -1.66 0.18 
-8.30 -3.30 -1.66 0.18 
-8.36 -3.14 -1.66 0.18 
-8.41 -2.98 -1.66 0.18 
-8.47 -2.82 -1.66 0.18 
-8.52 -2.66 -1.66 0.18 
-8.57 -2.50 -1.66 0.18 
-1.10 -0.30 -0.21 0.16 
-1.10 -0.28 -0.21 0.16 
-1.11 -0.26 -0.21 0.16 
-1.11 -0.23 -0.21 0.16 
-1.12 -0.21 -0.21 0.16 
-1.12 -0.19 -0.21 0.16 
-1.12 -0.17 -0.21 0.16 
-1.13 -0.15 -0.21 0.16 
-1.13 -0.13 -0.21 0.16 
-1.13 -0.11 -0.21 0.16 
-1.13 -0.09 -0.21 0.16 
-1.13 -0.06 -0.21 0.19 
-1.13 -0.04 -0.21 0.19 
-1.13 -0.02 -0.21 0.19 
-1.12 0.00 -0.21 0.19 
-1.11 0.02 -0.21 0.19 
-1.11 0.04 -0.21 0.19 
-1.11 0.06 -0.21 0.19 
-1.11 0.08 -0.21 0.19 
-1.11 0.11 -0.21 0.19 
-1.11 0.13 -0.21 0.19 
-1.11 0.15 -0.21 0.19 
-1.11 0.17 -0.21 0.19 
-1.11 0.19 -0.21 0.16 
-1.11 0.21 -0.21 0.16 
-1.10 0.23 -0.21 0.16 
-1.10 0.25 -0.21 0.16 
-1.09 0.27 -0.21 0.16 
-1.09 0.29 -0.21 0.16 
-1.08 0.32 -0.21 0.16 
-1.07 0.34 -0.21 0.16 
-1.07 0.36 -0.21 0.16 
-1.06 0.38 -0.21 0.16 
-1.05 0.40 -0.21 0.16 
-1.04 0.41 -0.21 0.16 
-1.03 0.43 -0.21 0.16 
-5.45 2.41 -1.12 0.39 
-5.33 2.48 -1.10 0.82 
-5.18 2.53 -1.08 0.72 
-5.09 2.61 -1.07 0.96 
-5.04 2.70 -1.07 0.94 
-5.03 2.82 -1.08 0.87 
-5.02 2.94 -1.09 0.87 
-5.01 3.07 -1.10 0.86 
-5.01 3.20 -1.11 0.83 
-5.01 3.33 -1.13 0.82 
-5.00 3.46 -1.14 0.81 
-5.01 3.61 -1.16 0.77 
-5.01 3.76 -1.17 0.73 
-5.01 3.91 -1.19 0.72 
-5.02 4.07 -1.21 0.71 
-5.04 4.24 -1.23 0.48 
-6.65 5.82 -1.66 0.18 
-6.54 5.95 -1.66 0.18 
-6.42 6.07 -1.66 0.18 
-6.31 6.19 -1.66 0.18 
-6.19 6.31 -1.66 0.18 
-6.07 6.42 -1.66 0.18 
-5.95 6.54 -1.66 0.18 
-5.82 6.65 -1.66 0.18 
-5.69 6.76 -1.66 0.18 
-4.87 6.01 -1.45 0.77 
-4.69 6.02 -1.43 0.78 
-4.51 6.02 -1.41 0.75 
-4.33 6.01 -1.39 0.75 
-4.20 6.06 -1.38 0.50 
-3.98 5.99 -1.35 0.79 
-3.82 5.98 -1.33 0.81 
-3.66 5.98 -1.31 0.82 
-3.51 5.98 -1.30 0.83 
-3.35 5.98 -1.29 0.84 
-3.21 5.98 -1.27 0.85 
-3.06 5.98 -1.26 0.86 
-2.92 5.98 -1.25 0.87 
-2.78 5.98 -1.24 0.88 
-2.65 5.98 -1.23 0.89 
-2.51 5.98 -1.22 0.89 
-2.38 5.98 -1.21 0.90 
-2.25 5.98 -1.20 0.90 
-2.12 5.98 -1.19 0.92 
-2.10 6.30 -1.25 0.26 
-1.88 6.01 -1.18 0.92 
-1.75 6.02 -1.17 0.92 
-1.63 6.02 -1.17 0.91 
-1.51 6.01 -1.16 0.92 
-1.39 6.01 -1.16 0.92 
-1.35 6.38 -1.22 0.94 
-1.16 6.05 -1.15 0.94 
-1.05 6.10 -1.16 0.94 
-0.94 6.17 -1.17 0.86 
-0.83 6.25 -1.18 0.85 
-0.73 6.36 -1.20 0.44 
-0.64 6.70 -1.26 0.14 
-0.67 8.82 -1.66 0.18 
-0.50 8.83 -1.66 0.18 
-0.33 8.84 -1.66 0.18 
-0.17 8.84 -1.66 0.18 
0.00 8.84 -1.66 0.18 
0.17 8.84 -1.66 0.18 
0.33 8.84 -1.66 0.18 
0.50 8.83 -1.66 0.18 
0.67 8.82 -1.66 0.18 
0.84 8.81 -1.66 0.18 
1.00 8.79 -1.66 0.18 
1.17 8.77 -1.66 0.18 
1.33 8.75 -1.66 0.18 
1.50 8.72 -1.66 0.18 
1.66 8.69 -1.66 0.18 
1.83 8.66 -1.66 0.18 
1.99 8.62 -1.66 0.18 
2.16 8.59 -1.66 0.18 
2.32 8.54 -1.66 0.18 
2.48 8.50 -1.66 0.18 
2.64 8.45 -1.66 0.18 
2.80 8.40 -1.66 0.18 
2.96 8.35 -1.66 0.18 
3.12 8.29 -1.66 0.18 
3.27 8.23 -1.66 0.18 
3.43 8.17 -1.66 0.18 
3.58 8.10 -1.66 0.18 
3.74 8.03 -1.66 0.18 
3.89 7.96 -1.66 0.18 
4.04 7.89 -1.66 0.18 
4.19 7.81 -1.66 0.18 
4.33 7.73 -1.66 0.18 
4.48 7.65 -1.66 0.18 
4.62 7.56 -1.66 0.18 
4.77 7.47 -1.66 0.18 
4.91 7.38 -1.66 0.18 
5.05 7.29 -1.66 0.18 
5.18 7.19 -1.66 0.18 
5.32 7.09 -1.66 0.18 
5.45 6.99 -1.66 0.18 
5.59 6.89 -1.66 0.18 
5.72 6.78 -1.66 0.18 
5.84 6.67 -1.66 0.18 
5.97 6.56 -1.66 0.18 
6.09 6.45 -1.66 0.18 
6.22 6.33 -1.66 0.18 
6.33 6.22 -1.66 0.18 
6.45 6.10 -1.66 0.18 
6.57 5.97 -1.66 0.18 
6.68 5.85 -1.66 0.18 
6.79 5.72 -1.66 0.18 
6.90 5.59 -1.66 0.18 
7.00 5.46 -1.66 0.18 
7.10 5.33 -1.66 0.18 
5.29 3.81 -1.22 0.74 
5.28 3.66 -1.20 0.76 
5.27 3.50 -1.19 0.80 
5.27 3.36 -1.17 0.83 
5.27 3.23 -1.16 0.85 
5.28 3.09 -1.15 0.91 
5.30 2.97 -1.14 0.92 
5.32 2.85 -1.13 0.96 
5.38 2.76 -1.13 0.86 
5.51 2.69 -1.15 0.52 
5.74 2.67 -1.19 0.34 
6.14 2.71 -1.26 0.34 
6.56 2.75 -1.33 0.26 
7.27 2.89 -1.47 0.35 
8.32 3.13 -1.67 0.18 
8.38 2.97 -1.67 0.18 
8.44 2.81 -1.67 0.18 
8.49 2.65 -1.67 0.18 
8.54 2.49 -1.67 0.18 
8.59 2.33 -1.67 0.18 
8.63 2.17 -1.67 0.18 
8.67 2.00 -1.67 0.18 
8.71 1.84 -1.67 0.18 
8.74 1.67 -1.67 0.18 
8.77 1.51 -1.67 0.18 
8.80 1.34 -1.67 0.18 
8.82 1.18 -1.67 0.18 
8.85 1.01 -1.67 0.18 
8.86 0.84 -1.67 0.18 
8.88 0.67 -1.67 0.18 
8.89 0.51 -1.67 0.18 
8.90 0.34 -1.67 0.18 
8.91 0.17 -1.67 0.18 
8.91 -0.00 -1.67 0.18 
8.91 -0.17 -1.67 0.18 
8.90 -0.34 -1.67 0.18 
8.90 -0.51 -1.67 0.18 
8.88 -0.67 -1.67 0.18 
8.87 -0.84 -1.67 0.18 
8.85 -1.01 -1.67 0.18 
8.83 -1.18 -1.67 0.18 
8.81 -1.34 -1.67 0.18 
8.78 -1.51 -1.67 0.18 
8.75 -1.68 -1.67 0.18 
8.72 -1.84 -1.67 0.18 
8.69 -2.01 -1.67 0.18 
8.65 -2.17 -1.67 0.18 
8.60 -2.33 -1.67 0.18 
8.56 -2.50 -1.67 0.18 
8.51 -2.66 -1.67 0.18 
8.46 -2.82 -1.67 0.18 
8.41 -2.98 -1.67 0.18 
8.35 -3.14 -1.67 0.18 
8.29 -3.30 -1.67 0.18 
8.22 -3.45 -1.67 0.18 
8.16 -3.61 -1.67 0.18 
8.09 -3.76 -1.67 0.18 
8.02 -3.91 -1.67 0.18 
7.94 -4.07 -1.67 0.18 
7.86 -4.21 -1.67 0.18 
7.78 -4.36 -1.67 0.18 
7.70 -4.51 -1.67 0.18 
7.61 -4.65 -1.67 0.18 
7.52 -4.80 -1.67 0.18 
7.43 -4.94 -1.67 0.18 
7.34 -5.08 -1.67 0.18 
7.24 -5.22 -1.67 0.18 
7.14 -5.35 -1.67 0.18 
7.04 -5.49 -1.67 0.18 
6.93 -5.62 -1.67 0.18 
6.82 -5.75 -1.67 0.18 
6.71 -5.88 -1.67 0.18 
6.60 -6.01 -1.67 0.18 
6.49 -6.13 -1.67 0.18 
6.37 -6.25 -1.67 0.18 
6.25 -6.37 -1.67 0.18 
6.13 -6.49 -1.67 0.18 
6.01 -6.60 -1.67 0.18 
5.88 -6.72 -1.67 0.18 
5.75 -6.83 -1.67 0.18 
5.62 -6.93 -1.67 0.18 
5.49 -7.04 -1.67 0.18 
5.36 -7.14 -1.67 0.18 
5.22 -7.24 -1.67 0.18 
5.08 -7.34 -1.67 0.18 
4.94 -7.43 -1.67 0.19 
4.79 -7.51 -1.67 0.19 
4.64 -7.60 -1.67 0.19 
4.50 -7.68 -1.67 0.19 
4.35 -7.75 -1.67 0.19 
4.18 -7.80 -1.66 0.85 
3.99 -7.80 -1.64 0.86 
3.81 -7.81 -1.63 0.87 
3.63 -7.81 -1.61 0.88 
3.45 -7.81 -1.60 0.89 
3.28 -7.81 -1.59 0.89 
3.11 -7.82 -1.58 0.90 
2.94 -7.82 -1.57 0.91 
2.77 -7.82 -1.56 0.91 
2.61 -7.82 -1.55 0.92 
2.44 -7.82 -1.54 0.92 
2.28 -7.82 -1.53 0.93 
2.12 -7.83 -1.52 0.77 
1.97 -7.86 -1.52 0.18 
1.82 -7.90 -1.52 0.18 
1.67 -7.93 -1.52 0.18 
1.52 -7.96 -1.52 0.18 
1.37 -7.99 -1.52 0.18 
1.22 -8.01 -1.52 0.18 
1.07 -8.03 -1.52 0.18 
0.92 -8.05 -1.52 0.18 
0.77 -8.07 -1.52 0.18 
0.61 -8.08 -1.52 0.18 
0.46 -8.09 -1.52 0.18 
0.31 -8.10 -1.52 0.18 
0.15 -8.10 -1.52 0.18 
0.00 -8.10 -1.52 0.18 
-0.15 -8.10 -1.52 0.18 
-0.31 -8.09 -1.52 0.18 
-0.46 -8.09 -1.52 0.18 
-0.61 -8.07 -1.52 0.18 
-0.77 -8.06 -1.52 0.18 
-0.92 -8.04 -1.52 0.18 
-1.07 -8.03 -1.52 0.18 
-1.22 -8.00 -1.52 0.18 
-1.37 -7.98 -1.52 0.18 
-1.52 -7.95 -1.52 0.18 
-1.67 -7.92 -1.52 0.18 
-1.82 -7.89 -1.52 0.18 
-1.97 -7.85 -1.52 0.18 
-2.12 -7.83 -1.52 0.78 
-2.28 -7.82 -1.53 0.93 
-2.44 -7.82 -1.54 0.92 
-2.61 -7.82 -1.55 0.92 
-2.77 -7.82 -1.55 0.91 
-2.94 -7.82 -1.57 0.91 
-3.11 -7.82 -1.58 0.90 
-3.28 -7.81 -1.59 0.89 
-3.45 -7.81 -1.60 0.89 
-1.77 -3.80 -0.79 0.34 
-1.77 -3.62 -0.76 0.39 
-1.78 -3.48 -0.73 0.50 
-1.80 -3.37 -0.72 0.50 
-1.83 -3.27 -0.70 0.57 
-1.86 -3.17 -0.69 0.58 
-1.89 -3.10 -0.68 0.62 
-1.93 -3.03 -0.67 0.85 
-1.99 -2.99 -0.67 0.85 
-2.06 -2.97 -0.68 0.83 
-2.14 -2.97 -0.69 0.78 
-2.22 -2.96 -0.69 0.78 
-2.31 -2.96 -0.70 0.77 
-2.40 -2.96 -0.71 0.75 
-2.49 -2.95 -0.72 0.74 
-2.58 -2.95 -0.73 0.73 
-2.68 -2.94 -0.75 0.72 
-2.78 -2.95 -0.76 0.64 
-2.90 -2.95 -0.78 0.62 
-3.02 -2.96 -0.79 0.58 
-3.15 -2.98 -0.81 0.54 
-3.31 -3.01 -0.84 0.49 
-6.68 -5.85 -1.67 0.18 
-6.79 -5.72 -1.66 0.18 
-6.90 -5.59 -1.66 0.18 
-7.00 -5.46 -1.66 0.18 
-7.10 -5.33 -1.66 0.18 
-7.20 -5.19 -1.66 0.18 
-7.30 -5.05 -1.66 0.18 
-7.39 -4.91 -1.66 0.18 
-7.48 -4.77 -1.66 0.18 
-7.57 -4.63 -1.66 0.18 
-7.66 -4.49 -1.66 0.18 
-7.74 -4.34 -1.66 0.18 
-7.82 -4.19 -1.66 0.18 
-7.90 -4.04 -1.66 0.18 
-7.97 -3.89 -1.66 0.18 
-8.04 -3.74 -1.66 0.18 
-8.11 -3.59 -1.66 0.18 
-8.18 -3.43 -1.66 0.18 
-8.24 -3.28 -1.66 0.18 
-8.30 -3.12 -1.66 0.18 
-8.36 -2.96 -1.66 0.18 
-8.41 -2.80 -1.66 0.18 
-8.46 -2.64 -1.66 0.18 
-8.51 -2.48 -1.66 0.18 
-1.09 -0.30 -0.21 0.16 
-1.09 -0.27 -0.21 0.16 
-1.10 -0.25 -0.21 0.16 
-1.10 -0.23 -0.21 0.16 
-1.11 -0.21 -0.21 0.16 
-1.11 -0.19 -0.21 0.16 
-1.12 -0.17 -0.21 0.16 
-1.12 -0.15 -0.21 0.16 
-1.12 -0.13 -0.21 0.16 
-1.12 -0.11 -0.21 0.16 
-1.13 -0.09 -0.21 0.16 
-1.12 -0.06 -0.21 0.19 
-1.12 -0.04 -0.21 0.19 
-1.12 -0.02 -0.21 0.19 
-1.11 0.00 -0.21 0.19 
-1.11 0.02 -0.21 0.19 
-1.10 0.04 -0.21 0.19 
-1.10 0.06 -0.21 0.19 
-1.10 0.08 -0.21 0.19 
-1.10 0.10 -0.21 0.19 
-1.10 0.13 -0.21 0.19 
-1.10 0.15 -0.21 0.19 
-1.10 0.17 -0.21 0.19 
-1.10 0.19 -0.21 0.16 
-1.10 0.21 -0.21 0.16 
-1.09 0.23 -0.21 0.16 
-1.09 0.25 -0.21 0.16 
-1.08 0.27 -0.21 0.16 
-1.08 0.29 -0.21 0.16 
-1.07 0.31 -0.21 0.16 
-1.07 0.33 -0.21 0.16 
-1.06 0.35 -0.21 0.17 
-1.05 0.37 -0.21 0.17 
-1.04 0.39 -0.21 0.17 
-1.04 0.41 -0.21 0.17 
-1.03 0.43 -0.21 0.17 
-5.45 2.41 -1.12 0.39 
-5.32 2.48 -1.11 0.82 
-5.18 2.53 -1.09 0.72 
-5.09 2.61 -1.08 0.96 
-5.04 2.70 -1.08 0.94 
-5.03 2.82 -1.09 0.87 
-5.02 2.94 -1.10 0.87 
-5.01 3.07 -1.11 0.84 
-5.01 3.20 -1.12 0.83 
-5.01 3.33 -1.13 0.82 
-5.00 3.46 -1.15 0.81 
-5.01 3.61 -1.16 0.75 
-5.01 3.76 -1.18 0.73 
-5.02 3.91 -1.20 0.72 
-5.02 4.07 -1.22 0.71 
-5.03 4.24 -1.24 0.48 
-6.61 5.78 -1.66 0.18 
-6.49 5.91 -1.66 0.18 
-6.38 6.03 -1.66 0.18 
-6.27 6.15 -1.66 0.18 
-6.15 6.27 -1.66 0.18 
-6.03 6.38 -1.66 0.18 
-5.91 6.49 -1.66 0.18 
-5.78 6.60 -1.66 0.18 
-5.66 6.71 -1.66 0.18 
-4.87 6.01 -1.46 0.77 
-4.69 6.02 -1.44 0.78 
-4.51 6.02 -1.42 0.75 
-4.33 6.01 -1.40 0.75 
-4.20 6.07 -1.39 0.50 
-3.98 5.98 -1.36 0.78 
-3.82 5.98 -1.34 0.81 
-3.66 5.98 -1.32 0.82 
-3.50 5.98 -1.31 0.83 
-3.35 5.98 -1.29 0.84 
-3.21 5.98 -1.28 0.85 
-3.06 5.98 -1.27 0.86 
-2.92 5.98 -1.26 0.87 
-2.78 5.98 -1.24 0.88 
-2.64 5.98 -1.23 0.89 
-2.51 5.98 -1.22 0.89 
-2.38 5.98 -1.21 0.90 
-2.25 5.98 -1.20 0.90 
-2.12 5.98 -1.20 0.92 
-2.10 6.31 -1.25 0.26 
-1.88 6.01 -1.19 0.92 
-1.75 6.02 -1.18 0.92 
-1.63 6.02 -1.18 0.91 
-1.51 6.01 -1.17 0.92 
-1.39 6.01 -1.16 0.92 
-1.32 6.27 -1.21 0.27 
-1.16 6.05 -1.16 0.94 
-1.05 6.10 -1.17 0.94 
-0.94 6.17 -1.18 0.86 
-0.83 6.25 -1.19 0.85 
-0.72 6.36 -1.21 0.44 
-0.63 6.69 -1.27 0.14 
-0.66 8.76 -1.66 0.18 
-0.50 8.77 -1.66 0.18 
-0.33 8.78 -1.66 0.18 
-0.17 8.79 -1.66 0.18 
0.00 8.79 -1.66 0.18 
0.17 8.79 -1.66 0.18 
0.33 8.78 -1.66 0.18 
0.50 8.77 -1.66 0.18 
0.66 8.76 -1.66 0.18 
0.83 8.75 -1.66 0.18 
1.00 8.73 -1.66 0.18 
1.16 8.71 -1.66 0.18 
1.33 8.69 -1.66 0.18 
1.49 8.66 -1.66 0.18 
1.65 8.64 -1.66 0.18 
1.82 8.60 -1.66 0.18 
1.98 8.57 -1.66 0.18 
2.14 8.53 -1.66 0.18 
2.30 8.49 -1.66 0.18 
2.46 8.44 -1.66 0.18 
2.62 8.40 -1.66 0.18 
2.78 8.35 -1.66 0.18 
2.94 8.29 -1.66 0.18 
3.10 8.24 -1.66 0.18 
3.25 8.18 -1.66 0.18 
3.41 8.11 -1.66 0.18 
3.56 8.05 -1.66 0.18 
3.71 7.98 -1.66 0.18 
3.86 7.91 -1.66 0.18 
4.01 7.84 -1.66 0.18 
4.16 7.76 -1.66 0.18 
4.31 7.68 -1.66 0.18 
4.45 7.60 -1.66 0.18 
4.59 7.51 -1.66 0.18 
4.74 7.43 -1.66 0.18 
4.88 7.33 -1.66 0.18 
5.01 7.24 -1.66 0.18 
5.15 7.15 -1.66 0.18 
5.29 7.05 -1.66 0.18 
5.42 6.95 -1.66 0.18 
5.55 6.84 -1.66 0.18 
5.68 6.74 -1.66 0.18 
5.81 6.63 -1.66 0.18 
5.93 6.52 -1.66 0.18 
6.05 6.41 -1.66 0.18 
6.17 6.29 -1.66 0.18 
6.29 6.18 -1.66 0.18 
6.41 6.06 -1.66 0.18 
6.52 5.93 -1.66 0.18 
6.64 5.81 -1.66 0.18 
6.74 5.68 -1.66 0.18 
6.85 5.56 -1.66 0.18 
6.96 5.43 -1.66 0.18 
7.06 5.29 -1.66 0.18 
5.29 3.81 -1.23 0.74 
5.28 3.65 -1.21 0.76 
5.27 3.50 -1.19 0.82 
5.27 3.36 -1.18 0.83 
5.27 3.22 -1.17 0.85 
5.28 3.09 -1.15 0.91 
5.30 2.97 -1.15 0.89 
5.32 2.85 -1.14 0.96 
5.38 2.75 -1.14 0.86 
5.50 2.69 -1.16 0.52 
5.74 2.67 -1.20 0.17 
6.14 2.72 -1.27 0.32 
6.56 2.75 -1.34 0.26 
7.27 2.89 -1.48 0.35 
8.27 3.11 -1.67 0.18 
8.33 2.95 -1.67 0.18 
8.38 2.79 -1.67 0.18 
8.44 2.64 -1.67 0.18 
8.48 2.48 -1.67 0.18 
8.53 2.31 -1.67 0.18 
8.57 2.15 -1.67 0.18 
8.61 1.99 -1.67 0.18 
8.65 1.83 -1.67 0.18 
8.68 1.66 -1.67 0.18 
8.71 1.50 -1.67 0.18 
8.74 1.33 -1.67 0.18 
8.77 1.17 -1.67 0.18 
8.79 1.00 -1.67 0.18 
8.81 0.84 -1.67 0.18 
8.82 0.67 -1.67 0.18 
8.83 0.50 -1.67 0.18 
8.84 0.33 -1.67 0.18 
8.85 0.17 -1.67 0.18 
8.85 -0.00 -1.67 0.18 
8.85 -0.17 -1.67 0.18 
8.84 -0.33 -1.67 0.18 
8.84 -0.50 -1.67 0.18 
8.83 -0.67 -1.67 0.18 
8.81 -0.84 -1.67 0.18 
8.80 -1.00 -1.67 0.18 
8.78 -1.17 -1.67 0.18 
8.75 -1.34 -1.67 0.18 
8.73 -1.50 -1.67 0.18 
8.70 -1.67 -1.67 0.18 
8.66 -1.83 -1.67 0.18 
8.63 -1.99 -1.67 0.18 
8.59 -2.16 -1.67 0.18 
8.55 -2.32 -1.67 0.18 
8.50 -2.48 -1.67 0.18 
8.46 -2.64 -1.67 0.18 
8.40 -2.80 -1.67 0.18 
8.35 -2.96 -1.67 0.18 
8.29 -3.12 -1.67 0.18 
8.23 -3.27 -1.67 0.18 
8.17 -3.43 -1.67 0.18 
8.10 -3.58 -1.67 0.18 
8.04 -3.74 -1.67 0.18 
7.96 -3.89 -1.67 0.18 
7.89 -4.04 -1.67 0.18 
7.81 -4.19 -1.67 0.18 
7.73 -4.33 -1.67 0.18 
7.65 -4.48 -1.67 0.18 
7.56 -4.62 -1.67 0.18 
7.47 -4.77 -1.67 0.18 
7.38 -4.91 -1.67 0.18 
7.29 -5.05 -1.67 0.18 
7.19 -5.18 -1.67 0.18 
7.09 -5.32 -1.67 0.18 
6.99 -5.45 -1.67 0.18 
6.89 -5.58 -1.67 0.18 
6.78 -5.71 -1.67 0.18 
6.67 -5.84 -1.67 0.18 
6.56 -5.97 -1.67 0.18 
6.44 -6.09 -1.67 0.18 
6.33 -6.21 -1.67 0.18 
6.21 -6.33 -1.67 0.18 
6.09 -6.44 -1.67 0.18 
5.97 -6.56 -1.67 0.18 
5.84 -6.67 -1.67 0.18 
5.71 -6.78 -1.67 0.18 
5.58 -6.89 -1.67 0.18 
5.45 -6.99 -1.67 0.18 
5.32 -7.09 -1.67 0.18 
5.18 -7.19 -1.67 0.18 
5.05 -7.29 -1.67 0.18 
4.91 -7.38 -1.67 0.19 
4.76 -7.47 -1.67 0.19 
4.62 -7.55 -1.67 0.19 
4.47 -7.63 -1.67 0.19 
4.32 -7.71 -1.67 0.19 
4.17 -7.78 -1.67 0.19 
3.99 -7.80 -1.65 0.86 
3.81 -7.80 -1.64 0.87 
3.63 -7.81 -1.62 0.88 
3.45 -7.81 -1.61 0.89 
3.28 -7.81 -1.60 0.89 
3.11 -7.81 -1.59 0.90 
2.94 -7.82 -1.58 0.91 
2.77 -7.82 -1.57 0.91 
2.61 -7.82 -1.56 0.92 
2.44 -7.82 -1.55 0.92 
2.28 -7.82 -1.54 0.93 
2.12 -7.82 -1.53 0.93 
1.97 -7.83 -1.52 0.78 
1.81 -7.84 -1.52 0.18 
1.66 -7.88 -1.52 0.18 
1.51 -7.91 -1.52 0.18 
1.36 -7.93 -1.52 0.18 
1.21 -7.96 -1.52 0.18 
1.06 -7.98 -1.52 0.18 
0.91 -8.00 -1.52 0.18 
0.76 -8.01 -1.52 0.18 
0.61 -8.03 -1.52 0.18 
0.46 -8.03 -1.52 0.18 
0.30 -8.04 -1.52 0.18 
0.15 -8.05 -1.52 0.18 
0.00 -8.05 -1.52 0.18 
-0.15 -8.04 -1.52 0.18 
-0.30 -8.04 -1.52 0.18 
-0.46 -8.03 -1.52 0.18 
-0.61 -8.02 -1.52 0.18 
-0.76 -8.01 -1.52 0.18 
-0.91 -7.99 -1.52 0.18 
-1.06 -7.97 -1.52 0.18 
-1.21 -7.95 -1.52 0.18 
-1.36 -7.93 -1.52 0.18 
-1.51 -7.90 -1.52 0.18 
-1.66 -7.87 -1.52 0.18 
-1.81 -7.83 -1.52 0.18 
-1.97 -7.83 -1.52 0.78 
-2.12 -7.82 -1.53 0.93 
-2.28 -7.82 -1.54 0.93 
-2.44 -7.82 -1.55 0.92 
-2.61 -7.82 -1.56 0.92 
-2.77 -7.82 -1.56 0.91 
-2.94 -7.82 -1.58 0.91 
-3.11 -7.81 -1.59 0.90 
-3.28 -7.81 -1.60 0.89 
-3.45 -7.81 -1.61 0.89 
-1.76 -3.79 -0.79 0.32 
-1.77 -3.62 -0.76 0.39 
-1.78 -3.47 -0.74 0.51 
-1.80 -3.36 -0.72 0.52 
-1.83 -3.26 -0.71 0.57 
-1.86 -3.17 -0.69 0.58 
-1.89 -3.09 -0.68 0.62 
-1.93 -3.03 -0.68 0.85 
-1.99 -2.99 -0.68 0.85 
-2.06 -2.97 -0.68 0.83 
-2.14 -2.97 -0.69 0.79 
-2.13 -2.84 -0.67 0.39 
-2.31 -2.96 -0.71 0.77 
-2.40 -2.95 -0.72 0.75 
-2.49 -2.95 -0.73 0.74 
-2.58 -2.95 -0.74 0.73 
-2.68 -2.94 -0.75 0.72 
-2.78 -2.94 -0.76 0.64 
-2.89 -2.95 -0.78 0.62 
-3.01 -2.96 -0.80 0.58 
-3.15 -2.98 -0.82 0.54 
-3.31 -3.01 -0.84 0.49 
-6.64 -5.81 -1.67 0.18 
-6.75 -5.69 -1.66 0.18 
-6.85 -5.56 -1.66 0.18 
-6.96 -5.43 -1.66 0.18 
-7.06 -5.29 -1.66 0.18 
-7.16 -5.16 -1.66 0.18 
-7.25 -5.02 -1.66 0.18 
-7.34 -4.88 -1.66 0.18 
-7.44 -4.74 -1.66 0.18 
-7.52 -4.60 -1.66 0.18 
-7.61 -4.46 -1.66 0.18 
-7.69 -4.31 -1.66 0.18 
-7.77 -4.16 -1.66 0.18 
-7.85 -4.02 -1.66 0.18 
-7.92 -3.87 -1.66 0.18 
-7.99 -3.72 -1.66 0.18 
-8.06 -3.56 -1.66 0.18 
-8.12 -3.41 -1.66 0.18 
-8.19 -3.26 -1.66 0.18 
-8.25 -3.10 -1.66 0.18 
-8.30 -2.94 -1.66 0.18 
-8.36 -2.79 -1.66 0.18 
-8.41 -2.63 -1.66 0.18 
-1.07 -0.31 -0.21 0.16 
-1.08 -0.29 -0.21 0.16 
-1.09 -0.27 -0.21 0.16 
-1.09 -0.25 -0.21 0.16 
-1.10 -0.23 -0.21 0.16 
-1.10 -0.21 -0.21 0.16 
-1.10 -0.19 -0.21 0.16 
-1.11 -0.17 -0.21 0.16 
-1.11 -0.15 -0.21 0.16 
-1.11 -0.13 -0.21 0.16 
-1.12 -0.11 -0.21 0.16 
-1.12 -0.08 -0.21 0.16 
-1.12 -0.06 -0.21 0.19 
-1.12 -0.04 -0.21 0.19 
-1.11 -0.02 -0.21 0.19 
-1.10 -0.00 -0.21 0.19 
-1.10 0.02 -0.21 0.19 
-1.10 0.04 -0.21 0.20 
-1.09 0.06 -0.21 0.20 
-1.09 0.08 -0.21 0.19 
-1.10 0.10 -0.21 0.19 
-1.10 0.13 -0.21 0.19 
-1.10 0.15 -0.21 0.19 
-1.10 0.17 -0.21 0.19 
-1.09 0.19 -0.21 0.17 
-1.09 0.21 -0.21 0.17 
-1.09 0.23 -0.21 0.17 
-1.08 0.25 -0.21 0.17 
-1.08 0.27 -0.21 0.17 
-1.07 0.29 -0.21 0.17 
-1.06 0.31 -0.21 0.17 
-1.06 0.33 -0.21 0.17 
-1.05 0.35 -0.21 0.17 
-1.04 0.37 -0.21 0.17 
-1.04 0.39 -0.21 0.17 
-1.03 0.41 -0.21 0.17 
-1.02 0.43 -0.21 0.17 
-5.45 2.41 -1.13 0.39 
-5.32 2.47 -1.11 0.83 
-5.18 2.53 -1.09 0.71 
-5.09 2.60 -1.09 0.96 
-5.04 2.70 -1.09 0.94 
-5.02 2.82 -1.09 0.87 
-5.02 2.94 -1.10 0.87 
-5.01 3.06 -1.12 0.84 
-5.01 3.19 -1.13 0.83 
-5.01 3.33 -1.14 0.82 
-5.00 3.46 -1.16 0.81 
-5.01 3.61 -1.17 0.75 
-5.01 3.76 -1.19 0.73 
-5.02 3.91 -1.21 0.72 
-5.02 4.07 -1.23 0.71 
-5.03 4.24 -1.25 0.48 
-6.56 5.75 -1.66 0.18 
-6.45 5.87 -1.66 0.18 
-6.34 5.99 -1.66 0.18 
-6.23 6.11 -1.66 0.18 
-6.11 6.23 -1.66 0.18 
-5.99 6.34 -1.66 0.18 
-5.87 6.45 -1.66 0.18 
-5.75 6.56 -1.66 0.18 
-5.62 6.67 -1.66 0.18 
-4.87 6.01 -1.47 0.77 
-4.69 6.02 -1.45 0.78 
-4.51 6.02 -1.43 0.75 
-4.33 6.01 -1.41 0.75 
-4.20 6.07 -1.40 0.50 
-3.98 5.98 -1.36 0.78 
-3.82 5.98 -1.35 0.81 
-3.66 5.98 -1.33 0.82 
-3.50 5.98 -1.32 0.83 
-3.35 5.98 -1.30 0.84 
-3.21 5.98 -1.29 0.85 
-3.06 5.98 -1.28 0.86 
-2.92 5.98 -1.26 0.87 
-2.78 5.98 -1.25 0.88 
-2.64 5.98 -1.24 0.89 
-2.51 5.98 -1.23 0.89 
-2.38 5.98 -1.22 0.90 
-2.25 5.98 -1.21 0.92 
-2.12 5.98 -1.21 0.92 
-2.10 6.31 -1.26 0.26 
-1.88 6.01 -1.20 0.92 
-1.76 6.02 -1.19 0.92 
-1.63 6.02 -1.18 0.91 
-1.51 6.01 -1.18 0.92 
-1.39 6.01 -1.17 0.92 
-1.32 6.25 -1.21 0.26 
-1.16 6.05 -1.17 0.94 
-1.05 6.10 -1.18 0.94 
-0.94 6.17 -1.19 0.86 
-0.83 6.25 -1.20 0.85 
-0.72 6.35 -1.21 0.44 
-0.82 8.69 -1.66 0.18 
-0.66 8.70 -1.66 0.18 
-0.50 8.71 -1.66 0.18 
-0.33 8.72 -1.66 0.18 
-0.17 8.73 -1.66 0.18 
0.00 8.73 -1.66 0.18 
0.17 8.73 -1.66 0.18 
0.33 8.72 -1.66 0.18 
0.50 8.72 -1.66 0.18 
0.66 8.71 -1.66 0.18 
0.83 8.69 -1.66 0.18 
0.99 8.68 -1.66 0.18 
1.15 8.66 -1.66 0.18 
1.32 8.63 -1.66 0.18 
1.48 8.61 -1.66 0.18 
1.64 8.58 -1.66 0.18 
1.81 8.55 -1.66 0.18 
1.97 8.51 -1.66 0.18 
2.13 8.47 -1.66 0.18 
2.29 8.43 -1.66 0.18 
2.45 8.39 -1.66 0.18 
2.61 8.34 -1.66 0.18 
2.76 8.29 -1.66 0.18 
2.92 8.24 -1.66 0.18 
3.08 8.18 -1.66 0.18 
3.23 8.12 -1.66 0.18 
3.38 8.06 -1.66 0.18 
3.54 8.00 -1.66 0.18 
3.69 7.93 -1.66 0.18 
3.84 7.86 -1.66 0.18 
3.99 7.78 -1.66 0.18 
4.13 7.71 -1.66 0.18 
4.28 7.63 -1.66 0.18 
4.42 7.55 -1.66 0.18 
4.56 7.46 -1.66 0.18 
4.70 7.38 -1.66 0.18 
4.84 7.29 -1.66 0.18 
4.98 7.19 -1.66 0.18 
5.12 7.10 -1.66 0.18 
5.25 7.00 -1.66 0.18 
5.38 6.90 -1.66 0.18 
5.51 6.80 -1.66 0.18 
5.64 6.69 -1.66 0.18 
5.77 6.59 -1.66 0.18 
5.89 6.48 -1.66 0.18 
6.01 6.37 -1.66 0.18 
6.13 6.25 -1.66 0.18 
6.25 6.13 -1.66 0.18 
6.37 6.02 -1.66 0.18 
6.48 5.89 -1.66 0.18 
6.59 5.77 -1.66 0.18 
6.70 5.65 -1.66 0.18 
6.81 5.52 -1.66 0.18 
6.91 5.39 -1.66 0.18 
7.01 5.26 -1.66 0.18 
5.29 3.81 -1.24 0.74 
5.28 3.65 -1.22 0.76 
5.27 3.50 -1.20 0.82 
5.27 3.36 -1.19 0.83 
5.27 3.22 -1.17 0.83 
5.28 3.09 -1.16 0.91 
5.30 2.97 -1.15 0.89 
5.32 2.85 -1.15 0.96 
5.38 2.75 -1.15 0.86 
5.50 2.68 -1.16 0.52 
5.70 2.65 -1.19 0.40 
6.14 2.72 -1.28 0.32 
6.56 2.75 -1.35 0.26 
7.27 2.89 -1.49 0.35 
8.22 3.09 -1.67 0.18 
8.27 2.93 -1.67 0.18 
8.33 2.78 -1.67 0.18 
8.38 2.62 -1.67 0.18 
8.43 2.46 -1.67 0.18 
8.47 2.30 -1.67 0.18 
8.52 2.14 -1.67 0.18 
8.56 1.98 -1.67 0.18 
8.59 1.82 -1.67 0.18 
8.63 1.65 -1.67 0.18 
8.66 1.49 -1.67 0.18 
8.69 1.33 -1.67 0.18 
8.71 1.16 -1.67 0.18 
8.73 1.00 -1.67 0.18 
8.75 0.83 -1.67 0.18 
8.76 0.66 -1.67 0.18 
8.77 0.50 -1.67 0.18 
8.78 0.33 -1.67 0.18 
8.79 0.17 -1.67 0.18 
8.79 -0.00 -1.67 0.18 
8.79 -0.17 -1.67 0.18 
8.79 -0.33 -1.67 0.18 
8.78 -0.50 -1.67 0.18 
8.77 -0.67 -1.67 0.18 
8.76 -0.83 -1.67 0.18 
8.74 -1.00 -1.67 0.18 
8.72 -1.16 -1.67 0.18 
8.70 -1.33 -1.67 0.18 
8.67 -1.49 -1.67 0.18 
8.64 -1.65 -1.67 0.18 
8.61 -1.82 -1.67 0.18 
8.57 -1.98 -1.67 0.18 
8.53 -2.14 -1.67 0.18 
8.49 -2.30 -1.67 0.18 
8.45 -2.46 -1.67 0.18 
8.40 -2.62 -1.67 0.18 
8.35 -2.78 -1.67 0.18 
8.30 -2.94 -1.67 0.18 
8.24 -3.10 -1.67 0.18 
8.18 -3.25 -1.67 0.18 
8.12 -3.41 -1.67 0.18 
8.05 -3.56 -1.67 0.18 
7.98 -3.71 -1.67 0.18 
7.91 -3.86 -1.67 0.18 
7.84 -4.01 -1.67 0.18 
7.76 -4.16 -1.67 0.18 
7.68 -4.31 -1.67 0.18 
7.60 -4.45 -1.67 0.18 
7.51 -4.59 -1.67 0.18 
7.42 -4.74 -1.67 0.18 
7.33 -4.88 -1.67 0.18 
7.24 -5.01 -1.67 0.18 
7.14 -5.15 -1.67 0.18 
7.05 -5.28 -1.67 0.18 
6.94 -5.42 -1.67 0.18 
6.84 -5.55 -1.67 0.18 
6.74 -5.68 -1.67 0.18 
6.63 -5.80 -1.67 0.18 
6.52 -5.93 -1.67 0.18 
6.40 -6.05 -1.67 0.18 
6.29 -6.17 -1.67 0.18 
6.17 -6.29 -1.67 0.18 
6.05 -6.40 -1.67 0.18 
5.93 -6.52 -1.67 0.18 
5.80 -6.63 -1.67 0.18 
5.68 -6.74 -1.67 0.18 
5.55 -6.84 -1.67 0.18 
5.42 -6.95 -1.67 0.18 
5.28 -7.05 -1.67 0.18 
5.15 -7.15 -1.67 0.18 
5.01 -7.24 -1.67 0.18 
4.88 -7.34 -1.67 0.18 
4.73 -7.42 -1.67 0.19 
4.59 -7.50 -1.67 0.19 
4.44 -7.58 -1.67 0.19 
4.29 -7.66 -1.67 0.19 
4.15 -7.73 -1.67 0.19 
3.99 -7.80 -1.66 0.86 
3.81 -7.80 -1.65 0.87 
3.63 -7.81 -1.63 0.88 
3.45 -7.81 -1.62 0.89 
3.28 -7.81 -1.61 0.89 
3.11 -7.81 -1.60 0.90 
2.94 -7.81 -1.59 0.91 
2.77 -7.82 -1.57 0.91 
2.61 -7.82 -1.57 0.92 
2.44 -7.82 -1.56 0.92 
2.28 -7.82 -1.55 0.93 
2.12 -7.82 -1.54 0.93 
1.96 -7.82 -1.53 0.94 
1.81 -7.83 -1.53 0.78 
1.65 -7.83 -1.52 0.79 
1.50 -7.86 -1.52 0.18 
1.36 -7.88 -1.52 0.18 
1.21 -7.91 -1.52 0.18 
1.06 -7.93 -1.52 0.18 
0.91 -7.95 -1.52 0.18 
0.76 -7.96 -1.52 0.18 
0.60 -7.97 -1.52 0.18 
0.45 -7.98 -1.52 0.18 
0.30 -7.99 -1.52 0.18 
0.15 -7.99 -1.52 0.18 
0.00 -7.99 -1.52 0.18 
-0.15 -7.99 -1.52 0.18 
-0.30 -7.99 -1.52 0.18 
-0.45 -7.98 -1.52 0.80 
-0.60 -7.97 -1.52 0.18 
-0.76 -7.96 -1.52 0.18 
-0.91 -7.94 -1.52 0.18 
-1.06 -7.92 -1.52 0.18 
-1.21 -7.90 -1.52 0.18 
-1.35 -7.87 -1.52 0.18 
-1.50 -7.85 -1.52 0.18 
-1.65 -7.83 -1.52 0.79 
-1.81 -7.82 -1.53 0.94 
-1.96 -7.82 -1.53 0.94 
-2.12 -7.82 -1.54 0.93 
-2.28 -7.82 -1.55 0.93 
-2.44 -7.82 -1.56 0.92 
-2.61 -7.82 -1.57 0.92 
-2.77 -7.82 -1.57 0.91 
-2.94 -7.81 -1.59 0.91 
-3.11 -7.81 -1.60 0.90 
-3.28 -7.81 -1.61 0.89 
-1.77 -4.00 -0.83 0.20 
-1.76 -3.78 -0.79 0.32 
-1.76 -3.61 -0.76 0.39 
-1.78 -3.47 -0.74 0.51 
-1.80 -3.36 -0.72 0.52 
-1.83 -3.26 -0.71 0.57 
-1.85 -3.16 -0.70 0.58 
-1.89 -3.09 -0.69 0.62 
-1.93 -3.02 -0.68 0.85 
-1.98 -2.98 -0.68 0.85 
-2.06 -2.97 -0.69 0.83 
-2.04 -2.83 -0.66 0.54 
-2.12 -2.83 -0.67 0.39 
-2.31 -2.96 -0.71 0.77 
-2.39 -2.95 -0.72 0.75 
-2.48 -2.95 -0.73 0.74 
-2.58 -2.94 -0.74 0.73 
-2.67 -2.94 -0.75 0.72 
-2.78 -2.94 -0.77 0.64 
-2.89 -2.95 -0.78 0.62 
-3.01 -2.96 -0.80 0.58 
-3.15 -2.98 -0.82 0.54 
-3.31 -3.01 -0.85 0.49 
-6.60 -5.78 -1.67 0.18 
-6.70 -5.65 -1.66 0.18 
-6.81 -5.52 -1.66 0.18 
-6.91 -5.39 -1.66 0.18 
-7.01 -5.26 -1.66 0.18 
-7.11 -5.12 -1.66 0.18 
-7.20 -4.99 -1.66 0.18 
-7.30 -4.85 -1.66 0.18 
-7.39 -4.71 -1.66 0.18 
-7.47 -4.57 -1.66 0.18 
-7.56 -4.43 -1.66 0.18 
-7.64 -4.28 -1.66 0.18 
-7.72 -4.14 -1.66 0.18 
-7.80 -3.99 -1.66 0.18 
-7.87 -3.84 -1.66 0.18 
-7.94 -3.69 -1.66 0.18 
-8.01 -3.54 -1.66 0.18 
-8.07 -3.39 -1.66 0.18 
-8.13 -3.23 -1.66 0.18 
-8.19 -3.08 -1.66 0.18 
-8.25 -2.92 -1.66 0.18 
-8.30 -2.77 -1.66 0.18 
-8.35 -2.61 -1.66 0.18 
-1.07 -0.31 -0.21 0.17 
-1.07 -0.29 -0.21 0.17 
-1.08 -0.27 -0.21 0.17 
-1.08 -0.25 -0.21 0.17 
-1.09 -0.23 -0.21 0.17 
-1.09 -0.21 -0.21 0.17 
-1.10 -0.19 -0.21 0.17 
-1.10 -0.17 -0.21 0.17 
-1.10 -0.15 -0.21 0.17 
-1.11 -0.13 -0.21 0.17 
-1.11 -0.11 -0.21 0.17 
-1.11 -0.08 -0.21 0.17 
-1.11 -0.06 -0.21 0.17 
-1.11 -0.04 -0.21 0.19 
-1.11 -0.02 -0.21 0.19 
-1.10 0.00 -0.21 0.20 
-1.09 0.02 -0.21 0.20 
-1.09 0.04 -0.21 0.20 
-1.09 0.06 -0.21 0.20 
-1.09 0.08 -0.21 0.19 
-1.09 0.10 -0.21 0.19 
-1.09 0.12 -0.21 0.19 
-1.09 0.15 -0.21 0.19 
-1.09 0.17 -0.21 0.17 
-1.09 0.19 -0.21 0.17 
-1.08 0.21 -0.21 0.17 
-1.08 0.23 -0.21 0.17 
-1.07 0.25 -0.21 0.17 
-1.07 0.27 -0.21 0.17 
-1.06 0.29 -0.21 0.17 
-1.06 0.31 -0.21 0.17 
-1.05 0.33 -0.21 0.17 
-1.04 0.35 -0.21 0.17 
-1.04 0.37 -0.21 0.17 
-1.03 0.39 -0.21 0.17 
-1.02 0.41 -0.21 0.17 
-1.01 0.42 -0.21 0.17 
-5.45 2.41 -1.14 0.39 
-5.31 2.47 -1.12 0.83 
-5.18 2.53 -1.10 0.71 
-5.09 2.60 -1.09 0.96 
-5.04 2.70 -1.09 0.94 
-5.02 2.82 -1.10 0.87 
-5.02 2.94 -1.11 0.87 
-5.01 3.06 -1.12 0.84 
-5.01 3.19 -1.14 0.83 
-5.01 3.33 -1.15 0.82 
-5.00 3.46 -1.16 0.80 
-5.01 3.61 -1.18 0.74 
-5.01 3.76 -1.20 0.73 
-5.02 3.91 -1.22 0.72 
-5.02 4.07 -1.24 0.71 
-5.03 4.24 -1.26 0.48 
-6.52 5.71 -1.66 0.18 
-6.41 5.83 -1.66 0.18 
-6.30 5.95 -1.66 0.18 
-6.19 6.07 -1.66 0.18 
-6.07 6.19 -1.66 0.18 
-5.95 6.30 -1.66 0.18 
-5.83 6.41 -1.66 0.18 
-5.71 6.52 -1.66 0.18 
-5.58 6.63 -1.66 0.18 
-4.87 6.01 -1.48 0.76 
-4.69 6.02 -1.46 0.78 
-4.51 6.02 -1.44 0.75 
-4.33 6.01 -1.42 0.75 
-4.20 6.07 -1.41 0.50 
-3.98 5.98 -1.37 0.78 
-3.81 5.98 -1.36 0.81 
-3.66 5.98 -1.34 0.82 
-3.50 5.98 -1.32 0.83 
-3.35 5.98 -1.31 0.84 
-3.20 5.98 -1.30 0.85 
-3.06 5.98 -1.28 0.86 
-2.92 5.98 -1.27 0.87 
-2.78 5.98 -1.26 0.88 
-2.64 5.98 -1.25 0.89 
-2.51 5.98 -1.24 0.89 
-2.38 5.98 -1.23 0.90 
-2.25 5.97 -1.22 0.92 
-2.12 5.98 -1.21 0.92 
-2.00 6.01 -1.21 0.91 
-1.88 6.01 -1.20 0.92 
-1.76 6.02 -1.20 0.92 
-1.63 6.02 -1.19 0.91 
-1.51 6.01 -1.19 0.92 
-1.39 6.01 -1.18 0.92 
-1.32 6.24 -1.22 0.23 
-1.16 6.05 -1.18 0.94 
-1.05 6.10 -1.18 0.94 
-0.94 6.17 -1.19 0.86 
-0.83 6.25 -1.20 0.85 
-0.72 6.35 -1.22 0.44 
-0.82 8.63 -1.66 0.18 
-0.66 8.65 -1.66 0.18 
-0.49 8.66 -1.66 0.18 
-0.33 8.67 -1.66 0.18 
-0.16 8.67 -1.66 0.18 
-0.00 8.67 -1.66 0.18 
0.16 8.67 -1.66 0.18 
0.33 8.67 -1.66 0.18 
0.49 8.66 -1.66 0.18 
0.66 8.65 -1.66 0.18 
0.82 8.64 -1.66 0.18 
0.98 8.62 -1.66 0.18 
1.15 8.60 -1.66 0.18 
1.31 8.58 -1.66 0.18 
1.47 8.55 -1.66 0.18 
1.63 8.52 -1.66 0.18 
1.79 8.49 -1.66 0.18 
1.95 8.46 -1.66 0.18 
2.11 8.42 -1.66 0.18 
2.27 8.38 -1.66 0.18 
2.43 8.33 -1.66 0.18 
2.59 8.29 -1.66 0.18 
2.75 8.24 -1.66 0.18 
2.90 8.19 -1.66 0.18 
3.06 8.13 -1.66 0.18 
3.21 8.07 -1.66 0.18 
3.36 8.01 -1.66 0.18 
3.51 7.94 -1.66 0.18 
3.66 7.88 -1.66 0.18 
3.81 7.81 -1.66 0.18 
3.96 7.73 -1.66 0.18 
4.11 7.66 -1.66 0.18 
4.25 7.58 -1.66 0.18 
4.39 7.50 -1.66 0.18 
4.53 7.42 -1.66 0.18 
4.67 7.33 -1.66 0.18 
4.81 7.24 -1.66 0.18 
4.95 7.15 -1.66 0.18 
5.08 7.05 -1.66 0.18 
5.22 6.96 -1.66 0.18 
5.35 6.86 -1.66 0.18 
5.48 6.76 -1.66 0.18 
5.61 6.65 -1.66 0.18 
5.73 6.54 -1.66 0.18 
5.85 6.44 -1.66 0.18 
5.98 6.32 -1.66 0.18 
6.09 6.21 -1.66 0.18 
6.21 6.09 -1.66 0.18 
6.33 5.98 -1.66 0.18 
6.44 5.86 -1.66 0.18 
6.55 5.73 -1.66 0.18 
6.66 5.61 -1.66 0.18 
6.76 5.48 -1.66 0.18 
6.87 5.36 -1.66 0.18 
6.97 5.22 -1.66 0.18 
5.28 3.81 -1.25 0.73 
5.27 3.65 -1.23 0.76 
5.27 3.50 -1.21 0.82 
5.27 3.36 -1.19 0.83 
5.27 3.22 -1.18 0.83 
5.28 3.09 -1.17 0.91 
5.30 2.97 -1.16 0.89 
5.32 2.85 -1.15 0.96 
5.37 2.75 -1.15 0.86 
5.49 2.68 -1.17 0.52 
5.70 2.65 -1.20 0.40 
6.14 2.72 -1.28 0.32 
6.56 2.75 -1.36 0.26 
7.27 2.89 -1.50 0.35 
8.16 3.07 -1.67 0.18 
8.22 2.91 -1.67 0.18 
8.27 2.76 -1.67 0.18 
8.33 2.60 -1.67 0.18 
8.37 2.44 -1.67 0.18 
8.42 2.28 -1.67 0.18 
8.46 2.12 -1.67 0.18 
8.50 1.96 -1.67 0.18 
8.54 1.80 -1.67 0.18 
8.57 1.64 -1.67 0.18 
8.60 1.48 -1.67 0.18 
8.63 1.32 -1.67 0.18 
8.65 1.15 -1.67 0.18 
8.67 0.99 -1.67 0.18 
8.69 0.82 -1.67 0.18 
8.71 0.66 -1.67 0.18 
8.72 0.50 -1.67 0.18 
8.73 0.33 -1.67 0.18 
8.73 0.17 -1.67 0.18 
8.73 -0.00 -1.67 0.18 
8.73 -0.17 -1.67 0.18 
8.73 -0.33 -1.67 0.18 
8.72 -0.50 -1.67 0.18 
8.71 -0.66 -1.67 0.18 
8.70 -0.83 -1.67 0.18 
8.68 -0.99 -1.67 0.18 
8.66 -1.15 -1.67 0.18 
8.64 -1.32 -1.67 0.18 
8.61 -1.48 -1.67 0.18 
8.58 -1.64 -1.67 0.18 
8.55 -1.81 -1.67 0.18 
8.52 -1.97 -1.67 0.18 
8.48 -2.13 -1.67 0.18 
8.44 -2.29 -1.67 0.18 
8.39 -2.45 -1.67 0.18 
8.35 -2.61 -1.67 0.18 
8.30 -2.76 -1.67 0.18 
8.24 -2.92 -1.67 0.18 
8.19 -3.08 -1.67 0.18 
8.13 -3.23 -1.67 0.18 
8.06 -3.38 -1.67 0.18 
8.00 -3.54 -1.67 0.18 
7.93 -3.69 -1.67 0.18 
7.86 -3.84 -1.67 0.18 
7.79 -3.99 -1.67 0.18 
7.71 -4.13 -1.67 0.18 
7.63 -4.28 -1.67 0.18 
7.55 -4.42 -1.67 0.18 
7.46 -4.56 -1.67 0.18 
7.38 -4.70 -1.67 0.18 
7.29 -4.84 -1.67 0.18 
7.19 -4.98 -1.67 0.18 
7.10 -5.12 -1.67 0.18 
7.00 -5.25 -1.67 0.18 
6.90 -5.38 -1.67 0.18 
6.80 -5.51 -1.67 0.18 
6.69 -5.64 -1.67 0.18 
6.58 -5.76 -1.67 0.18 
6.47 -5.89 -1.67 0.18 
6.36 -6.01 -1.67 0.18 
6.25 -6.13 -1.67 0.18 
6.13 -6.25 -1.67 0.18 
6.01 -6.36 -1.67 0.18 
5.89 -6.47 -1.67 0.18 
5.76 -6.58 -1.67 0.18 
5.64 -6.69 -1.67 0.18 
5.51 -6.80 -1.67 0.18 
5.38 -6.90 -1.67 0.18 
5.25 -7.00 -1.67 0.18 
5.12 -7.10 -1.67 0.18 
4.98 -7.19 -1.67 0.18 
4.84 -7.29 -1.67 0.18 
4.70 -7.38 -1.67 0.19 
4.56 -7.46 -1.67 0.19 
4.41 -7.54 -1.67 0.19 
4.27 -7.61 -1.67 0.19 
4.12 -7.69 -1.67 0.19 
3.97 -7.76 -1.67 0.19 
3.81 -7.80 -1.66 0.87 
3.63 -7.80 -1.64 0.88 
3.45 -7.81 -1.63 0.89 
3.28 -7.81 -1.62 0.89 
3.11 -7.81 -1.61 0.90 
2.94 -7.81 -1.60 0.91 
2.77 -7.81 -1.58 0.91 
2.61 -7.82 -1.57 0.92 
2.44 -7.82 -1.57 0.92 
2.28 -7.82 -1.56 0.93 
2.12 -7.82 -1.55 0.93 
1.96 -7.82 -1.54 0.94 
1.81 -7.82 -1.53 0.94 
1.65 -7.82 -1.53 0.95 
1.50 -7.83 -1.52 0.79 
1.35 -7.83 -1.52 0.79 
1.20 -7.85 -1.52 0.18 
1.05 -7.88 -1.52 0.18 
0.90 -7.89 -1.52 0.18 
0.75 -7.91 -1.52 0.18 
0.60 -7.92 -1.52 0.18 
0.45 -7.93 -1.52 0.18 
0.30 -7.94 -1.52 0.18 
0.15 -7.94 -1.52 0.18 
0.00 -7.94 -1.52 0.18 
-0.15 -7.94 -1.52 0.18 
-0.30 -7.94 -1.52 0.18 
-0.45 -7.93 -1.52 0.18 
-0.60 -7.92 -1.52 0.18 
-0.75 -7.90 -1.52 0.18 
-0.90 -7.89 -1.52 0.18 
-1.05 -7.87 -1.52 0.18 
-1.20 -7.85 -1.52 0.18 
-1.35 -7.83 -1.52 0.79 
-1.50 -7.83 -1.52 0.79 
-1.65 -7.82 -1.53 0.95 
-1.81 -7.82 -1.53 0.94 
-1.96 -7.82 -1.54 0.94 
-2.12 -7.82 -1.55 0.93 
-2.28 -7.82 -1.56 0.93 
-2.44 -7.82 -1.57 0.92 
-2.61 -7.82 -1.57 0.92 
-2.77 -7.81 -1.58 0.91 
-2.94 -7.81 -1.60 0.91 
-3.11 -7.81 -1.61 0.90 
-3.28 -7.81 -1.62 0.89 
-1.76 -3.98 -0.83 0.20 
-1.75 -3.77 -0.80 0.32 
-1.76 -3.60 -0.77 0.39 
-1.77 -3.46 -0.74 0.51 
-1.80 -3.35 -0.73 0.52 
-1.82 -3.25 -0.71 0.57 
-1.85 -3.16 -0.70 0.58 
-1.89 -3.09 -0.69 0.63 
-1.93 -3.02 -0.68 0.85 
-1.98 -2.98 -0.68 0.85 
-2.05 -2.97 -0.69 0.83 
-2.04 -2.83 -0.67 0.55 
-2.12 -2.82 -0.67 0.40 
-2.30 -2.95 -0.72 0.77 
-2.39 -2.95 -0.73 0.75 
-2.48 -2.95 -0.74 0.74 
-2.58 -2.94 -0.75 0.73 
-2.67 -2.94 -0.76 0.72 
-2.78 -2.94 -0.77 0.64 
-2.89 -2.95 -0.79 0.62 
-3.01 -2.95 -0.81 0.58 
-3.15 -2.98 -0.83 0.54 
-3.31 -3.01 -0.86 0.49 
-6.55 -5.74 -1.67 0.18 
-6.66 -5.61 -1.66 0.18 
-6.76 -5.49 -1.66 0.18 
-6.87 -5.36 -1.66 0.18 
-6.97 -5.22 -1.66 0.18 
-7.06 -5.09 -1.66 0.18 
-7.16 -4.96 -1.66 0.18 
-7.25 -4.82 -1.66 0.18 
-7.34 -4.68 -1.66 0.18 
-7.43 -4.54 -1.66 0.18 
-7.51 -4.40 -1.66 0.18 
-7.59 -4.26 -1.66 0.18 
-7.67 -4.11 -1.66 0.18 
-7.74 -3.96 -1.66 0.18 
-7.82 -3.82 -1.66 0.18 
-7.89 -3.67 -1.66 0.18 
-7.95 -3.52 -1.66 0.18 
-8.02 -3.37 -1.66 0.18 
-8.08 -3.21 -1.66 0.18 
-8.14 -3.06 -1.66 0.18 
-8.20 -2.90 -1.66 0.18 
-8.25 -2.75 -1.66 0.18 
-8.30 -2.59 -1.66 0.18 
-1.06 -0.31 -0.21 0.17 
-1.06 -0.29 -0.21 0.17 
-1.07 -0.27 -0.21 0.17 
-1.08 -0.25 -0.21 0.17 
-1.08 -0.23 -0.21 0.17 
-1.08 -0.21 -0.21 0.17 
-1.09 -0.19 -0.21 0.17 
-1.09 -0.17 -0.21 0.17 
-1.09 -0.15 -0.21 0.17 
-1.10 -0.13 -0.21 0.17 
-1.10 -0.10 -0.21 0.17 
-1.10 -0.08 -0.21 0.17 
-1.10 -0.06 -0.21 0.17 
-1.10 -0.04 -0.21 0.19 
-1.10 -0.02 -0.21 0.19 
-1.09 -0.00 -0.21 0.20 
-1.09 0.02 -0.21 0.20 
-1.08 0.04 -0.21 0.20 
-1.08 0.06 -0.21 0.20 
-1.08 0.08 -0.21 0.19 
-1.08 0.10 -0.21 0.19 
-1.08 0.12 -0.21 0.19 
-1.08 0.14 -0.21 0.19 
-1.08 0.17 -0.21 0.17 
-1.08 0.19 -0.21 0.17 
-1.07 0.21 -0.21 0.17 
-1.07 0.23 -0.21 0.17 
-1.07 0.25 -0.21 0.17 
-1.06 0.27 -0.21 0.17 
-1.05 0.29 -0.21 0.17 
-1.05 0.31 -0.21 0.17 
-1.04 0.33 -0.21 0.17 
-1.04 0.35 -0.21 0.17 
-1.03 0.36 -0.21 0.17 
-1.02 0.38 -0.21 0.17 
-1.01 0.40 -0.21 0.17 
-1.00 0.42 -0.21 0.17 
-1.00 0.44 -0.21 0.16 
-5.31 2.47 -1.13 0.83 
-5.18 2.53 -1.11 0.71 
-5.09 2.60 -1.10 0.96 
-5.04 2.70 -1.10 0.94 
-5.02 2.82 -1.11 0.87 
-5.02 2.94 -1.12 0.87 
-5.01 3.06 -1.13 0.83 
-5.01 3.19 -1.14 0.83 
-5.01 3.33 -1.16 0.82 
-5.00 3.46 -1.17 0.80 
-5.01 3.61 -1.19 0.74 
-5.01 3.76 -1.21 0.73 
-5.02 3.91 -1.22 0.72 
-5.02 4.07 -1.24 0.71 
-5.03 4.24 -1.27 0.68 
-6.48 5.67 -1.66 0.18 
-6.37 5.79 -1.66 0.18 
-6.26 5.91 -1.66 0.18 
-6.15 6.03 -1.66 0.18 
-6.03 6.15 -1.66 0.18 
-5.91 6.26 -1.66 0.18 
-5.79 6.37 -1.66 0.18 
-5.67 6.48 -1.66 0.18 
-5.55 6.58 -1.66 0.18 
-4.87 6.01 -1.49 0.76 
-4.69 6.02 -1.47 0.78 
-4.51 6.02 -1.45 0.75 
-4.33 6.01 -1.43 0.75 
-4.21 6.07 -1.42 0.49 
-3.98 5.98 -1.38 0.78 
-3.81 5.98 -1.36 0.77 
-3.66 5.98 -1.35 0.82 
-3.50 5.98 -1.33 0.83 
-3.35 5.98 -1.32 0.84 
-3.20 5.98 -1.30 0.85 
-3.06 5.98 -1.29 0.86 
-2.92 5.98 -1.28 0.87 
-2.78 5.98 -1.27 0.88 
-2.64 5.98 -1.26 0.89 
-2.51 5.98 -1.25 0.89 
-2.38 5.97 -1.24 0.90 
