VERSION 0.7
FIELDS x y z intensity
SIZE 4 4 4 8
TYPE F F F F
COUNT 1 1 1 1
WIDTH 2033
HEIGHT 1
VIEWPOINT 0.0 0.0 0.0 1.0 0.0 0.0 0.0
POINTS 2033
DATA ascii
-3.47 11.10 -1.55 0.92 
-3.24 11.11 -1.54 0.92 
-3.02 11.11 -1.54 0.93 
-2.79 11.12 -1.53 0.93 
-2.57 11.13 -1.52 0.94 
-2.35 11.14 -1.52 0.94 
-2.14 11.15 -1.52 0.75 
-1.92 11.18 -1.51 0.13 
-1.71 11.22 -1.52 0.13 
-1.50 11.26 -1.52 0.13 
-1.29 11.30 -1.52 0.13 
-1.07 11.33 -1.52 0.13 
-0.86 11.35 -1.52 0.13 
-0.65 11.37 -1.52 0.13 
-0.43 11.39 -1.52 0.13 
-0.22 11.41 -1.52 0.13 
-0.00 11.42 -1.52 0.13 
0.22 11.42 -1.52 0.13 
0.43 11.43 -1.53 0.13 
0.65 11.42 -1.53 0.13 
0.87 11.42 -1.53 0.13 
1.08 11.41 -1.53 0.13 
1.30 11.39 -1.53 0.13 
1.52 11.37 -1.53 0.13 
1.09 7.12 -0.96 0.19 
1.15 6.66 -0.90 0.31 
1.22 6.39 -0.87 0.39 
1.31 6.20 -0.85 0.33 
1.41 6.09 -0.83 0.75 
1.51 6.01 -0.83 0.71 
1.63 5.99 -0.83 0.92 
1.75 5.99 -0.83 0.94 
1.87 5.99 -0.84 0.92 
2.00 6.00 -0.84 0.88 
2.13 6.00 -0.85 0.91 
2.26 6.01 -0.86 0.91 
2.39 6.01 -0.86 0.87 
2.53 6.02 -0.87 0.88 
2.66 6.02 -0.88 0.87 
2.80 6.03 -0.89 0.87 
2.94 6.03 -0.90 0.85 
3.09 6.04 -0.91 0.83 
3.24 6.05 -0.92 0.82 
3.40 6.06 -0.93 0.81 
3.55 6.07 -0.94 0.80 
3.72 6.08 -0.95 0.79 
3.88 6.08 -0.96 0.79 
4.05 6.09 -0.98 0.78 
4.22 6.10 -0.99 0.78 
4.40 6.10 -1.00 0.77 
4.58 6.10 -1.02 0.81 
4.75 6.09 -1.03 0.58 
4.90 6.04 -1.04 0.73 
5.09 6.04 -1.05 0.72 
5.30 6.05 -1.07 0.71 
5.53 6.08 -1.10 0.58 
8.86 9.38 -1.72 0.12 
9.04 9.21 -1.72 0.12 
9.22 9.04 -1.72 0.12 
9.39 8.87 -1.72 0.12 
9.56 8.70 -1.73 0.12 
9.73 8.52 -1.73 0.12 
9.89 8.34 -1.73 0.12 
10.06 8.15 -1.73 0.12 
10.21 7.97 -1.73 0.12 
10.37 7.77 -1.73 0.12 
10.52 7.58 -1.73 0.12 
10.66 7.38 -1.73 0.12 
10.81 7.18 -1.73 0.12 
10.94 6.98 -1.73 0.12 
11.08 6.77 -1.73 0.12 
11.21 6.57 -1.73 0.12 
11.34 6.36 -1.73 0.12 
11.46 6.14 -1.74 0.12 
11.58 5.93 -1.74 0.12 
11.69 5.71 -1.74 0.12 
11.80 5.49 -1.74 0.12 
11.91 5.27 -1.74 0.12 
12.01 5.04 -1.74 0.12 
12.11 4.81 -1.74 0.12 
12.20 4.59 -1.74 0.12 
12.29 4.36 -1.74 0.12 
12.37 4.12 -1.74 0.12 
12.45 3.89 -1.74 0.12 
12.52 3.65 -1.74 0.12 
12.59 3.42 -1.74 0.12 
12.66 3.18 -1.74 0.12 
12.72 2.94 -1.74 0.12 
12.78 2.70 -1.74 0.12 
12.83 2.46 -1.74 0.12 
12.87 2.21 -1.74 0.12 
12.91 1.97 -1.74 0.12 
12.95 1.73 -1.74 0.12 
12.98 1.48 -1.74 0.12 
13.01 1.23 -1.74 0.12 
13.03 0.99 -1.74 0.12 
13.05 0.74 -1.74 0.12 
13.06 0.49 -1.74 0.12 
13.07 0.25 -1.74 0.12 
13.07 -0.00 -1.74 0.12 
13.07 -0.25 -1.75 0.12 
13.06 -0.49 -1.75 0.12 
13.05 -0.74 -1.75 0.12 
13.04 -0.99 -1.75 0.12 
13.01 -1.24 -1.74 0.12 
12.99 -1.48 -1.74 0.12 
12.96 -1.73 -1.74 0.12 
12.92 -1.97 -1.74 0.12 
12.88 -2.22 -1.74 0.12 
12.83 -2.46 -1.74 0.12 
12.78 -2.70 -1.74 0.12 
12.73 -2.94 -1.74 0.12 
12.67 -3.18 -1.74 0.12 
12.61 -3.42 -1.74 0.12 
12.54 -3.66 -1.74 0.12 
12.46 -3.89 -1.74 0.12 
12.38 -4.13 -1.74 0.12 
12.30 -4.36 -1.74 0.12 
12.21 -4.59 -1.74 0.12 
12.12 -4.82 -1.74 0.12 
12.03 -5.05 -1.74 0.12 
11.92 -5.27 -1.74 0.12 
11.82 -5.50 -1.74 0.12 
6.33 -3.09 -0.94 0.34 
6.01 -3.08 -0.90 0.40 
5.74 -3.07 -0.87 0.44 
5.48 -3.07 -0.84 0.52 
5.27 -3.09 -0.81 0.55 
5.09 -3.11 -0.80 0.59 
4.92 -3.14 -0.78 0.64 
4.80 -3.19 -0.77 0.87 
4.76 -3.29 -0.77 0.93 
4.72 -3.40 -0.78 0.72 
4.69 -3.52 -0.78 0.82 
4.67 -3.64 -0.79 0.63 
4.67 -3.79 -0.80 0.67 
4.72 -3.98 -0.82 0.57 
9.14 -8.00 -1.62 0.54 
8.75 -7.96 -1.58 0.47 
8.56 -8.09 -1.57 0.12 
8.40 -8.24 -1.57 0.12 
8.24 -8.40 -1.57 0.12 
8.07 -8.55 -1.57 0.12 
7.91 -8.69 -1.57 0.12 
7.74 -8.84 -1.57 0.12 
7.56 -8.98 -1.57 0.12 
7.39 -9.11 -1.57 0.12 
7.21 -9.24 -1.56 0.12 
7.03 -9.37 -1.56 0.12 
6.85 -9.50 -1.56 0.12 
6.66 -9.62 -1.56 0.12 
6.48 -9.74 -1.56 0.12 
6.29 -9.86 -1.56 0.12 
6.10 -9.97 -1.56 0.12 
5.90 -10.07 -1.56 0.12 
5.71 -10.18 -1.56 0.12 
5.51 -10.28 -1.56 0.12 
5.31 -10.37 -1.56 0.12 
5.11 -10.47 -1.55 0.12 
4.91 -10.55 -1.55 0.12 
4.70 -10.64 -1.55 0.12 
4.50 -10.72 -1.55 0.12 
4.29 -10.79 -1.55 0.12 
4.08 -10.87 -1.55 0.12 
3.88 -10.93 -1.55 0.12 
3.67 -11.00 -1.55 0.12 
3.45 -11.06 -1.55 0.12 
3.24 -11.11 -1.55 0.12 
3.03 -11.17 -1.54 0.12 
2.82 -11.21 -1.54 0.12 
2.60 -11.26 -1.54 0.13 
2.39 -11.30 -1.54 0.13 
2.17 -11.33 -1.54 0.13 
1.95 -11.36 -1.54 0.13 
1.74 -11.39 -1.54 0.13 
1.52 -11.41 -1.54 0.13 
1.30 -11.43 -1.54 0.13 
1.09 -11.44 -1.53 0.13 
0.87 -11.45 -1.53 0.13 
0.65 -11.46 -1.53 0.13 
0.43 -11.46 -1.53 0.13 
0.22 -11.46 -1.53 0.13 
-0.00 -11.45 -1.53 0.13 
-0.22 -11.44 -1.53 0.13 
-0.43 -11.43 -1.53 0.13 
-0.65 -11.41 -1.53 0.13 
-0.86 -11.39 -1.52 0.13 
-1.08 -11.36 -1.52 0.13 
-1.29 -11.33 -1.52 0.13 
-1.51 -11.30 -1.52 0.13 
-1.72 -11.26 -1.52 0.13 
-1.93 -11.22 -1.52 0.13 
-2.14 -11.17 -1.52 0.13 
-2.35 -11.12 -1.52 0.13 
-2.56 -11.07 -1.52 0.13 
-2.76 -11.01 -1.51 0.13 
-2.97 -10.95 -1.51 0.13 
-3.17 -10.88 -1.51 0.13 
-3.38 -10.81 -1.51 0.13 
-3.58 -10.74 -1.51 0.13 
-3.78 -10.66 -1.51 0.13 
-3.98 -10.58 -1.51 0.13 
-4.17 -10.50 -1.51 0.13 
-4.37 -10.41 -1.51 0.13 
-4.56 -10.32 -1.51 0.13 
-4.75 -10.22 -1.50 0.13 
-4.94 -10.12 -1.50 0.13 
-5.13 -10.02 -1.50 0.13 
-5.32 -9.92 -1.50 0.13 
-5.50 -9.81 -1.50 0.13 
-5.68 -9.70 -1.50 0.13 
-5.86 -9.58 -1.50 0.13 
-6.04 -9.46 -1.50 0.13 
-6.21 -9.34 -1.50 0.13 
-6.38 -9.22 -1.50 0.13 
-6.55 -9.09 -1.50 0.13 
-6.72 -8.96 -1.49 0.13 
-6.88 -8.82 -1.49 0.13 
-7.04 -8.69 -1.49 0.13 
-7.20 -8.55 -1.49 0.13 
-7.36 -8.40 -1.49 0.13 
-7.51 -8.26 -1.49 0.13 
-7.66 -8.11 -1.49 0.13 
-7.83 -7.98 -1.49 0.56 
-8.14 -7.98 -1.52 0.66 
-8.45 -7.99 -1.55 0.64 
-8.78 -7.99 -1.59 0.63 
-9.13 -7.99 -1.62 0.61 
-9.33 -7.86 -1.63 0.14 
-9.49 -7.69 -1.63 0.14 
-9.64 -7.52 -1.63 0.13 
-9.78 -7.33 -1.63 0.13 
-9.91 -7.14 -1.63 0.13 
-10.04 -6.95 -1.63 0.13 
-10.16 -6.76 -1.63 0.13 
-10.29 -6.56 -1.63 0.13 
-10.40 -6.36 -1.63 0.13 
-10.52 -6.16 -1.63 0.13 
-10.63 -5.96 -1.63 0.13 
-10.74 -5.75 -1.63 0.13 
-10.84 -5.55 -1.63 0.13 
-10.94 -5.34 -1.62 0.13 
-11.03 -5.13 -1.62 0.13 
-11.13 -4.92 -1.62 0.13 
-11.21 -4.71 -1.62 0.13 
-11.30 -4.49 -1.62 0.13 
-11.38 -4.28 -1.62 0.13 
-11.45 -4.06 -1.62 0.13 
-11.52 -3.84 -1.62 0.13 
-11.59 -3.62 -1.62 0.13 
-11.66 -3.40 -1.62 0.13 
-11.72 -3.18 -1.62 0.13 
-11.77 -2.96 -1.62 0.13 
-11.82 -2.73 -1.62 0.13 
-11.87 -2.51 -1.62 0.13 
-11.91 -2.28 -1.62 0.13 
-11.95 -2.06 -1.62 0.13 
-7.97 -1.22 -1.08 0.53 
-7.85 -1.05 -1.06 0.91 
-7.82 -0.89 -1.05 0.91 
-7.78 -0.74 -1.04 0.92 
-7.77 -0.59 -1.04 0.95 
-7.76 -0.44 -1.04 0.96 
-7.75 -0.29 -1.04 0.96 
-7.76 -0.15 -1.04 0.96 
-7.77 -0.00 -1.05 0.96 
-7.79 0.15 -1.05 0.95 
-7.83 0.30 -1.05 0.92 
-7.87 0.45 -1.06 0.91 
-7.91 0.60 -1.07 0.91 
-8.37 0.79 -1.13 0.96 
-11.94 1.36 -1.62 0.13 
-11.91 1.59 -1.62 0.13 
-11.88 1.81 -1.62 0.13 
-11.84 2.04 -1.62 0.13 
-11.23 2.15 -1.54 0.21 
-10.76 2.27 -1.48 0.69 
-11.71 2.71 -1.62 0.13 
-11.66 2.93 -1.62 0.13 
-11.60 3.15 -1.62 0.13 
-11.54 3.37 -1.62 0.13 
-11.48 3.59 -1.62 0.13 
-11.41 3.80 -1.62 0.13 
-11.34 4.02 -1.62 0.13 
-10.93 4.11 -1.57 0.38 
-11.19 4.45 -1.62 0.13 
-11.10 4.66 -1.62 0.13 
-11.01 4.87 -1.62 0.13 
-10.92 5.08 -1.62 0.13 
-10.83 5.29 -1.62 0.13 
-10.73 5.49 -1.62 0.13 
-10.63 5.70 -1.62 0.13 
-10.52 5.90 -1.62 0.13 
-10.41 6.10 -1.62 0.13 
-10.30 6.30 -1.63 0.13 
-9.11 5.81 -1.46 0.55 
-8.75 5.82 -1.42 0.57 
-8.78 6.08 -1.44 0.56 
-9.80 7.07 -1.63 0.13 
-9.67 7.25 -1.63 0.13 
-9.54 7.44 -1.63 0.13 
-9.19 7.45 -1.59 0.63 
-8.97 7.56 -1.58 0.28 
-9.11 7.98 -1.63 0.13 
-8.96 8.15 -1.63 0.13 
-8.81 8.32 -1.63 0.13 
-8.65 8.49 -1.63 0.13 
-8.50 8.66 -1.63 0.13 
-8.34 8.82 -1.63 0.13 
-8.17 8.98 -1.64 0.13 
-8.00 9.14 -1.64 0.13 
-7.83 9.29 -1.64 0.13 
-7.66 9.45 -1.64 0.13 
-2.28 2.93 -0.50 0.89 
-2.20 2.94 -0.49 0.80 
-2.12 2.94 -0.49 0.79 
-2.04 2.95 -0.48 0.80 
-1.96 2.95 -0.48 0.82 
-1.89 2.96 -0.47 0.83 
-1.81 2.96 -0.47 0.84 
-1.74 2.97 -0.46 0.88 
-1.67 2.98 -0.46 0.88 
-1.60 2.99 -0.46 0.89 
-1.53 2.99 -0.45 0.91 
-1.47 3.01 -0.45 0.77 
-1.41 3.04 -0.45 0.77 
-1.36 3.07 -0.45 0.77 
-1.30 3.10 -0.45 0.77 
-1.26 3.18 -0.46 0.42 
-1.24 3.30 -0.48 0.32 
-1.22 3.45 -0.49 0.29 
-1.21 3.63 -0.52 0.24 
-3.47 11.10 -1.57 0.92 
-3.24 11.10 -1.56 0.92 
-3.02 11.11 -1.55 0.93 
-2.79 11.12 -1.54 0.93 
-2.57 11.13 -1.54 0.94 
-2.35 11.14 -1.53 0.94 
-2.13 11.14 -1.53 0.94 
-1.92 11.15 -1.52 0.95 
-1.70 11.16 -1.52 0.76 
-1.49 11.17 -1.52 0.76 
-1.28 11.19 -1.52 0.13 
-1.07 11.22 -1.52 0.13 
-0.85 11.25 -1.52 0.13 
-0.64 11.27 -1.52 0.13 
-0.43 11.29 -1.52 0.13 
-0.21 11.30 -1.52 0.13 
-0.00 11.31 -1.52 0.13 
0.21 11.32 -1.52 0.13 
0.43 11.32 -1.53 0.13 
0.64 11.32 -1.53 0.13 
0.86 11.31 -1.53 0.13 
1.07 11.30 -1.53 0.13 
1.29 11.29 -1.53 0.13 
1.50 11.27 -1.53 0.13 
1.08 7.10 -0.97 0.19 
1.14 6.65 -0.91 0.31 
1.22 6.39 -0.88 0.39 
1.31 6.18 -0.85 0.33 
1.41 6.08 -0.84 0.75 
1.51 6.00 -0.83 0.71 
1.62 5.99 -0.84 0.92 
1.75 5.99 -0.84 0.94 
1.87 5.98 -0.84 0.92 
2.00 6.00 -0.85 0.88 
2.13 6.00 -0.86 0.91 
2.26 6.01 -0.86 0.91 
2.39 6.01 -0.87 0.87 
2.53 6.02 -0.88 0.88 
2.66 6.02 -0.89 0.87 
2.80 6.02 -0.89 0.87 
2.94 6.03 -0.90 0.84 
3.09 6.04 -0.91 0.83 
3.24 6.05 -0.92 0.82 
3.40 6.06 -0.94 0.81 
3.55 6.07 -0.95 0.80 
3.72 6.08 -0.96 0.79 
3.88 6.08 -0.97 0.79 
4.05 6.09 -0.99 0.78 
4.22 6.10 -1.00 0.78 
4.40 6.10 -1.01 0.77 
4.58 6.10 -1.03 0.81 
4.74 6.08 -1.04 0.58 
4.90 6.04 -1.05 0.73 
5.09 6.04 -1.06 0.72 
5.30 6.05 -1.08 0.71 
5.53 6.08 -1.11 0.58 
8.78 9.29 -1.72 0.12 
8.95 9.13 -1.72 0.12 
9.13 8.96 -1.72 0.12 
9.30 8.79 -1.72 0.12 
9.47 8.62 -1.72 0.12 
9.64 8.44 -1.73 0.12 
9.80 8.26 -1.73 0.12 
9.96 8.08 -1.73 0.12 
10.12 7.89 -1.73 0.12 
10.27 7.70 -1.73 0.12 
10.42 7.51 -1.73 0.12 
10.56 7.31 -1.73 0.12 
10.70 7.12 -1.73 0.12 
10.84 6.92 -1.73 0.12 
10.98 6.71 -1.73 0.12 
11.11 6.51 -1.73 0.12 
11.23 6.30 -1.73 0.12 
11.35 6.09 -1.73 0.12 
11.47 5.87 -1.74 0.12 
11.58 5.66 -1.74 0.12 
11.69 5.44 -1.74 0.12 
11.80 5.22 -1.74 0.12 
11.90 4.99 -1.74 0.12 
11.99 4.77 -1.74 0.12 
12.08 4.54 -1.74 0.12 
12.17 4.31 -1.74 0.12 
12.25 4.08 -1.74 0.12 
12.33 3.85 -1.74 0.12 
12.41 3.62 -1.74 0.12 
12.48 3.39 -1.74 0.12 
12.54 3.15 -1.74 0.12 
12.60 2.91 -1.74 0.12 
12.66 2.67 -1.74 0.12 
12.71 2.43 -1.74 0.12 
12.75 2.19 -1.74 0.12 
12.79 1.95 -1.74 0.12 
12.83 1.71 -1.74 0.12 
12.86 1.47 -1.74 0.12 
12.89 1.22 -1.74 0.12 
12.91 0.98 -1.74 0.12 
12.93 0.73 -1.74 0.12 
12.94 0.49 -1.74 0.12 
12.95 0.25 -1.74 0.12 
12.95 -0.00 -1.74 0.12 
12.95 -0.25 -1.74 0.12 
12.94 -0.49 -1.74 0.12 
12.93 -0.73 -1.74 0.12 
12.91 -0.98 -1.74 0.12 
12.89 -1.22 -1.74 0.12 
12.87 -1.47 -1.74 0.12 
12.84 -1.71 -1.74 0.12 
12.80 -1.95 -1.74 0.12 
12.76 -2.19 -1.74 0.12 
12.71 -2.44 -1.74 0.12 
12.66 -2.68 -1.74 0.12 
12.61 -2.91 -1.74 0.12 
12.55 -3.15 -1.74 0.12 
12.49 -3.39 -1.74 0.12 
12.42 -3.62 -1.74 0.12 
12.35 -3.86 -1.74 0.12 
12.27 -4.09 -1.74 0.12 
12.19 -4.32 -1.74 0.12 
12.10 -4.55 -1.74 0.12 
12.01 -4.78 -1.74 0.12 
11.91 -5.00 -1.74 0.12 
11.81 -5.22 -1.74 0.12 
11.71 -5.44 -1.74 0.12 
6.33 -3.09 -0.95 0.34 
6.01 -3.08 -0.91 0.40 
5.73 -3.07 -0.88 0.44 
5.48 -3.07 -0.85 0.52 
5.26 -3.08 -0.82 0.55 
5.08 -3.11 -0.80 0.59 
4.92 -3.14 -0.79 0.64 
4.80 -3.19 -0.78 0.87 
4.75 -3.29 -0.78 0.93 
4.71 -3.40 -0.78 0.79 
4.69 -3.51 -0.79 0.82 
4.66 -3.64 -0.80 0.63 
4.67 -3.79 -0.81 0.67 
4.72 -3.97 -0.83 0.57 
9.13 -8.00 -1.64 0.54 
8.75 -7.96 -1.59 0.56 
8.48 -8.01 -1.57 0.12 
8.32 -8.17 -1.57 0.12 
8.16 -8.32 -1.57 0.12 
8.00 -8.47 -1.57 0.12 
7.83 -8.61 -1.57 0.12 
7.66 -8.75 -1.57 0.12 
7.49 -8.89 -1.57 0.12 
7.32 -9.03 -1.57 0.12 
7.14 -9.16 -1.56 0.12 
6.97 -9.29 -1.56 0.12 
6.78 -9.41 -1.56 0.12 
6.60 -9.53 -1.56 0.12 
6.42 -9.65 -1.56 0.12 
6.23 -9.77 -1.56 0.12 
6.04 -9.88 -1.56 0.12 
5.85 -9.98 -1.56 0.12 
5.65 -10.08 -1.56 0.12 
5.46 -10.18 -1.56 0.12 
5.26 -10.28 -1.56 0.13 
5.06 -10.37 -1.55 0.13 
4.86 -10.46 -1.55 0.13 
4.66 -10.54 -1.55 0.13 
4.46 -10.62 -1.55 0.13 
4.25 -10.70 -1.55 0.13 
4.05 -10.77 -1.55 0.13 
3.84 -10.83 -1.55 0.13 
3.63 -10.90 -1.55 0.13 
3.42 -10.96 -1.55 0.13 
3.21 -11.01 -1.55 0.13 
3.00 -11.06 -1.54 0.13 
2.79 -11.11 -1.54 0.13 
2.58 -11.15 -1.54 0.13 
2.36 -11.19 -1.54 0.13 
2.15 -11.23 -1.54 0.13 
1.94 -11.26 -1.54 0.13 
1.72 -11.29 -1.54 0.13 
1.51 -11.31 -1.54 0.13 
1.29 -11.33 -1.54 0.13 
1.08 -11.34 -1.53 0.13 
0.86 -11.35 -1.53 0.13 
0.65 -11.36 -1.53 0.13 
0.43 -11.36 -1.53 0.13 
0.22 -11.36 -1.53 0.13 
0.00 -11.35 -1.53 0.13 
-0.21 -11.34 -1.53 0.13 
-0.43 -11.33 -1.53 0.13 
-0.64 -11.31 -1.53 0.13 
-0.86 -11.29 -1.52 0.13 
-1.07 -11.26 -1.52 0.13 
-1.28 -11.23 -1.52 0.13 
-1.49 -11.20 -1.52 0.13 
-1.70 -11.16 -1.52 0.13 
-1.91 -11.12 -1.52 0.13 
-2.12 -11.07 -1.52 0.13 
-2.33 -11.02 -1.52 0.13 
-2.53 -10.97 -1.52 0.13 
-2.74 -10.91 -1.51 0.13 
-2.94 -10.85 -1.51 0.13 
-3.15 -10.78 -1.51 0.13 
-3.35 -10.71 -1.51 0.13 
-3.55 -10.64 -1.51 0.13 
-3.75 -10.57 -1.51 0.13 
-3.94 -10.49 -1.51 0.13 
-4.14 -10.40 -1.51 0.13 
-4.33 -10.32 -1.51 0.13 
-4.52 -10.22 -1.51 0.13 
-4.71 -10.13 -1.50 0.13 
-4.90 -10.03 -1.50 0.13 
-5.08 -9.93 -1.50 0.13 
-5.27 -9.83 -1.50 0.13 
-5.45 -9.72 -1.50 0.13 
-5.63 -9.61 -1.50 0.13 
-5.81 -9.50 -1.50 0.13 
-5.98 -9.38 -1.50 0.13 
-6.15 -9.26 -1.50 0.13 
-6.32 -9.13 -1.50 0.13 
-6.49 -9.01 -1.50 0.13 
-6.66 -8.88 -1.49 0.13 
-6.82 -8.75 -1.49 0.13 
-6.98 -8.61 -1.49 0.13 
-7.14 -8.47 -1.49 0.13 
-7.29 -8.33 -1.49 0.13 
-7.45 -8.19 -1.49 0.13 
-7.60 -8.04 -1.49 0.13 
-7.83 -7.98 -1.51 0.67 
-8.13 -7.98 -1.53 0.66 
-8.45 -7.98 -1.57 0.64 
-8.78 -7.99 -1.60 0.63 
-9.09 -7.96 -1.63 0.14 
-9.25 -7.80 -1.63 0.14 
-9.41 -7.63 -1.63 0.14 
-9.56 -7.45 -1.63 0.13 
-9.69 -7.27 -1.63 0.13 
-9.82 -7.08 -1.63 0.13 
-9.95 -6.89 -1.63 0.13 
-10.07 -6.70 -1.63 0.13 
-10.19 -6.50 -1.63 0.13 
-10.31 -6.31 -1.63 0.13 
-10.43 -6.11 -1.63 0.13 
-10.54 -5.91 -1.63 0.13 
-10.64 -5.70 -1.63 0.13 
-10.74 -5.50 -1.63 0.13 
-10.84 -5.29 -1.63 0.13 
-10.94 -5.09 -1.62 0.13 
-11.03 -4.88 -1.62 0.13 
-11.12 -4.67 -1.62 0.13 
-11.20 -4.45 -1.62 0.13 
-11.28 -4.24 -1.62 0.13 
-11.35 -4.02 -1.62 0.13 
-11.42 -3.81 -1.62 0.13 
-11.49 -3.59 -1.62 0.13 
-11.55 -3.37 -1.62 0.13 
-11.61 -3.15 -1.62 0.13 
-11.67 -2.93 -1.62 0.13 
-11.72 -2.71 -1.62 0.13 
-11.77 -2.49 -1.62 0.13 
-11.81 -2.26 -1.62 0.13 
-11.85 -2.04 -1.62 0.13 
-7.97 -1.22 -1.09 0.52 
-7.85 -1.05 -1.07 0.91 
-7.81 -0.89 -1.06 0.91 
-7.78 -0.74 -1.05 0.92 
-7.77 -0.59 -1.05 0.95 
-7.76 -0.44 -1.05 0.95 
-7.75 -0.29 -1.04 0.96 
-7.76 -0.15 -1.05 0.96 
-7.77 -0.00 -1.06 0.96 
-7.79 0.15 -1.06 0.95 
-7.83 0.30 -1.06 0.92 
-7.87 0.45 -1.07 0.91 
-7.91 0.60 -1.08 0.91 
-8.36 0.79 -1.14 0.96 
-11.83 1.35 -1.62 0.13 
-11.81 1.57 -1.62 0.13 
-11.78 1.80 -1.62 0.13 
-11.74 2.02 -1.62 0.13 
-11.23 2.15 -1.55 0.21 
-10.77 2.27 -1.50 0.69 
-11.61 2.68 -1.62 0.13 
-11.56 2.90 -1.62 0.13 
-11.50 3.12 -1.62 0.13 
-11.44 3.34 -1.62 0.13 
-11.38 3.56 -1.62 0.13 
-11.31 3.77 -1.62 0.13 
-11.24 3.99 -1.62 0.13 
-10.99 4.13 -1.60 0.04 
-11.09 4.41 -1.62 0.13 
-11.01 4.62 -1.62 0.13 
-10.92 4.83 -1.62 0.13 
-10.83 5.04 -1.62 0.13 
-10.73 5.24 -1.62 0.13 
-10.64 5.44 -1.62 0.13 
-10.53 5.65 -1.62 0.13 
-10.43 5.85 -1.62 0.13 
-10.32 6.04 -1.63 0.13 
-10.21 6.24 -1.63 0.13 
-9.11 5.81 -1.47 0.55 
-8.76 5.83 -1.43 0.57 
-9.85 6.82 -1.63 0.13 
-9.72 7.00 -1.63 0.13 
-9.59 7.19 -1.63 0.13 
-9.45 7.37 -1.63 0.13 
-9.19 7.45 -1.61 0.63 
-9.00 7.58 -1.60 0.28 
-9.03 7.91 -1.63 0.13 
-8.88 8.08 -1.63 0.13 
-8.73 8.25 -1.63 0.13 
-8.58 8.42 -1.63 0.13 
-8.42 8.58 -1.63 0.13 
-8.26 8.75 -1.64 0.13 
-8.10 8.90 -1.64 0.13 
-7.93 9.06 -1.64 0.13 
-7.76 9.21 -1.64 0.13 
-7.59 9.36 -1.64 0.13 
-2.28 2.93 -0.50 0.89 
-2.20 2.94 -0.50 0.80 
-2.12 2.94 -0.49 0.79 
-2.04 2.95 -0.49 0.80 
-1.96 2.95 -0.48 0.82 
-1.89 2.96 -0.48 0.83 
-1.81 2.96 -0.47 0.84 
-1.74 2.97 -0.47 0.88 
-1.67 2.98 -0.46 0.88 
-1.60 2.99 -0.46 0.89 
-1.53 2.99 -0.46 0.91 
-1.47 3.01 -0.46 0.92 
-1.41 3.04 -0.46 0.77 
-1.36 3.07 -0.46 0.77 
-1.30 3.09 -0.46 0.77 
-1.26 3.17 -0.46 0.43 
-1.24 3.30 -0.48 0.32 
-1.22 3.44 -0.50 0.31 
-1.21 3.62 -0.52 0.24 
-3.47 11.09 -1.58 0.92 
-3.24 11.10 -1.57 0.92 
-3.01 11.11 -1.56 0.93 
-2.79 11.12 -1.56 0.93 
-2.57 11.13 -1.55 0.94 
-2.35 11.13 -1.55 0.94 
-2.13 11.14 -1.54 0.94 
-1.92 11.15 -1.54 0.95 
-1.70 11.15 -1.53 0.95 
-1.49 11.16 -1.53 0.95 
-1.27 11.17 -1.53 0.95 
-1.06 11.18 -1.53 0.76 
-0.85 11.18 -1.52 0.76 
-0.64 11.19 -1.52 0.76 
-0.42 11.20 -1.52 0.76 
-0.21 11.21 -1.52 0.76 
0.00 11.21 -1.52 0.76 
0.21 11.22 -1.53 0.76 
0.43 11.23 -1.53 0.76 
0.64 11.23 -1.53 0.76 
0.85 11.24 -1.53 0.76 
1.07 11.24 -1.53 0.75 
1.28 11.24 -1.54 0.75 
1.50 11.25 -1.54 0.94 
1.08 7.08 -0.97 0.19 
1.14 6.64 -0.92 0.31 
1.22 6.38 -0.88 0.39 
1.30 6.16 -0.86 0.33 
1.40 6.08 -0.85 0.76 
1.51 6.00 -0.84 0.97 
1.62 5.99 -0.84 0.92 
1.75 5.99 -0.85 0.92 
1.87 5.98 -0.85 0.92 
2.00 6.00 -0.86 0.88 
2.13 6.00 -0.87 0.91 
2.26 6.00 -0.87 0.91 
2.39 6.01 -0.88 0.87 
2.52 6.01 -0.89 0.88 
2.66 6.02 -0.89 0.87 
2.80 6.02 -0.90 0.87 
2.94 6.03 -0.91 0.84 
3.09 6.04 -0.92 0.83 
3.24 6.05 -0.93 0.82 
3.40 6.06 -0.94 0.81 
3.55 6.07 -0.96 0.80 
3.72 6.08 -0.97 0.79 
3.88 6.08 -0.98 0.79 
4.05 6.09 -0.99 0.78 
4.22 6.10 -1.01 0.78 
4.40 6.10 -1.02 0.77 
4.58 6.10 -1.04 0.81 
4.74 6.08 -1.05 0.58 
4.90 6.04 -1.06 0.73 
5.09 6.04 -1.07 0.72 
5.30 6.05 -1.09 0.71 
5.53 6.08 -1.12 0.58 
8.69 9.20 -1.72 0.12 
8.87 9.04 -1.72 0.12 
9.05 8.88 -1.72 0.12 
9.22 8.71 -1.72 0.12 
9.39 8.54 -1.72 0.12 
9.55 8.36 -1.73 0.12 
9.71 8.18 -1.73 0.12 
9.87 8.00 -1.73 0.12 
10.02 7.82 -1.73 0.12 
10.18 7.63 -1.73 0.12 
10.32 7.44 -1.73 0.12 
10.47 7.25 -1.73 0.12 
10.61 7.05 -1.73 0.12 
10.74 6.85 -1.73 0.12 
10.87 6.65 -1.73 0.12 
11.00 6.45 -1.73 0.12 
11.13 6.24 -1.73 0.12 
11.25 6.03 -1.73 0.12 
11.36 5.82 -1.74 0.12 
11.48 5.60 -1.74 0.12 
11.58 5.39 -1.74 0.12 
11.69 5.17 -1.74 0.12 
11.79 4.95 -1.74 0.12 
11.88 4.73 -1.74 0.12 
11.97 4.50 -1.74 0.12 
12.06 4.27 -1.74 0.12 
12.14 4.05 -1.74 0.12 
12.22 3.82 -1.74 0.12 
12.29 3.59 -1.74 0.12 
12.36 3.35 -1.74 0.12 
12.42 3.12 -1.74 0.12 
12.48 2.88 -1.74 0.12 
12.54 2.65 -1.74 0.12 
12.59 2.41 -1.74 0.12 
12.63 2.17 -1.74 0.12 
12.67 1.93 -1.74 0.12 
12.71 1.69 -1.74 0.12 
12.74 1.45 -1.74 0.12 
12.77 1.21 -1.74 0.12 
12.79 0.97 -1.74 0.12 
12.81 0.73 -1.74 0.12 
12.82 0.49 -1.74 0.12 
12.83 0.24 -1.74 0.12 
12.83 -0.00 -1.74 0.12 
12.83 -0.24 -1.74 0.12 
12.82 -0.49 -1.74 0.12 
12.81 -0.73 -1.74 0.12 
12.79 -0.97 -1.74 0.12 
12.77 -1.21 -1.74 0.12 
12.75 -1.45 -1.74 0.12 
12.72 -1.69 -1.74 0.12 
12.68 -1.93 -1.74 0.12 
12.64 -2.17 -1.74 0.12 
12.60 -2.41 -1.74 0.12 
12.55 -2.65 -1.74 0.12 
12.49 -2.89 -1.74 0.12 
12.43 -3.12 -1.74 0.12 
12.37 -3.36 -1.74 0.12 
12.30 -3.59 -1.74 0.12 
12.23 -3.82 -1.74 0.12 
12.15 -4.05 -1.74 0.12 
12.07 -4.28 -1.74 0.12 
11.99 -4.51 -1.74 0.12 
11.90 -4.73 -1.74 0.12 
11.80 -4.95 -1.74 0.12 
11.70 -5.18 -1.74 0.12 
11.60 -5.39 -1.74 0.12 
6.32 -3.09 -0.96 0.34 
6.01 -3.07 -0.92 0.40 
5.73 -3.07 -0.88 0.44 
5.48 -3.07 -0.85 0.52 
5.26 -3.08 -0.83 0.53 
5.08 -3.11 -0.81 0.59 
4.92 -3.14 -0.79 0.64 
4.80 -3.19 -0.78 0.87 
4.75 -3.29 -0.79 0.93 
4.71 -3.39 -0.79 0.79 
4.68 -3.51 -0.80 0.82 
4.66 -3.63 -0.80 0.63 
4.66 -3.78 -0.82 0.67 
4.71 -3.97 -0.84 0.57 
9.13 -7.99 -1.65 0.54 
8.75 -7.96 -1.61 0.56 
8.40 -7.94 -1.57 0.12 
8.24 -8.09 -1.57 0.12 
8.09 -8.24 -1.57 0.13 
7.92 -8.39 -1.57 0.13 
7.76 -8.53 -1.57 0.13 
7.59 -8.67 -1.57 0.13 
7.42 -8.81 -1.57 0.13 
7.25 -8.94 -1.57 0.13 
7.08 -9.08 -1.56 0.13 
6.90 -9.20 -1.56 0.13 
6.72 -9.33 -1.56 0.13 
6.54 -9.45 -1.56 0.13 
6.36 -9.56 -1.56 0.13 
6.17 -9.68 -1.56 0.13 
5.98 -9.79 -1.56 0.13 
5.79 -9.89 -1.56 0.13 
5.60 -9.99 -1.56 0.13 
5.41 -10.09 -1.56 0.13 
5.21 -10.18 -1.56 0.13 
5.02 -10.28 -1.55 0.13 
4.82 -10.36 -1.55 0.13 
4.62 -10.44 -1.55 0.13 
4.42 -10.52 -1.55 0.13 
4.21 -10.60 -1.55 0.13 
4.01 -10.67 -1.55 0.13 
3.81 -10.74 -1.55 0.13 
3.60 -10.80 -1.55 0.13 
3.39 -10.86 -1.55 0.13 
3.18 -10.91 -1.54 0.13 
2.97 -10.96 -1.54 0.13 
2.76 -11.01 -1.54 0.13 
2.55 -11.05 -1.54 0.13 
2.34 -11.09 -1.54 0.13 
2.13 -11.13 -1.54 0.13 
1.92 -11.16 -1.54 0.13 
1.71 -11.18 -1.54 0.13 
1.49 -11.21 -1.54 0.13 
1.28 -11.22 -1.54 0.13 
1.07 -11.24 -1.53 0.13 
0.85 -11.25 -1.53 0.13 
0.64 -11.26 -1.53 0.13 
0.43 -11.26 -1.53 0.13 
0.21 -11.26 -1.53 0.13 
-0.00 -11.25 -1.53 0.13 
-0.21 -11.24 -1.53 0.13 
-0.43 -11.23 -1.53 0.13 
-0.64 -11.21 -1.53 0.13 
-0.85 -11.19 -1.52 0.13 
-1.06 -11.16 -1.52 0.13 
-1.27 -11.13 -1.52 0.13 
-1.48 -11.10 -1.52 0.13 
-1.69 -11.06 -1.52 0.13 
-1.89 -11.02 -1.52 0.13 
-2.10 -10.97 -1.52 0.13 
-2.31 -10.92 -1.52 0.13 
-2.51 -10.87 -1.52 0.13 
-2.72 -10.81 -1.52 0.13 
-2.92 -10.75 -1.51 0.13 
-3.12 -10.69 -1.51 0.13 
-3.32 -10.62 -1.51 0.13 
-3.52 -10.55 -1.51 0.13 
-3.71 -10.47 -1.51 0.13 
-3.91 -10.39 -1.51 0.13 
-4.10 -10.31 -1.51 0.13 
-4.29 -10.22 -1.51 0.13 
-4.48 -10.13 -1.51 0.13 
-4.67 -10.04 -1.51 0.13 
-4.86 -9.94 -1.50 0.13 
-5.04 -9.84 -1.50 0.13 
-5.22 -9.74 -1.50 0.13 
-5.40 -9.64 -1.50 0.13 
-5.58 -9.53 -1.50 0.13 
-5.76 -9.41 -1.50 0.13 
-5.93 -9.30 -1.50 0.13 
-6.10 -9.18 -1.50 0.13 
-6.27 -9.05 -1.50 0.13 
-6.44 -8.93 -1.50 0.13 
-6.60 -8.80 -1.50 0.13 
-6.76 -8.67 -1.49 0.13 
-6.92 -8.53 -1.49 0.13 
-7.08 -8.40 -1.49 0.13 
-7.23 -8.26 -1.49 0.13 
-7.38 -8.11 -1.49 0.13 
-7.54 -7.98 -1.49 0.57 
-7.83 -7.98 -1.52 0.67 
-8.13 -7.98 -1.55 0.66 
-8.45 -7.98 -1.58 0.64 
-8.78 -7.99 -1.61 0.63 
-9.02 -7.90 -1.63 0.14 
-9.18 -7.73 -1.63 0.14 
-9.33 -7.57 -1.63 0.14 
-9.47 -7.39 -1.63 0.13 
-9.61 -7.20 -1.63 0.13 
-9.74 -7.02 -1.63 0.13 
-9.86 -6.83 -1.63 0.13 
-9.99 -6.64 -1.63 0.13 
-10.11 -6.45 -1.63 0.13 
-10.22 -6.25 -1.63 0.13 
-10.34 -6.05 -1.63 0.13 
-10.44 -5.86 -1.63 0.13 
-10.55 -5.65 -1.63 0.13 
-10.65 -5.45 -1.63 0.13 
-10.75 -5.25 -1.63 0.13 
-10.84 -5.04 -1.63 0.13 
-10.93 -4.83 -1.62 0.13 
-11.02 -4.63 -1.62 0.13 
-11.10 -4.41 -1.62 0.13 
-11.18 -4.20 -1.62 0.13 
-11.25 -3.99 -1.62 0.13 
-11.32 -3.77 -1.62 0.13 
-11.39 -3.56 -1.62 0.13 
-11.45 -3.34 -1.62 0.13 
-11.51 -3.12 -1.62 0.13 
-11.57 -2.90 -1.62 0.13 
-11.62 -2.68 -1.62 0.13 
-11.67 -2.46 -1.62 0.13 
-11.71 -2.24 -1.62 0.13 
-11.75 -2.02 -1.62 0.13 
-7.97 -1.22 -1.10 0.52 
-7.85 -1.05 -1.08 0.91 
-7.81 -0.89 -1.07 0.91 
-7.78 -0.74 -1.06 0.92 
-7.77 -0.59 -1.06 0.95 
-7.76 -0.44 -1.06 0.95 
-7.75 -0.29 -1.05 0.96 
-7.76 -0.15 -1.05 0.96 
-7.77 -0.00 -1.07 0.96 
-7.79 0.15 -1.07 0.95 
-7.83 0.30 -1.07 0.92 
-7.87 0.45 -1.08 0.91 
-7.91 0.60 -1.09 0.91 
-8.36 0.79 -1.15 0.96 
-11.73 1.34 -1.62 0.13 
-11.71 1.56 -1.62 0.13 
-11.67 1.78 -1.62 0.13 
-11.64 2.00 -1.62 0.13 
-11.60 2.22 -1.62 0.13 
-10.78 2.28 -1.51 0.40 
-11.51 2.66 -1.62 0.13 
-11.46 2.88 -1.62 0.13 
-11.40 3.09 -1.62 0.13 
-11.35 3.31 -1.62 0.13 
-11.28 3.53 -1.62 0.13 
-11.22 3.74 -1.62 0.13 
-11.15 3.95 -1.62 0.13 
-11.07 4.16 -1.62 0.13 
-10.99 4.37 -1.62 0.13 
-10.91 4.58 -1.62 0.13 
-10.82 4.79 -1.62 0.13 
-10.73 4.99 -1.62 0.13 
-10.64 5.20 -1.62 0.13 
-10.54 5.40 -1.62 0.13 
-10.44 5.60 -1.62 0.13 
-10.34 5.80 -1.63 0.13 
-10.23 5.99 -1.63 0.13 
-10.12 6.19 -1.63 0.13 
-9.11 5.81 -1.48 0.55 
-8.77 5.83 -1.44 0.57 
-9.76 6.76 -1.63 0.13 
-9.63 6.94 -1.63 0.13 
-9.51 7.13 -1.63 0.13 
-9.37 7.31 -1.63 0.13 
-9.19 7.45 -1.62 0.63 
-9.10 7.67 -1.63 0.13 
-8.95 7.84 -1.63 0.13 
-8.81 8.01 -1.63 0.13 
-8.66 8.18 -1.63 0.13 
-8.51 8.35 -1.63 0.13 
-8.35 8.51 -1.63 0.13 
-8.19 8.67 -1.64 0.13 
-8.03 8.83 -1.64 0.13 
-7.86 8.98 -1.64 0.13 
-7.70 9.13 -1.64 0.13 
-2.41 2.97 -0.52 0.14 
-2.28 2.92 -0.51 0.89 
-2.20 2.93 -0.50 0.80 
-2.12 2.94 -0.50 0.79 
-2.04 2.94 -0.49 0.80 
-1.96 2.95 -0.49 0.82 
-1.88 2.95 -0.48 0.83 
-1.81 2.96 -0.48 0.84 
-1.74 2.97 -0.47 0.87 
-1.67 2.98 -0.47 0.88 
-1.60 2.98 -0.46 0.89 
-1.53 2.99 -0.46 0.91 
-1.47 3.01 -0.46 0.92 
-1.41 3.03 -0.46 0.77 
-1.35 3.06 -0.46 0.77 
-1.30 3.09 -0.46 0.77 
-1.26 3.16 -0.47 0.43 
-1.24 3.29 -0.48 0.32 
-1.22 3.43 -0.50 0.31 
-1.20 3.61 -0.52 0.26 
-3.46 11.09 -1.59 0.92 
-3.24 11.10 -1.59 0.92 
-3.01 11.11 -1.58 0.93 
-2.79 11.11 -1.57 0.93 
-2.57 11.12 -1.57 0.94 
-2.35 11.13 -1.56 0.94 
-2.13 11.14 -1.56 0.94 
-1.92 11.15 -1.55 0.95 
-1.70 11.15 -1.55 0.95 
-1.49 11.16 -1.54 0.95 
-1.27 11.17 -1.54 0.95 
-1.06 11.17 -1.54 0.95 
-0.85 11.18 -1.54 0.95 
-0.64 11.19 -1.54 0.95 
-0.42 11.19 -1.54 0.95 
-0.21 11.20 -1.54 0.95 
0.00 11.21 -1.54 0.95 
0.21 11.21 -1.54 0.95 
0.42 11.22 -1.54 0.95 
0.64 11.22 -1.54 0.95 
0.85 11.23 -1.54 0.95 
1.07 11.24 -1.55 0.95 
1.28 11.24 -1.55 0.94 
1.50 11.25 -1.56 0.94 
1.08 7.05 -0.98 0.19 
1.14 6.63 -0.92 0.31 
1.22 6.38 -0.89 0.39 
1.30 6.14 -0.86 0.33 
1.40 6.07 -0.85 0.76 
1.51 6.00 -0.85 0.97 
1.62 5.98 -0.85 0.92 
1.75 5.98 -0.85 0.92 
1.87 5.98 -0.86 0.92 
2.00 6.00 -0.87 0.88 
2.13 6.00 -0.87 0.91 
2.26 6.00 -0.88 0.90 
2.39 6.01 -0.89 0.87 
2.52 6.01 -0.89 0.88 
2.66 6.02 -0.90 0.88 
2.80 6.02 -0.91 0.85 
2.94 6.03 -0.92 0.84 
3.09 6.04 -0.93 0.83 
3.24 6.05 -0.94 0.82 
3.40 6.06 -0.95 0.81 
3.55 6.07 -0.96 0.80 
3.72 6.08 -0.98 0.79 
3.88 6.08 -0.99 0.79 
4.05 6.09 -1.00 0.78 
4.22 6.10 -1.02 0.78 
4.40 6.10 -1.03 0.77 
4.58 6.10 -1.05 0.80 
4.73 6.07 -1.06 0.58 
4.90 6.04 -1.07 0.73 
5.09 6.04 -1.08 0.72 
5.30 6.05 -1.10 0.71 
5.53 6.08 -1.13 0.58 
8.62 9.12 -1.72 0.13 
8.79 8.96 -1.72 0.13 
8.96 8.80 -1.72 0.13 
9.13 8.63 -1.72 0.13 
9.30 8.46 -1.72 0.13 
9.46 8.29 -1.72 0.13 
9.62 8.11 -1.73 0.13 
9.78 7.93 -1.73 0.13 
9.93 7.75 -1.73 0.13 
10.08 7.56 -1.73 0.13 
10.23 7.37 -1.73 0.13 
10.37 7.18 -1.73 0.13 
10.51 6.99 -1.73 0.13 
10.64 6.79 -1.73 0.13 
10.77 6.59 -1.73 0.13 
10.90 6.39 -1.73 0.13 
11.02 6.18 -1.73 0.13 
11.14 5.97 -1.73 0.12 
11.26 5.76 -1.73 0.12 
11.37 5.55 -1.74 0.12 
11.48 5.34 -1.74 0.12 
11.58 5.12 -1.74 0.12 
11.68 4.90 -1.74 0.12 
11.77 4.68 -1.74 0.12 
11.86 4.46 -1.74 0.12 
11.95 4.24 -1.74 0.12 
12.03 4.01 -1.74 0.12 
12.11 3.78 -1.74 0.12 
12.18 3.55 -1.74 0.12 
12.25 3.32 -1.74 0.12 
12.31 3.09 -1.74 0.12 
12.37 2.86 -1.74 0.12 
12.42 2.62 -1.74 0.12 
12.47 2.39 -1.74 0.12 
12.52 2.15 -1.74 0.12 
12.56 1.92 -1.74 0.12 
12.59 1.68 -1.74 0.12 
12.62 1.44 -1.74 0.12 
12.65 1.20 -1.74 0.12 
12.67 0.96 -1.74 0.12 
12.69 0.72 -1.74 0.12 
12.70 0.48 -1.74 0.12 
12.71 0.24 -1.74 0.12 
12.71 -0.00 -1.74 0.12 
12.71 -0.24 -1.74 0.12 
12.70 -0.48 -1.74 0.12 
12.69 -0.72 -1.74 0.12 
12.68 -0.96 -1.74 0.12 
12.65 -1.20 -1.74 0.12 
12.63 -1.44 -1.74 0.12 
12.60 -1.68 -1.74 0.12 
12.56 -1.92 -1.74 0.12 
12.52 -2.15 -1.74 0.12 
12.48 -2.39 -1.74 0.12 
12.43 -2.63 -1.74 0.12 
12.38 -2.86 -1.74 0.12 
12.32 -3.09 -1.74 0.12 
12.26 -3.33 -1.74 0.12 
12.19 -3.56 -1.74 0.12 
12.12 -3.79 -1.74 0.12 
12.04 -4.01 -1.74 0.12 
11.96 -4.24 -1.74 0.12 
11.88 -4.46 -1.74 0.12 
11.79 -4.69 -1.74 0.12 
11.69 -4.91 -1.74 0.12 
11.60 -5.13 -1.74 0.12 
11.49 -5.34 -1.74 0.12 
6.32 -3.08 -0.96 0.34 
6.00 -3.07 -0.92 0.40 
5.73 -3.07 -0.89 0.44 
5.47 -3.07 -0.86 0.52 
5.26 -3.08 -0.84 0.53 
5.07 -3.10 -0.82 0.59 
4.91 -3.13 -0.80 0.64 
4.80 -3.19 -0.79 0.87 
4.75 -3.29 -0.79 0.87 
4.70 -3.39 -0.80 0.79 
4.68 -3.51 -0.80 0.82 
4.65 -3.63 -0.81 0.63 
4.66 -3.78 -0.82 0.67 
4.71 -3.97 -0.84 0.57 
9.13 -7.99 -1.66 0.55 
8.74 -7.95 -1.62 0.56 
8.38 -7.92 -1.58 0.58 
8.17 -8.02 -1.57 0.13 
8.01 -8.17 -1.57 0.13 
7.85 -8.31 -1.57 0.13 
7.69 -8.45 -1.57 0.13 
7.52 -8.59 -1.57 0.13 
7.36 -8.73 -1.57 0.13 
7.19 -8.86 -1.56 0.13 
7.01 -8.99 -1.56 0.13 
6.84 -9.12 -1.56 0.13 
6.66 -9.24 -1.56 0.13 
6.48 -9.36 -1.56 0.13 
6.30 -9.48 -1.56 0.13 
6.12 -9.59 -1.56 0.13 
5.93 -9.70 -1.56 0.13 
5.74 -9.80 -1.56 0.13 
5.55 -9.90 -1.56 0.13 
5.36 -10.00 -1.56 0.13 
5.17 -10.09 -1.55 0.13 
4.97 -10.18 -1.55 0.13 
4.77 -10.27 -1.55 0.13 
4.58 -10.35 -1.55 0.13 
4.38 -10.43 -1.55 0.13 
4.18 -10.50 -1.55 0.13 
3.97 -10.57 -1.55 0.13 
3.77 -10.64 -1.55 0.13 
3.57 -10.70 -1.55 0.13 
3.36 -10.76 -1.55 0.13 
3.16 -10.81 -1.54 0.13 
2.95 -10.86 -1.54 0.13 
2.74 -10.91 -1.54 0.13 
2.53 -10.95 -1.54 0.13 
2.32 -10.99 -1.54 0.13 
2.11 -11.03 -1.54 0.13 
1.90 -11.06 -1.54 0.13 
1.69 -11.08 -1.54 0.13 
1.48 -11.11 -1.54 0.13 
1.27 -11.12 -1.54 0.13 
1.06 -11.14 -1.53 0.13 
0.85 -11.15 -1.53 0.13 
0.63 -11.15 -1.53 0.13 
0.42 -11.16 -1.53 0.13 
0.21 -11.16 -1.53 0.13 
-0.00 -11.15 -1.53 0.13 
-0.21 -11.14 -1.53 0.13 
-0.42 -11.13 -1.53 0.13 
-0.63 -11.11 -1.53 0.13 
-0.84 -11.09 -1.52 0.13 
-1.05 -11.06 -1.52 0.13 
-1.26 -11.03 -1.52 0.13 
-1.47 -11.00 -1.52 0.13 
-1.67 -10.96 -1.52 0.13 
-1.88 -10.92 -1.52 0.13 
-2.08 -10.87 -1.52 0.13 
-2.29 -10.83 -1.52 0.13 
-2.49 -10.77 -1.52 0.13 
-2.69 -10.72 -1.52 0.13 
-2.89 -10.66 -1.51 0.13 
-3.09 -10.59 -1.51 0.13 
-3.29 -10.53 -1.51 0.13 
-3.48 -10.45 -1.51 0.13 
-3.68 -10.38 -1.51 0.13 
-3.87 -10.30 -1.51 0.13 
-4.06 -10.22 -1.51 0.13 
-4.25 -10.13 -1.51 0.13 
-4.44 -10.05 -1.51 0.13 
-4.63 -9.95 -1.51 0.13 
-4.81 -9.86 -1.50 0.13 
-5.00 -9.76 -1.50 0.13 
-5.18 -9.66 -1.50 0.13 
-5.35 -9.55 -1.50 0.13 
-5.53 -9.44 -1.50 0.13 
-5.71 -9.33 -1.50 0.13 
-5.88 -9.21 -1.50 0.13 
-6.05 -9.10 -1.50 0.13 
-6.21 -8.98 -1.50 0.13 
-6.38 -8.85 -1.50 0.13 
-6.54 -8.72 -1.50 0.13 
-6.70 -8.59 -1.49 0.13 
-6.86 -8.46 -1.49 0.13 
-7.02 -8.32 -1.49 0.13 
-7.17 -8.19 -1.49 0.13 
-7.32 -8.04 -1.49 0.13 
-7.53 -7.97 -1.50 0.68 
-7.82 -7.97 -1.53 0.67 
-8.13 -7.98 -1.56 0.66 
-8.45 -7.98 -1.59 0.64 
-8.78 -7.98 -1.63 0.63 
-8.94 -7.83 -1.63 0.14 
-9.10 -7.67 -1.63 0.14 
-9.25 -7.50 -1.63 0.13 
-9.39 -7.32 -1.63 0.13 
-9.52 -7.14 -1.63 0.13 
-9.65 -6.96 -1.63 0.13 
-9.78 -6.77 -1.63 0.13 
-9.90 -6.58 -1.63 0.13 
-10.02 -6.39 -1.63 0.13 
-10.13 -6.20 -1.63 0.13 
-10.25 -6.00 -1.63 0.13 
-10.35 -5.80 -1.63 0.13 
-10.46 -5.61 -1.63 0.13 
-10.56 -5.41 -1.63 0.13 
-10.66 -5.20 -1.63 0.13 
-10.75 -5.00 -1.63 0.13 
-10.84 -4.79 -1.63 0.13 
-10.92 -4.59 -1.62 0.13 
-11.01 -4.38 -1.62 0.13 
-11.08 -4.17 -1.62 0.13 
-11.16 -3.96 -1.62 0.13 
-11.23 -3.74 -1.62 0.13 
-11.29 -3.53 -1.62 0.13 
-11.36 -3.31 -1.62 0.13 
-11.41 -3.10 -1.62 0.13 
-11.47 -2.88 -1.62 0.13 
-11.52 -2.66 -1.62 0.13 
-11.57 -2.44 -1.62 0.13 
-11.61 -2.22 -1.62 0.13 
-11.65 -2.00 -1.62 0.13 
-7.97 -1.22 -1.11 0.52 
-7.85 -1.05 -1.09 0.91 
-7.81 -0.89 -1.08 0.91 
-7.78 -0.74 -1.07 0.92 
-7.77 -0.59 -1.07 0.95 
-7.76 -0.44 -1.07 0.95 
-7.75 -0.29 -1.06 0.96 
-7.76 -0.15 -1.06 0.96 
-7.77 -0.00 -1.08 0.95 
-7.79 0.15 -1.08 0.95 
-7.83 0.30 -1.08 0.92 
-7.87 0.45 -1.09 0.91 
-7.91 0.60 -1.10 0.91 
-8.36 0.79 -1.16 0.96 
-11.63 1.33 -1.62 0.14 
-11.61 1.55 -1.62 0.14 
-11.58 1.77 -1.62 0.14 
-11.54 1.98 -1.62 0.14 
-11.50 2.20 -1.62 0.14 
-10.80 2.28 -1.53 0.40 
-11.41 2.64 -1.62 0.14 
-11.36 2.85 -1.62 0.14 
-11.31 3.07 -1.62 0.14 
-11.25 3.28 -1.62 0.14 
-11.19 3.49 -1.62 0.14 
-11.12 3.71 -1.62 0.14 
-11.05 3.92 -1.62 0.14 
-10.98 4.13 -1.62 0.14 
-10.90 4.33 -1.62 0.14 
-10.82 4.54 -1.62 0.14 
-10.73 4.75 -1.62 0.14 
-10.64 4.95 -1.62 0.14 
-10.55 5.15 -1.62 0.14 
-10.45 5.35 -1.62 0.14 
-10.35 5.55 -1.63 0.14 
-10.25 5.75 -1.63 0.13 
-10.14 5.94 -1.63 0.13 
-10.03 6.13 -1.63 0.13 
-9.10 5.81 -1.49 0.55 
-8.78 5.84 -1.46 0.57 
-9.68 6.70 -1.63 0.13 
-9.55 6.89 -1.63 0.13 
-9.42 7.07 -1.63 0.13 
-9.29 7.25 -1.63 0.13 
-9.16 7.42 -1.63 0.13 
-9.02 7.60 -1.63 0.13 
-8.88 7.77 -1.63 0.13 
-8.73 7.94 -1.63 0.13 
-8.58 8.11 -1.63 0.13 
-8.43 8.27 -1.63 0.13 
-8.28 8.44 -1.64 0.13 
-8.12 8.60 -1.64 0.13 
-7.96 8.75 -1.64 0.13 
-7.80 8.90 -1.64 0.13 
-7.63 9.06 -1.64 0.13 
-2.40 2.96 -0.53 0.60 
-2.28 2.92 -0.51 0.89 
-2.20 2.93 -0.51 0.80 
-2.12 2.94 -0.50 0.79 
-2.04 2.94 -0.50 0.80 
-1.96 2.95 -0.49 0.82 
-1.88 2.95 -0.48 0.83 
-1.81 2.96 -0.48 0.84 
-1.74 2.97 -0.48 0.87 
-1.67 2.97 -0.47 0.88 
-1.60 2.98 -0.47 0.89 
-1.53 2.99 -0.46 0.91 
-1.47 3.01 -0.46 0.92 
-1.41 3.03 -0.46 0.78 
-1.35 3.06 -0.46 0.77 
-1.30 3.09 -0.46 0.77 
-1.26 3.16 -0.47 0.43 
-1.23 3.28 -0.48 0.33 
-1.21 3.43 -0.50 0.31 
-1.20 3.60 -0.52 0.26 
-3.46 11.09 -1.61 0.92 
-3.24 11.10 -1.60 0.92 
-3.01 11.10 -1.59 0.93 
-2.79 11.11 -1.59 0.93 
-2.57 11.12 -1.58 0.94 
-2.35 11.13 -1.57 0.94 
-2.13 11.14 -1.57 0.94 
-1.92 11.14 -1.56 0.95 
-1.70 11.15 -1.56 0.95 
-1.49 11.16 -1.56 0.95 
-1.27 11.16 -1.55 0.95 
-1.06 11.17 -1.55 0.95 
-0.85 11.18 -1.55 0.95 
-0.64 11.18 -1.55 0.95 
-0.42 11.19 -1.55 0.95 
-0.21 11.20 -1.55 0.95 
-0.00 11.20 -1.55 0.95 
0.21 11.21 -1.55 0.95 
0.42 11.22 -1.55 0.95 
0.64 11.22 -1.55 0.95 
0.85 11.23 -1.56 0.95 
1.07 11.23 -1.56 0.95 
1.28 11.24 -1.56 0.94 
1.50 11.24 -1.57 0.94 
1.07 7.03 -0.98 0.19 
1.14 6.62 -0.93 0.48 
1.22 6.37 -0.90 0.39 
1.30 6.14 -0.87 0.75 
1.40 6.07 -0.86 0.76 
1.51 6.00 -0.86 0.97 
1.62 5.98 -0.86 0.92 
1.75 5.98 -0.86 0.92 
1.87 5.98 -0.87 0.89 
2.00 6.00 -0.87 0.88 
2.13 6.00 -0.88 0.91 
2.26 6.00 -0.89 0.90 
2.39 6.01 -0.89 0.87 
2.52 6.01 -0.90 0.88 
2.66 6.02 -0.91 0.86 
2.80 6.02 -0.92 0.85 
2.94 6.03 -0.93 0.84 
3.09 6.04 -0.94 0.83 
3.24 6.05 -0.95 0.82 
3.40 6.06 -0.96 0.81 
3.55 6.07 -0.97 0.80 
3.72 6.08 -0.99 0.79 
3.88 6.08 -1.00 0.79 
4.05 6.09 -1.01 0.78 
4.22 6.10 -1.03 0.78 
4.40 6.10 -1.04 0.77 
4.57 6.10 -1.05 0.80 
4.73 6.06 -1.06 0.58 
4.90 6.04 -1.08 0.73 
5.09 6.04 -1.09 0.72 
5.30 6.05 -1.11 0.71 
5.53 6.08 -1.14 0.58 
8.54 9.04 -1.72 0.13 
8.71 8.88 -1.72 0.13 
8.88 8.72 -1.72 0.13 
9.05 8.55 -1.72 0.13 
9.22 8.38 -1.72 0.13 
9.38 8.21 -1.72 0.13 
9.54 8.04 -1.73 0.13 
9.69 7.86 -1.73 0.13 
9.84 7.68 -1.73 0.13 
9.99 7.49 -1.73 0.13 
10.14 7.31 -1.73 0.13 
10.28 7.12 -1.73 0.13 
10.41 6.92 -1.73 0.13 
10.55 6.73 -1.73 0.13 
10.68 6.53 -1.73 0.13 
10.80 6.33 -1.73 0.13 
10.92 6.12 -1.73 0.13 
11.04 5.92 -1.73 0.13 
11.16 5.71 -1.73 0.13 
11.27 5.50 -1.73 0.13 
11.37 5.29 -1.74 0.13 
11.47 5.07 -1.74 0.13 
11.57 4.86 -1.74 0.13 
11.67 4.64 -1.74 0.13 
11.75 4.42 -1.74 0.13 
11.84 4.20 -1.74 0.13 
11.92 3.97 -1.74 0.13 
12.00 3.75 -1.74 0.13 
12.07 3.52 -1.74 0.13 
12.13 3.29 -1.74 0.13 
12.20 3.06 -1.74 0.13 
12.26 2.83 -1.74 0.13 
12.31 2.60 -1.74 0.13 
12.36 2.37 -1.74 0.13 
12.40 2.13 -1.74 0.13 
12.44 1.90 -1.74 0.13 
12.48 1.66 -1.74 0.13 
12.51 1.43 -1.74 0.13 
12.53 1.19 -1.74 0.13 
12.56 0.95 -1.74 0.13 
12.57 0.71 -1.74 0.13 
12.59 0.48 -1.74 0.13 
12.59 0.24 -1.74 0.13 
12.60 -0.00 -1.74 0.13 
12.59 -0.24 -1.74 0.13 
12.59 -0.48 -1.74 0.13 
12.58 -0.71 -1.74 0.13 
12.56 -0.95 -1.74 0.13 
12.54 -1.19 -1.74 0.13 
12.51 -1.43 -1.74 0.13 
12.48 -1.66 -1.74 0.13 
12.45 -1.90 -1.74 0.13 
12.41 -2.13 -1.74 0.13 
12.37 -2.37 -1.74 0.13 
12.32 -2.60 -1.74 0.13 
12.26 -2.83 -1.74 0.13 
12.21 -3.07 -1.74 0.13 
12.15 -3.30 -1.74 0.13 
12.08 -3.52 -1.74 0.13 
12.01 -3.75 -1.74 0.13 
11.93 -3.98 -1.74 0.13 
11.85 -4.20 -1.74 0.13 
11.77 -4.42 -1.74 0.13 
11.68 -4.64 -1.74 0.13 
11.59 -4.86 -1.74 0.13 
11.49 -5.08 -1.74 0.13 
11.39 -5.30 -1.74 0.13 
6.31 -3.08 -0.97 0.34 
6.00 -3.07 -0.93 0.40 
5.73 -3.07 -0.90 0.44 
5.47 -3.07 -0.87 0.52 
5.26 -3.08 -0.84 0.53 
5.07 -3.10 -0.82 0.62 
4.91 -3.13 -0.81 0.64 
4.80 -3.19 -0.80 0.87 
4.75 -3.29 -0.80 0.87 
4.70 -3.39 -0.80 0.86 
4.67 -3.51 -0.81 0.82 
4.65 -3.63 -0.82 0.63 
4.65 -3.77 -0.83 0.67 
4.71 -3.97 -0.85 0.57 
9.12 -7.99 -1.68 0.55 
8.74 -7.95 -1.63 0.56 
8.37 -7.91 -1.59 0.58 
8.10 -7.94 -1.57 0.13 
7.94 -8.09 -1.57 0.13 
7.78 -8.24 -1.57 0.13 
7.62 -8.38 -1.57 0.13 
7.46 -8.52 -1.57 0.13 
7.29 -8.65 -1.57 0.13 
7.12 -8.78 -1.56 0.13 
6.95 -8.91 -1.56 0.13 
6.78 -9.04 -1.56 0.13 
6.60 -9.16 -1.56 0.13 
6.42 -9.28 -1.56 0.13 
6.24 -9.39 -1.56 0.13 
6.06 -9.50 -1.56 0.13 
5.88 -9.61 -1.56 0.13 
5.69 -9.71 -1.56 0.13 
5.50 -9.81 -1.56 0.13 
5.31 -9.91 -1.56 0.13 
5.12 -10.00 -1.55 0.13 
4.93 -10.09 -1.55 0.13 
4.73 -10.18 -1.55 0.13 
4.54 -10.26 -1.55 0.13 
4.34 -10.33 -1.55 0.13 
4.14 -10.41 -1.55 0.13 
3.94 -10.48 -1.55 0.13 
3.74 -10.54 -1.55 0.13 
3.54 -10.61 -1.55 0.13 
3.33 -10.66 -1.55 0.13 
3.13 -10.72 -1.54 0.13 
2.92 -10.77 -1.54 0.13 
2.72 -10.81 -1.54 0.13 
2.51 -10.86 -1.54 0.13 
2.30 -10.89 -1.54 0.13 
2.09 -10.93 -1.54 0.13 
1.88 -10.96 -1.54 0.13 
1.68 -10.99 -1.54 0.13 
1.47 -11.01 -1.54 0.13 
1.26 -11.03 -1.54 0.13 
1.05 -11.04 -1.53 0.13 
0.84 -11.05 -1.53 0.13 
0.63 -11.06 -1.53 0.13 
0.42 -11.06 -1.53 0.13 
0.21 -11.06 -1.53 0.13 
-0.00 -11.05 -1.53 0.13 
-0.21 -11.04 -1.53 0.13 
-0.42 -11.03 -1.53 0.13 
-0.63 -11.01 -1.53 0.13 
-0.83 -10.99 -1.52 0.13 
-1.04 -10.96 -1.52 0.13 
-1.25 -10.93 -1.52 0.13 
-1.45 -10.90 -1.52 0.13 
-1.66 -10.86 -1.52 0.13 
-1.86 -10.82 -1.52 0.13 
-2.06 -10.78 -1.52 0.13 
-2.27 -10.73 -1.52 0.13 
-2.47 -10.68 -1.52 0.13 
-2.67 -10.62 -1.52 0.13 
-2.87 -10.56 -1.51 0.13 
-3.06 -10.50 -1.51 0.13 
-3.26 -10.43 -1.51 0.13 
-3.45 -10.36 -1.51 0.13 
-3.65 -10.29 -1.51 0.13 
-3.84 -10.21 -1.51 0.13 
-4.03 -10.13 -1.51 0.13 
-4.22 -10.05 -1.51 0.13 
-4.40 -9.96 -1.51 0.13 
-4.59 -9.87 -1.51 0.13 
-4.77 -9.77 -1.50 0.13 
-4.95 -9.67 -1.50 0.13 
-5.13 -9.57 -1.50 0.13 
-5.31 -9.47 -1.50 0.13 
-5.48 -9.36 -1.50 0.13 
-5.66 -9.25 -1.50 0.13 
-5.83 -9.14 -1.50 0.13 
-5.99 -9.02 -1.50 0.13 
-6.16 -8.90 -1.50 0.13 
-6.32 -8.77 -1.50 0.13 
-6.49 -8.65 -1.50 0.13 
-6.64 -8.52 -1.49 0.13 
-6.80 -8.39 -1.49 0.13 
-6.95 -8.25 -1.49 0.13 
-7.11 -8.12 -1.49 0.13 
-7.25 -7.98 -1.49 0.13 
-7.53 -7.97 -1.52 0.68 
-7.82 -7.97 -1.54 0.67 
-8.13 -7.97 -1.58 0.66 
-8.44 -7.98 -1.61 0.64 
-8.71 -7.93 -1.63 0.14 
-8.87 -7.77 -1.63 0.14 
-9.03 -7.61 -1.63 0.14 
-9.17 -7.44 -1.63 0.13 
-9.31 -7.26 -1.63 0.13 
-9.44 -7.08 -1.63 0.13 
-9.57 -6.90 -1.63 0.13 
-9.69 -6.71 -1.63 0.13 
-9.82 -6.53 -1.63 0.13 
-9.93 -6.34 -1.63 0.13 
-10.05 -6.14 -1.63 0.13 
-10.16 -5.95 -1.63 0.13 
-10.27 -5.76 -1.63 0.13 
-10.37 -5.56 -1.63 0.13 
-10.47 -5.36 -1.63 0.13 
-10.57 -5.16 -1.63 0.13 
-10.66 -4.96 -1.63 0.13 
-10.75 -4.75 -1.63 0.13 
-10.83 -4.55 -1.63 0.14 
-10.91 -4.34 -1.62 0.14 
-10.99 -4.13 -1.62 0.14 
-11.06 -3.92 -1.62 0.14 
-11.13 -3.71 -1.62 0.14 
-11.20 -3.50 -1.62 0.14 
-11.26 -3.29 -1.62 0.14 
-11.32 -3.07 -1.62 0.14 
-11.37 -2.86 -1.62 0.14 
-11.42 -2.64 -1.62 0.14 
-11.47 -2.42 -1.62 0.14 
-11.51 -2.20 -1.62 0.14 
-11.55 -1.99 -1.62 0.14 
-7.97 -1.22 -1.12 0.52 
-7.85 -1.05 -1.10 0.91 
-7.81 -0.89 -1.09 0.91 
-7.78 -0.74 -1.08 0.92 
-7.76 -0.59 -1.08 0.95 
-7.76 -0.44 -1.07 0.95 
-7.75 -0.29 -1.07 0.96 
-7.76 -0.15 -1.07 0.96 
-7.77 -0.00 -1.08 0.95 
-7.79 0.15 -1.09 0.95 
-7.82 0.30 -1.09 0.92 
-7.87 0.45 -1.10 0.91 
-7.91 0.60 -1.11 0.91 
-8.36 0.79 -1.17 0.96 
-11.53 1.32 -1.62 0.14 
-11.51 1.53 -1.62 0.14 
-11.48 1.75 -1.62 0.14 
-11.44 1.97 -1.62 0.14 
-11.41 2.18 -1.62 0.14 
-10.83 2.29 -1.54 0.40 
-11.32 2.62 -1.62 0.14 
-11.27 2.83 -1.62 0.14 
-11.21 3.04 -1.62 0.14 
-11.15 3.25 -1.62 0.14 
-11.09 3.47 -1.62 0.14 
-11.03 3.68 -1.62 0.14 
-10.96 3.88 -1.62 0.14 
-10.88 4.09 -1.62 0.14 
-10.81 4.30 -1.62 0.14 
-10.73 4.50 -1.62 0.14 
-10.64 4.71 -1.62 0.14 
-10.55 4.91 -1.62 0.14 
-10.46 5.11 -1.62 0.14 
-10.37 5.31 -1.63 0.14 
-10.27 5.50 -1.63 0.14 
-10.16 5.70 -1.63 0.14 
-10.06 5.89 -1.63 0.14 
-9.95 6.08 -1.63 0.14 
-9.10 5.81 -1.51 0.55 
-8.79 5.85 -1.47 0.57 
-9.60 6.64 -1.63 0.14 
-9.47 6.83 -1.63 0.14 
-9.34 7.01 -1.63 0.14 
-9.21 7.19 -1.63 0.14 
-9.08 7.36 -1.63 0.14 
-8.94 7.54 -1.63 0.14 
-8.80 7.71 -1.63 0.14 
-8.66 7.87 -1.63 0.14 
-8.51 8.04 -1.63 0.14 
-8.36 8.20 -1.63 0.14 
-8.21 8.36 -1.64 0.14 
-8.05 8.52 -1.64 0.14 
-7.89 8.68 -1.64 0.14 
-7.73 8.83 -1.64 0.14 
-7.57 8.98 -1.64 0.14 
-2.40 2.95 -0.53 0.30 
-2.28 2.92 -0.52 0.79 
-2.20 2.93 -0.51 0.79 
-2.12 2.94 -0.51 0.79 
-2.04 2.94 -0.50 0.80 
-1.96 2.95 -0.49 0.82 
-1.88 2.95 -0.49 0.83 
-1.81 2.96 -0.48 0.84 
-1.74 2.96 -0.48 0.87 
-1.67 2.97 -0.48 0.88 
-1.60 2.98 -0.47 0.89 
-1.53 2.99 -0.47 0.91 
-1.47 3.01 -0.47 0.92 
-1.41 3.03 -0.47 0.78 
-1.35 3.06 -0.47 0.78 
-1.29 3.08 -0.47 0.78 
-1.25 3.15 -0.47 0.43 
-1.23 3.27 -0.49 0.35 
-1.21 3.42 -0.51 0.31 
-1.19 3.58 -0.53 0.26 
-3.46 11.09 -1.62 0.92 
-3.24 11.09 -1.61 0.92 
-3.01 11.10 -1.61 0.93 
-2.79 11.11 -1.60 0.93 
-2.57 11.12 -1.59 0.94 
-2.35 11.13 -1.59 0.94 
-2.13 11.13 -1.58 0.94 
-1.92 11.14 -1.58 0.95 
-1.70 11.15 -1.57 0.95 
-1.49 11.15 -1.57 0.95 
-1.27 11.16 -1.57 0.95 
-1.06 11.17 -1.57 0.95 
-0.85 11.17 -1.56 0.95 
-0.64 11.18 -1.56 0.95 
-0.42 11.19 -1.56 0.95 
-0.21 11.19 -1.56 0.95 
0.00 11.20 -1.56 0.95 
0.21 11.21 -1.56 0.95 
0.42 11.21 -1.57 0.95 
0.64 11.22 -1.57 0.95 
0.85 11.22 -1.57 0.95 
1.07 11.23 -1.57 0.95 
1.28 11.24 -1.58 0.94 
1.50 11.24 -1.58 0.94 
1.07 7.01 -0.99 0.19 
1.14 6.61 -0.94 0.48 
1.22 6.36 -0.90 0.39 
1.29 6.13 -0.87 0.75 
1.40 6.06 -0.87 0.76 
1.51 6.00 -0.86 0.97 
1.62 5.98 -0.86 0.92 
1.74 5.97 -0.87 0.19 
1.87 5.98 -0.87 0.89 
2.00 5.99 -0.88 0.88 
2.13 6.00 -0.89 0.91 
2.26 6.00 -0.90 0.90 
2.39 6.01 -0.90 0.87 
2.52 6.01 -0.91 0.88 
2.66 6.02 -0.92 0.86 
2.80 6.02 -0.93 0.85 
2.94 6.03 -0.94 0.84 
3.09 6.04 -0.95 0.83 
3.24 6.05 -0.96 0.82 
3.40 6.06 -0.97 0.81 
3.55 6.07 -0.98 0.80 
3.72 6.08 -0.99 0.79 
3.88 6.08 -1.01 0.79 
4.05 6.09 -1.02 0.78 
4.22 6.10 -1.03 0.78 
4.40 6.10 -1.05 0.77 
4.57 6.10 -1.06 0.80 
4.72 6.05 -1.07 0.58 
4.90 6.04 -1.09 0.73 
5.09 6.04 -1.10 0.72 
5.30 6.05 -1.12 0.71 
5.53 6.08 -1.15 0.58 
8.46 8.96 -1.72 0.13 
8.63 8.80 -1.72 0.13 
8.80 8.64 -1.72 0.13 
8.97 8.47 -1.72 0.13 
9.13 8.31 -1.72 0.13 
9.29 8.14 -1.72 0.13 
9.45 7.96 -1.72 0.13 
9.60 7.79 -1.73 0.13 
9.75 7.61 -1.73 0.13 
9.90 7.43 -1.73 0.13 
10.04 7.24 -1.73 0.13 
10.18 7.05 -1.73 0.13 
10.32 6.86 -1.73 0.13 
10.45 6.67 -1.73 0.13 
10.58 6.47 -1.73 0.13 
10.71 6.27 -1.73 0.13 
10.83 6.07 -1.73 0.13 
10.94 5.87 -1.73 0.13 
11.06 5.66 -1.73 0.13 
11.17 5.45 -1.73 0.13 
11.27 5.24 -1.73 0.13 
11.37 5.03 -1.74 0.13 
11.47 4.81 -1.74 0.13 
11.56 4.60 -1.74 0.13 
11.65 4.38 -1.74 0.13 
11.73 4.16 -1.74 0.13 
11.81 3.94 -1.74 0.13 
11.89 3.71 -1.74 0.13 
11.96 3.49 -1.74 0.13 
12.02 3.26 -1.74 0.13 
12.09 3.04 -1.74 0.13 
12.14 2.81 -1.74 0.13 
12.20 2.58 -1.74 0.13 
12.25 2.35 -1.74 0.13 
12.29 2.11 -1.74 0.13 
12.33 1.88 -1.74 0.13 
12.37 1.65 -1.74 0.13 
12.40 1.41 -1.74 0.13 
12.42 1.18 -1.74 0.13 
12.44 0.94 -1.74 0.13 
12.46 0.71 -1.74 0.13 
12.47 0.47 -1.74 0.13 
12.48 0.24 -1.74 0.13 
12.48 -0.00 -1.74 0.13 
12.48 -0.24 -1.74 0.13 
12.47 -0.47 -1.74 0.13 
12.46 -0.71 -1.74 0.13 
12.45 -0.94 -1.74 0.13 
12.43 -1.18 -1.74 0.13 
12.40 -1.41 -1.74 0.13 
12.37 -1.65 -1.74 0.13 
12.34 -1.88 -1.74 0.13 
12.30 -2.12 -1.74 0.13 
12.25 -2.35 -1.74 0.13 
12.21 -2.58 -1.74 0.13 
12.15 -2.81 -1.74 0.13 
12.10 -3.04 -1.74 0.13 
12.03 -3.27 -1.74 0.13 
11.97 -3.49 -1.74 0.13 
11.90 -3.72 -1.74 0.13 
11.82 -3.94 -1.74 0.13 
11.75 -4.16 -1.74 0.13 
11.66 -4.38 -1.74 0.13 
11.57 -4.60 -1.74 0.13 
11.48 -4.82 -1.74 0.13 
11.39 -5.03 -1.74 0.13 
11.29 -5.25 -1.74 0.13 
6.30 -3.08 -0.98 0.34 
6.00 -3.07 -0.94 0.40 
5.73 -3.07 -0.91 0.44 
5.47 -3.07 -0.88 0.52 
5.26 -3.08 -0.85 0.53 
5.07 -3.10 -0.83 0.62 
4.91 -3.13 -0.81 0.65 
4.80 -3.19 -0.80 0.87 
4.74 -3.28 -0.81 0.87 
4.70 -3.39 -0.81 0.86 
4.67 -3.50 -0.81 0.82 
4.64 -3.62 -0.82 0.63 
4.65 -3.77 -0.84 0.67 
4.70 -3.96 -0.86 0.57 
9.12 -7.99 -1.69 0.55 
8.74 -7.95 -1.65 0.56 
8.37 -7.91 -1.61 0.58 
8.03 -7.88 -1.57 0.50 
7.87 -8.02 -1.57 0.13 
7.71 -8.16 -1.57 0.13 
7.55 -8.30 -1.57 0.13 
7.39 -8.44 -1.57 0.13 
7.23 -8.57 -1.56 0.13 
7.06 -8.70 -1.56 0.13 
6.89 -8.83 -1.56 0.13 
6.72 -8.96 -1.56 0.13 
6.54 -9.08 -1.56 0.13 
6.37 -9.19 -1.56 0.13 
6.19 -9.31 -1.56 0.13 
6.01 -9.42 -1.56 0.13 
5.82 -9.52 -1.56 0.13 
5.64 -9.63 -1.56 0.13 
5.45 -9.73 -1.56 0.13 
5.26 -9.82 -1.56 0.13 
5.07 -9.91 -1.55 0.13 
4.88 -10.00 -1.55 0.13 
4.69 -10.09 -1.55 0.13 
4.50 -10.17 -1.55 0.13 
4.30 -10.24 -1.55 0.13 
4.10 -10.32 -1.55 0.13 
3.90 -10.39 -1.55 0.13 
3.70 -10.45 -1.55 0.13 
3.50 -10.51 -1.55 0.13 
3.30 -10.57 -1.55 0.13 
3.10 -10.62 -1.54 0.13 
2.90 -10.67 -1.54 0.13 
2.69 -10.72 -1.54 0.13 
2.49 -10.76 -1.54 0.13 
2.28 -10.80 -1.54 0.13 
2.07 -10.83 -1.54 0.13 
1.87 -10.86 -1.54 0.13 
1.66 -10.89 -1.54 0.13 
1.45 -10.91 -1.54 0.13 
1.25 -10.93 -1.54 0.13 
1.04 -10.94 -1.53 0.13 
0.83 -10.95 -1.53 0.13 
0.62 -10.96 -1.53 0.13 
0.42 -10.96 -1.53 0.13 
0.21 -10.96 -1.53 0.13 
-0.00 -10.95 -1.53 0.13 
-0.21 -10.94 -1.53 0.13 
-0.41 -10.93 -1.53 0.13 
-0.62 -10.91 -1.53 0.13 
-0.83 -10.89 -1.52 0.13 
-1.03 -10.87 -1.52 0.13 
-1.24 -10.84 -1.52 0.13 
-1.44 -10.81 -1.52 0.13 
-1.64 -10.77 -1.52 0.13 
-1.85 -10.73 -1.52 0.13 
-2.05 -10.69 -1.52 0.13 
-2.25 -10.64 -1.52 0.13 
-2.45 -10.59 -1.52 0.13 
-2.64 -10.53 -1.52 0.13 
-2.84 -10.47 -1.51 0.13 
-3.04 -10.41 -1.51 0.13 
-3.23 -10.34 -1.51 0.13 
-3.42 -10.27 -1.51 0.13 
-3.62 -10.20 -1.51 0.13 
-3.81 -10.12 -1.51 0.13 
-3.99 -10.04 -1.51 0.13 
-4.18 -9.96 -1.51 0.13 
-4.37 -9.87 -1.51 0.13 
-4.55 -9.78 -1.51 0.13 
-4.73 -9.69 -1.50 0.13 
-4.91 -9.59 -1.50 0.13 
-5.09 -9.49 -1.50 0.13 
-5.26 -9.39 -1.50 0.13 
-5.44 -9.28 -1.50 0.13 
-5.61 -9.17 -1.50 0.13 
-5.78 -9.06 -1.50 0.13 
-5.94 -8.94 -1.50 0.13 
-6.11 -8.82 -1.50 0.13 
-6.27 -8.70 -1.50 0.14 
-6.43 -8.57 -1.50 0.14 
-6.59 -8.45 -1.50 0.14 
-6.74 -8.32 -1.49 0.14 
-6.90 -8.18 -1.49 0.14 
-7.05 -8.05 -1.49 0.14 
-7.24 -7.96 -1.50 0.70 
-7.53 -7.97 -1.53 0.68 
-7.82 -7.97 -1.56 0.67 
-8.12 -7.97 -1.59 0.66 
-8.44 -7.97 -1.62 0.64 
-8.65 -7.86 -1.63 0.15 
-8.80 -7.71 -1.63 0.15 
-8.96 -7.55 -1.63 0.15 
-9.10 -7.38 -1.63 0.14 
-9.23 -7.20 -1.63 0.14 
-9.36 -7.02 -1.63 0.14 
-9.49 -6.84 -1.63 0.14 
-9.61 -6.66 -1.63 0.14 
-9.73 -6.47 -1.63 0.14 
-9.85 -6.28 -1.63 0.14 
-9.96 -6.09 -1.63 0.14 
-10.07 -5.90 -1.63 0.14 
-10.18 -5.71 -1.63 0.14 
-10.28 -5.51 -1.63 0.14 
-10.38 -5.31 -1.63 0.14 
-10.48 -5.11 -1.63 0.14 
-10.57 -4.91 -1.63 0.14 
-10.66 -4.71 -1.63 0.14 
-10.74 -4.51 -1.63 0.14 
-10.82 -4.30 -1.63 0.14 
-10.90 -4.10 -1.62 0.14 
-10.97 -3.89 -1.62 0.14 
-11.04 -3.68 -1.62 0.14 
-11.10 -3.47 -1.62 0.14 
-11.16 -3.26 -1.62 0.14 
-11.22 -3.04 -1.62 0.14 
-11.27 -2.83 -1.62 0.14 
-11.32 -2.62 -1.62 0.14 
-11.37 -2.40 -1.62 0.14 
-11.41 -2.19 -1.62 0.14 
-11.45 -1.97 -1.62 0.14 
-7.97 -1.22 -1.13 0.52 
-7.85 -1.05 -1.10 0.91 
-7.81 -0.89 -1.10 0.91 
-7.78 -0.74 -1.09 0.92 
-7.76 -0.59 -1.09 0.95 
-7.76 -0.44 -1.08 0.95 
-7.75 -0.29 -1.08 0.96 
-7.76 -0.15 -1.08 0.96 
-7.77 -0.00 -1.09 0.95 
-7.79 0.15 -1.10 0.95 
-7.82 0.30 -1.10 0.92 
-7.87 0.45 -1.11 0.91 
-7.91 0.60 -1.12 0.91 
-8.36 0.79 -1.18 0.96 
-11.44 1.30 -1.62 0.14 
-11.41 1.52 -1.62 0.14 
-11.38 1.74 -1.62 0.14 
-11.35 1.95 -1.62 0.14 
-11.31 2.17 -1.62 0.14 
-10.86 2.29 -1.56 0.40 
-11.22 2.59 -1.62 0.14 
-11.17 2.81 -1.62 0.14 
-11.12 3.02 -1.62 0.14 
-11.06 3.23 -1.62 0.14 
-11.00 3.44 -1.62 0.14 
-10.94 3.64 -1.62 0.14 
-10.87 3.85 -1.62 0.14 
-10.79 4.06 -1.62 0.14 
-10.72 4.26 -1.62 0.14 
-10.64 4.47 -1.62 0.14 
-10.55 4.67 -1.62 0.14 
-10.47 4.87 -1.62 0.14 
-10.37 5.07 -1.63 0.14 
-10.28 5.26 -1.63 0.14 
-10.18 5.46 -1.63 0.14 
-10.08 5.65 -1.63 0.14 
-9.97 5.84 -1.63 0.14 
-9.86 6.03 -1.63 0.14 
-9.10 5.81 -1.52 0.55 
-8.80 5.85 -1.49 0.56 
-9.51 6.59 -1.63 0.14 
-9.39 6.77 -1.63 0.14 
-9.27 6.95 -1.63 0.14 
-9.14 7.13 -1.63 0.14 
-9.00 7.30 -1.63 0.14 
-8.87 7.47 -1.63 0.14 
-8.73 7.64 -1.63 0.14 
-8.58 7.81 -1.63 0.14 
-8.44 7.97 -1.63 0.14 
-8.29 8.13 -1.64 0.14 
-8.14 8.29 -1.64 0.14 
-7.98 8.45 -1.64 0.14 
-7.83 8.60 -1.64 0.14 
-7.67 8.75 -1.64 0.14 
-7.50 8.90 -1.64 0.14 
-2.39 2.95 -0.53 0.30 
-2.28 2.92 -0.52 0.79 
-2.20 2.93 -0.52 0.79 
-2.12 2.93 -0.51 0.79 
-2.04 2.94 -0.50 0.80 
-1.96 2.94 -0.50 0.82 
-1.88 2.95 -0.49 0.83 
-1.81 2.95 -0.49 0.84 
-1.74 2.96 -0.48 0.87 
-1.67 2.97 -0.48 0.88 
-1.60 2.98 -0.48 0.89 
-1.53 2.99 -0.47 0.91 
-1.47 3.00 -0.47 0.92 
-1.41 3.02 -0.47 0.78 
-1.35 3.05 -0.47 0.78 
-1.29 3.08 -0.47 0.78 
-1.25 3.14 -0.48 0.43 
-1.23 3.26 -0.49 0.35 
-1.21 3.41 -0.51 0.31 
-1.19 3.57 -0.53 0.29 
-3.46 11.08 -1.63 0.92 
-3.24 11.09 -1.63 0.92 
-3.01 11.10 -1.62 0.93 
-2.79 11.11 -1.61 0.93 
-2.57 11.12 -1.61 0.94 
-2.35 11.12 -1.60 0.94 
-2.13 11.13 -1.60 0.94 
-1.92 11.14 -1.59 0.95 
-1.70 11.14 -1.59 0.95 
-1.49 11.15 -1.58 0.95 
-1.27 11.16 -1.58 0.95 
-1.06 11.17 -1.58 0.95 
-0.85 11.17 -1.58 0.95 
-0.64 11.18 -1.58 0.95 
-0.42 11.19 -1.58 0.95 
-0.21 11.19 -1.58 0.95 
-0.00 11.20 -1.58 0.95 
0.21 11.20 -1.58 0.95 
0.42 11.21 -1.58 0.95 
0.64 11.22 -1.58 0.95 
0.85 11.22 -1.58 0.95 
1.07 11.23 -1.59 0.95 
1.28 11.23 -1.59 0.94 
1.50 11.24 -1.60 0.94 
1.07 6.99 -1.00 0.19 
1.14 6.60 -0.94 0.48 
1.22 6.36 -0.91 0.39 
1.29 6.12 -0.88 0.75 
1.40 6.05 -0.87 0.76 
1.51 6.00 -0.87 0.97 
1.62 5.98 -0.87 0.92 
1.74 5.96 -0.87 0.92 
1.86 5.96 -0.88 0.91 
2.00 5.99 -0.89 0.88 
2.13 6.00 -0.90 0.91 
2.26 6.00 -0.90 0.90 
2.39 6.00 -0.91 0.90 
2.52 6.01 -0.92 0.87 
2.66 6.02 -0.93 0.86 
2.80 6.02 -0.94 0.85 
2.94 6.03 -0.94 0.84 
