VERSION 0.7
FIELDS x y z intensity
SIZE 4 4 4 8
TYPE F F F F
COUNT 1 1 1 1
WIDTH 1903
HEIGHT 1
VIEWPOINT 0.0 0.0 0.0 1.0 0.0 0.0 0.0
POINTS 1903
DATA ascii
149.33 -59.39 -0.96 0.48 
149.55 -62.77 -0.97 0.47 
149.76 -66.23 -0.98 0.46 
149.99 -69.75 -0.99 0.45 
150.21 -73.34 -1.00 0.45 
150.44 -77.01 -1.01 0.44 
53.43 -28.64 -0.36 0.62 
41.97 -23.53 -0.29 0.15 
41.52 -24.32 -0.29 0.48 
41.94 -25.65 -0.29 0.42 
46.49 -29.65 -0.33 0.55 
46.70 -31.04 -0.34 0.56 
152.24 -105.41 -1.11 0.37 
152.52 -109.93 -1.12 0.36 
152.81 -114.60 -1.14 0.35 
152.53 -118.97 -1.16 0.31 
147.14 -119.31 -1.13 0.32 
141.97 -119.63 -1.11 0.33 
54.94 -48.10 -0.44 0.72 
137.99 -125.51 -1.12 0.33 
138.32 -130.68 -1.14 0.32 
138.66 -136.06 -1.16 0.31 
56.57 -57.65 -0.48 0.43 
71.28 -78.37 -0.63 0.51 
18.55 -21.19 -0.17 0.88 
18.24 -21.65 -0.17 0.53 
58.12 -74.52 -0.56 0.52 
77.62 -103.51 -0.77 0.27 
30.71 -42.61 -0.31 0.48 
65.00 -93.87 -0.68 0.63 
55.39 -86.84 -0.62 0.32 
23.15 -37.86 -0.27 0.36 
46.04 -78.59 -0.54 0.29 
43.17 -80.53 -0.55 0.04 
46.77 -91.36 -0.61 0.24 
55.27 -113.21 -0.75 0.35 
6.42 -13.80 -0.09 0.88 
5.10 -11.52 -0.08 0.51 
5.80 -13.82 -0.09 0.31 
5.89 -14.81 -0.10 0.29 
40.36 -107.37 -0.69 0.15 
14.05 -39.62 -0.25 0.65 
32.59 -97.78 -0.62 0.65 
16.44 -52.62 -0.33 0.66 
15.36 -52.65 -0.33 0.68 
14.44 -53.23 -0.33 0.15 
15.80 -62.92 -0.39 0.74 
14.55 -62.97 -0.39 0.75 
13.31 -63.03 -0.39 0.75 
12.10 -63.19 -0.38 0.58 
10.28 -59.74 -0.36 0.76 
9.12 -59.80 -0.36 0.77 
7.98 -59.87 -0.36 0.77 
6.88 -60.31 -0.36 0.14 
-0.00 -60.84 -0.36 0.06 
-1.14 -60.31 -0.36 0.74 
-2.29 -60.37 -0.36 0.74 
-3.44 -60.52 -0.36 0.61 
-6.94 -60.83 -0.37 0.14 
-8.03 -60.26 -0.36 0.76 
-9.28 -60.80 -0.37 0.17 
-10.39 -60.39 -0.37 0.76 
-11.58 -60.47 -0.37 0.76 
-12.79 -60.55 -0.37 0.75 
-14.01 -60.63 -0.37 0.75 
-32.18 -128.13 -0.79 0.17 
-21.62 -79.67 -0.49 0.68 
-39.09 -133.97 -0.83 0.33 
-24.55 -73.66 -0.46 0.73 
-40.76 -114.99 -0.73 0.55 
-44.59 -112.12 -0.72 0.20 
-64.03 -144.80 -0.95 0.52 
-38.58 -79.01 -0.53 0.49 
-87.72 -171.36 -1.15 0.21 
-46.07 -85.94 -0.58 0.47 
-52.57 -93.76 -0.64 0.47 
-73.60 -125.64 -0.87 0.05 
-80.82 -132.16 -0.93 0.25 
-8.09 -12.68 -0.09 0.67 
-78.79 -113.79 -0.83 0.19 
-28.65 -38.20 -0.29 0.79 
-61.73 -79.15 -0.60 0.50 
-32.65 -40.26 -0.31 0.55 
-32.73 -38.84 -0.30 0.56 
-32.81 -37.47 -0.30 0.58 
-33.18 -36.47 -0.29 0.58 
-33.71 -35.68 -0.29 0.46 
-35.14 -35.82 -0.30 0.49 
-92.99 -91.24 -0.78 0.49 
-93.05 -87.92 -0.77 0.41 
-117.43 -106.81 -0.95 0.41 
-70.28 -61.53 -0.56 0.41 
-33.62 -28.33 -0.26 0.65 
-33.64 -27.28 -0.26 0.66 
-33.68 -26.27 -0.26 0.69 
-26.37 -19.77 -0.20 0.45 
-33.58 -24.20 -0.25 0.71 
-34.49 -23.88 -0.25 0.39 
-13.81 -9.18 -0.10 0.93 
-57.38 -36.60 -0.41 0.41 
-57.53 -35.18 -0.40 0.47 
-57.60 -33.74 -0.40 0.35 
-57.71 -32.36 -0.40 0.49 
-57.72 -30.94 -0.39 0.33 
-37.90 -19.40 -0.25 0.57 
-37.96 -18.53 -0.25 0.60 
-38.60 -17.95 -0.25 0.11 
-58.10 -25.69 -0.38 0.34 
-58.17 -24.42 -0.38 0.22 
-58.26 -23.17 -0.37 0.42 
-58.32 -21.92 -0.37 0.58 
-57.08 -20.23 -0.36 0.69 
-42.75 -14.25 -0.27 0.21 
-59.01 -18.44 -0.37 0.48 
-59.86 -17.47 -0.37 0.71 
-60.15 -16.32 -0.37 0.65 
-61.39 -15.42 -0.38 0.50 
-63.04 -14.57 -0.39 0.50 
-68.01 -14.37 -0.42 0.65 
-78.18 -14.97 -0.48 0.72 
-68.89 -11.85 -0.42 0.75 
-182.21 -27.80 -1.10 0.04 
-163.06 -18.60 -0.98 0.51 
-11.65 -1.11 -0.07 0.53 
-11.59 -0.88 -0.07 0.53 
-11.56 -0.66 -0.07 0.49 
-11.51 -0.44 -0.07 0.48 
-11.60 -0.22 -0.07 0.56 
-11.63 -0.00 -0.08 0.53 
-11.71 0.22 -0.08 0.53 
-83.52 3.16 -0.60 0.20 
-109.00 6.20 -0.78 0.63 
-118.20 8.97 -0.85 0.39 
-80.73 7.66 -0.58 0.70 
-18.63 2.12 -0.13 0.22 
-18.12 2.41 -0.13 0.86 
-18.08 2.76 -0.13 0.86 
-18.16 3.12 -0.13 0.79 
-50.11 9.60 -0.37 0.74 
-49.48 10.45 -0.36 0.74 
-51.45 11.89 -0.38 0.32 
-127.60 34.62 -0.95 0.56 
-120.32 35.10 -0.90 0.57 
-79.57 24.86 -0.60 0.26 
-38.08 12.69 -0.29 0.54 
-102.20 36.23 -0.78 0.60 
-97.15 36.52 -0.74 0.27 
-92.56 36.81 -0.71 0.29 
-14.30 6.00 -0.11 0.04 
-13.70 6.06 -0.11 0.12 
-13.38 6.22 -0.11 0.07 
-13.24 6.46 -0.11 0.11 
-87.56 44.83 -0.71 0.58 
-87.70 47.01 -0.71 0.57 
-20.40 11.44 -0.17 0.87 
-20.55 12.04 -0.17 0.25 
-20.27 12.40 -0.17 0.88 
-88.30 56.32 -0.75 0.53 
-88.46 58.80 -0.76 0.52 
-88.62 61.36 -0.77 0.51 
-88.79 64.00 -0.79 0.50 
-88.96 66.71 -0.80 0.49 
-89.19 69.56 -0.81 0.48 
-89.40 72.49 -0.83 0.46 
-80.38 67.74 -0.75 0.45 
-77.57 67.92 -0.74 0.47 
-13.93 12.67 -0.14 0.90 
-13.72 12.96 -0.14 0.64 
-69.72 68.41 -0.70 0.50 
-67.27 68.56 -0.69 0.52 
-64.92 68.72 -0.68 0.53 
-62.64 68.86 -0.67 0.54 
-60.42 69.00 -0.66 0.55 
-86.93 103.16 -0.97 0.38 
-84.04 103.65 -0.96 0.34 
-14.68 18.82 -0.17 0.75 
-52.14 69.53 -0.62 0.59 
-50.21 69.65 -0.62 0.60 
-12.39 17.89 -0.16 0.82 
-15.26 22.95 -0.20 0.64 
-10.44 16.37 -0.14 0.92 
-14.57 23.83 -0.20 0.14 
-41.50 70.84 -0.59 0.64 
-39.44 70.34 -0.58 0.65 
-38.02 70.93 -0.58 0.67 
-36.43 71.17 -0.57 0.67 
-36.49 74.73 -0.60 0.63 
-34.81 74.86 -0.59 0.67 
-33.23 75.16 -0.59 0.70 
-31.88 75.94 -0.59 0.41 
-7.26 18.26 -0.14 0.56 
-28.46 75.69 -0.58 0.63 
-28.04 79.11 -0.60 0.71 
-2.23 6.70 -0.05 0.10 
-2.08 6.65 -0.05 0.12 
-1.94 6.66 -0.05 0.16 
-1.82 6.70 -0.05 0.17 
-1.70 6.75 -0.05 0.17 
-1.59 6.87 -0.05 0.04 
-18.07 85.52 -0.63 0.63 
-16.61 86.69 -0.63 0.59 
-15.17 88.22 -0.64 0.45 
-13.47 88.27 -0.64 0.56 
-11.69 87.69 -0.63 0.64 
-9.95 87.25 -0.63 0.66 
-8.25 86.95 -0.63 0.66 
-1.01 13.33 -0.10 0.78 
-0.76 13.31 -0.10 0.85 
-0.51 13.45 -0.10 0.84 
-1.69 89.42 -0.64 0.59 
-0.00 90.71 -0.65 0.43 
1.72 91.01 -0.65 0.68 
3.47 91.54 -0.66 0.05 
5.17 90.88 -0.65 0.68 
1.45 19.09 -0.14 0.80 
8.70 91.66 -0.66 0.56 
10.69 93.72 -0.68 0.31 
9.52 22.68 -0.18 0.37 
9.83 22.23 -0.17 0.55 
9.04 14.78 -0.12 0.86 
16.65 19.02 -0.18 0.64 
14.75 10.21 -0.13 0.37 
18.30 10.72 -0.15 0.91 
18.77 10.52 -0.15 0.32 
145.66 78.08 -1.19 0.01 
147.80 75.66 -1.19 0.01 
149.92 73.20 -1.20 0.01 
152.02 70.70 -1.20 0.01 
154.11 68.15 -1.21 0.01 
156.18 65.56 -1.21 0.01 
43.34 17.24 -0.33 0.82 
160.26 60.25 -1.23 0.00 
162.27 57.52 -1.23 0.00 
164.26 54.75 -1.24 0.00 
166.24 51.93 -1.25 0.00 
168.18 49.07 -1.26 0.00 
50.89 13.81 -0.38 0.72 
172.02 43.20 -1.27 0.00 
173.90 40.19 -1.28 0.00 
175.76 37.13 -1.29 0.00 
177.59 34.02 -1.30 0.00 
179.40 30.86 -1.31 0.00 
31.40 4.79 -0.23 0.84 
182.94 24.38 -1.32 0.00 
184.67 21.06 -1.33 0.00 
186.38 17.69 -1.34 0.00 
47.11 3.57 -0.34 0.81 
189.70 10.78 -1.36 0.00 
191.31 7.24 -1.37 0.00 
42.88 0.81 -0.31 0.57 
194.44 0.00 -1.39 0.00 
195.96 -3.71 -1.41 0.00 
197.44 -7.48 -1.42 0.00 
198.89 -11.30 -1.43 0.00 
45.74 -8.76 -0.33 0.57 
68.62 -15.86 -0.51 0.57 
150.09 -37.69 -1.11 0.16 
148.12 -40.19 -1.10 0.51 
148.32 -43.27 -1.11 0.51 
148.51 -46.40 -1.12 0.50 
148.71 -49.57 -1.12 0.50 
148.92 -52.79 -1.13 0.49 
149.12 -56.06 -1.14 0.48 
149.33 -59.39 -1.15 0.48 
149.55 -62.77 -1.16 0.47 
149.76 -66.23 -1.17 0.46 
149.99 -69.75 -1.19 0.45 
55.48 -27.09 -0.44 0.55 
150.44 -77.01 -1.21 0.44 
53.42 -28.64 -0.43 0.62 
41.79 -23.43 -0.34 0.29 
41.47 -24.29 -0.34 0.48 
41.88 -25.61 -0.35 0.42 
46.45 -29.63 -0.40 0.55 
46.66 -31.02 -0.40 0.56 
152.24 -105.41 -1.33 0.37 
152.52 -109.93 -1.35 0.36 
152.82 -114.60 -1.37 0.35 
152.53 -118.97 -1.39 0.31 
147.14 -119.31 -1.36 0.32 
141.96 -119.63 -1.33 0.33 
54.94 -48.10 -0.52 0.72 
97.39 -88.59 -0.94 0.53 
138.32 -130.68 -1.36 0.32 
138.66 -136.06 -1.39 0.31 
56.57 -57.65 -0.58 0.64 
71.28 -78.36 -0.76 0.51 
18.55 -21.19 -0.20 0.89 
18.24 -21.65 -0.20 0.53 
98.34 -121.28 -1.12 0.05 
58.10 -74.50 -0.68 0.57 
77.62 -103.51 -0.93 0.27 
30.71 -42.61 -0.38 0.51 
65.00 -93.87 -0.82 0.63 
55.39 -86.84 -0.74 0.32 
23.15 -37.86 -0.32 0.36 
45.96 -78.45 -0.65 0.25 
42.94 -80.11 -0.65 0.28 
46.65 -91.12 -0.73 0.34 
54.93 -112.50 -0.90 0.09 
6.42 -13.80 -0.11 0.88 
5.09 -11.51 -0.09 0.59 
5.80 -13.82 -0.11 0.31 
5.89 -14.81 -0.11 0.29 
40.26 -107.09 -0.82 0.15 
14.04 -39.60 -0.30 0.74 
32.60 -97.81 -0.74 0.50 
16.43 -52.58 -0.40 0.66 
15.35 -52.61 -0.39 0.69 
14.38 -52.99 -0.39 0.33 
15.79 -62.90 -0.47 0.74 
14.55 -62.95 -0.46 0.75 
13.31 -63.02 -0.46 0.75 
12.10 -63.16 -0.46 0.58 
10.27 -59.73 -0.43 0.76 
9.12 -59.79 -0.43 0.77 
7.98 -59.85 -0.43 0.77 
6.87 -60.22 -0.43 0.14 
0.00 -60.51 -0.43 0.18 
-1.14 -60.28 -0.43 0.74 
-2.29 -60.34 -0.43 0.74 
-3.44 -60.49 -0.43 0.61 
-6.22 -65.53 -0.47 0.06 
-6.93 -60.78 -0.44 0.14 
-8.03 -60.26 -0.44 0.76 
-9.28 -60.80 -0.44 0.17 
-10.39 -60.39 -0.44 0.76 
-11.58 -60.47 -0.44 0.76 
-12.79 -60.55 -0.44 0.75 
-14.01 -60.63 -0.45 0.75 
-32.07 -127.73 -0.94 0.56 
-21.62 -79.70 -0.59 0.69 
-39.04 -133.79 -1.00 0.44 
-24.55 -73.66 -0.56 0.73 
-40.69 -114.79 -0.87 0.45 
-44.57 -112.08 -0.87 0.37 
-34.82 -82.94 -0.65 0.26 
-64.02 -144.77 -1.14 0.52 
-38.58 -79.01 -0.63 0.55 
-87.43 -170.78 -1.38 0.23 
-46.04 -85.89 -0.70 0.58 
-52.58 -93.79 -0.77 0.48 
-73.45 -125.38 -1.04 0.46 
-55.18 -90.24 -0.76 0.54 
-8.09 -12.68 -0.11 0.64 
-89.75 -135.01 -1.16 0.50 
-77.37 -111.74 -0.97 0.36 
-90.26 -125.22 -1.11 0.27 
-28.65 -38.20 -0.34 0.79 
-61.73 -79.15 -0.72 0.50 
-32.64 -40.26 -0.37 0.55 
-32.73 -38.84 -0.36 0.56 
-32.81 -37.47 -0.36 0.58 
-33.17 -36.46 -0.35 0.59 
-33.66 -35.63 -0.35 0.43 
-35.14 -35.82 -0.36 0.49 
-92.45 -90.72 -0.93 0.34 
-92.98 -87.84 -0.92 0.41 
-117.43 -106.81 -1.14 0.41 
-70.26 -61.52 -0.67 0.41 
-33.61 -28.32 -0.32 0.65 
-33.64 -27.27 -0.31 0.66 
-33.68 -26.27 -0.31 0.69 
-26.53 -19.90 -0.24 0.63 
-33.58 -24.20 -0.30 0.71 
-34.43 -23.84 -0.30 0.39 
-13.81 -9.18 -0.12 0.93 
-45.87 -29.26 -0.39 0.05 
-57.56 -35.20 -0.48 0.47 
-57.54 -33.70 -0.48 0.35 
-57.74 -32.37 -0.47 0.49 
-57.76 -30.96 -0.47 0.37 
-37.86 -19.38 -0.31 0.71 
-37.92 -18.52 -0.30 0.72 
-38.29 -17.81 -0.30 0.18 
-34.65 -15.32 -0.27 0.16 
-35.13 -14.75 -0.27 0.08 
-58.49 -23.26 -0.45 0.74 
-58.38 -21.95 -0.45 0.37 
-57.13 -20.25 -0.43 0.50 
-42.75 -14.25 -0.32 0.21 
-59.08 -18.46 -0.44 0.48 
-59.87 -17.47 -0.45 0.50 
-60.15 -16.32 -0.45 0.54 
-61.20 -15.37 -0.45 0.27 
-63.03 -14.57 -0.46 0.50 
-67.99 -14.36 -0.50 0.65 
-78.17 -14.97 -0.57 0.72 
-68.89 -11.85 -0.50 0.75 
-182.21 -27.80 -1.32 0.04 
-11.63 -1.10 -0.08 0.53 
-11.57 -0.88 -0.08 0.56 
-11.54 -0.66 -0.08 0.49 
-11.49 -0.44 -0.08 0.49 
-11.58 -0.22 -0.08 0.48 
-11.61 -0.00 -0.10 0.53 
-11.69 0.22 -0.10 0.53 
-72.29 2.74 -0.61 0.09 
-109.00 6.20 -0.91 0.63 
-117.86 8.94 -0.99 0.22 
-80.73 7.66 -0.68 0.70 
-18.59 2.12 -0.16 0.22 
-18.11 2.41 -0.15 0.86 
-18.07 2.76 -0.15 0.86 
-18.15 3.12 -0.15 0.79 
-50.11 9.60 -0.43 0.74 
-49.48 10.45 -0.42 0.74 
-51.41 11.88 -0.44 0.32 
-106.13 28.80 -0.92 0.61 
-120.32 35.10 -1.05 0.57 
-79.56 24.85 -0.70 0.27 
-38.08 12.69 -0.34 0.61 
-102.20 36.23 -0.91 0.60 
-97.15 36.52 -0.87 0.27 
-92.64 36.84 -0.83 0.61 
-14.06 5.90 -0.13 0.36 
-13.57 6.00 -0.12 0.12 
-13.26 6.16 -0.12 0.15 
-13.11 6.40 -0.12 0.12 
-13.12 6.72 -0.12 0.10 
-87.70 47.01 -0.83 0.57 
-20.40 11.44 -0.20 0.87 
-20.55 12.04 -0.20 0.25 
-20.27 12.40 -0.20 0.88 
-88.30 56.32 -0.88 0.53 
-88.46 58.80 -0.89 0.52 
-88.62 61.36 -0.90 0.51 
-88.79 64.00 -0.92 0.50 
-88.96 66.71 -0.93 0.49 
-89.19 69.56 -0.95 0.48 
-89.40 72.49 -0.96 0.46 
-80.38 67.74 -0.88 0.45 
-77.57 67.92 -0.86 0.47 
-13.93 12.67 -0.16 0.90 
-13.72 12.96 -0.16 0.64 
-69.72 68.41 -0.82 0.50 
-67.27 68.56 -0.80 0.52 
-64.92 68.72 -0.79 0.53 
-62.64 68.86 -0.78 0.54 
-60.42 69.01 -0.77 0.55 
-60.40 71.67 -0.78 0.14 
-84.04 103.65 -1.12 0.34 
-14.68 18.82 -0.20 0.75 
-52.14 69.53 -0.73 0.59 
-50.21 69.65 -0.72 0.60 
-12.38 17.88 -0.18 0.82 
-15.24 22.93 -0.23 0.64 
-10.44 16.37 -0.16 0.92 
-14.56 23.81 -0.23 0.75 
-41.49 70.83 -0.69 0.64 
-39.44 70.34 -0.67 0.65 
-38.01 70.90 -0.67 0.67 
-36.42 71.15 -0.67 0.65 
-36.50 74.75 -0.70 0.67 
-34.82 74.88 -0.69 0.67 
-33.25 75.19 -0.69 0.65 
-31.92 76.04 -0.69 0.30 
-7.26 18.26 -0.16 0.55 
-28.44 75.64 -0.68 0.63 
-2.38 6.73 -0.06 0.10 
-2.21 6.62 -0.06 0.10 
-2.06 6.59 -0.06 0.12 
-1.93 6.61 -0.06 0.17 
-1.81 6.65 -0.06 0.17 
-1.68 6.71 -0.06 0.17 
-1.56 6.77 -0.06 0.17 
-1.51 7.17 -0.06 0.05 
-16.60 86.69 -0.74 0.59 
-15.17 88.22 -0.75 0.45 
-13.46 88.21 -0.75 0.56 
-11.68 87.69 -0.74 0.65 
-9.95 87.25 -0.73 0.66 
-8.26 86.98 -0.73 0.66 
-1.01 13.33 -0.11 0.78 
-0.76 13.31 -0.11 0.85 
-0.51 13.45 -0.11 0.84 
-1.67 88.33 -0.74 0.55 
-0.00 90.57 -0.76 0.43 
1.72 91.02 -0.76 0.68 
3.49 92.06 -0.77 0.15 
5.17 90.89 -0.76 0.68 
1.45 19.09 -0.16 0.77 
8.70 91.67 -0.77 0.56 
10.69 93.74 -0.79 0.29 
9.49 22.61 -0.21 0.34 
9.83 22.23 -0.20 0.55 
9.04 14.78 -0.14 0.86 
16.65 19.02 -0.21 0.64 
14.75 10.21 -0.15 0.37 
120.81 80.31 -1.21 0.01 
122.75 78.29 -1.22 0.01 
124.68 76.24 -1.22 0.01 
18.30 10.72 -0.18 0.91 
18.77 10.52 -0.18 0.32 
130.34 69.87 -1.24 0.01 
132.19 67.67 -1.24 0.01 
134.02 65.44 -1.25 0.01 
135.83 63.17 -1.25 0.01 
137.62 60.86 -1.26 0.01 
139.39 58.51 -1.27 0.01 
43.36 17.24 -0.39 0.83 
142.87 53.71 -1.28 0.01 
144.58 51.25 -1.28 0.01 
146.26 48.75 -1.29 0.01 
147.92 46.21 -1.30 0.01 
149.56 43.63 -1.30 0.01 
50.91 13.81 -0.44 0.72 
152.76 38.36 -1.32 0.01 
154.32 35.66 -1.33 0.01 
155.85 32.92 -1.33 0.01 
157.36 30.14 -1.34 0.01 
158.85 27.32 -1.35 0.01 
31.40 4.79 -0.27 0.84 
161.72 21.55 -1.37 0.01 
163.12 18.60 -1.37 0.01 
164.49 15.61 -1.38 0.01 
47.11 3.57 -0.40 0.81 
167.12 9.50 -1.40 0.01 
168.39 6.38 -1.41 0.01 
42.86 0.81 -0.36 0.57 
170.83 -0.00 -1.43 0.00 
171.99 -3.26 -1.44 0.00 
173.12 -6.56 -1.45 0.00 
174.21 -9.90 -1.46 0.00 
175.26 -13.29 -1.47 0.00 
176.28 -16.73 -1.48 0.00 
177.25 -20.21 -1.49 0.00 
178.18 -23.74 -1.50 0.00 
179.07 -27.32 -1.52 0.00 
179.91 -30.94 -1.53 0.00 
45.74 -8.76 -0.39 0.57 
181.45 -38.33 -1.55 0.00 
68.65 -15.86 -0.59 0.57 
150.09 -37.69 -1.29 0.16 
148.12 -40.19 -1.28 0.51 
148.32 -43.27 -1.29 0.51 
148.51 -46.40 -1.30 0.50 
148.71 -49.57 -1.31 0.50 
148.92 -52.79 -1.32 0.49 
149.12 -56.06 -1.33 0.48 
149.33 -59.39 -1.34 0.48 
149.55 -62.78 -1.36 0.47 
149.76 -66.23 -1.37 0.46 
149.99 -69.75 -1.38 0.45 
55.47 -27.08 -0.52 0.77 
150.45 -77.01 -1.41 0.44 
53.42 -28.64 -0.51 0.62 
41.66 -23.36 -0.40 0.29 
41.43 -24.27 -0.40 0.49 
41.83 -25.58 -0.41 0.44 
46.41 -29.60 -0.46 0.55 
46.63 -31.00 -0.47 0.56 
152.24 -105.41 -1.55 0.37 
152.52 -109.93 -1.57 0.36 
152.82 -114.60 -1.60 0.35 
152.53 -118.96 -1.62 0.31 
147.14 -119.31 -1.59 0.32 
141.96 -119.63 -1.55 0.33 
54.93 -48.10 -0.61 0.72 
97.03 -88.26 -1.10 0.37 
138.32 -130.68 -1.59 0.32 
138.66 -136.06 -1.63 0.31 
56.58 -57.66 -0.68 0.70 
71.28 -78.36 -0.89 0.51 
18.55 -21.19 -0.24 0.89 
18.24 -21.65 -0.24 0.53 
58.06 -74.44 -0.79 0.45 
75.59 -100.79 -1.05 0.56 
30.71 -42.61 -0.44 0.52 
55.14 -79.63 -0.81 0.26 
24.01 -37.64 -0.37 0.46 
23.15 -37.86 -0.37 0.36 
45.86 -78.28 -0.76 0.25 
42.82 -79.88 -0.76 0.24 
46.54 -90.92 -0.85 0.32 
54.71 -112.06 -1.04 0.21 
5.28 -11.36 -0.10 0.54 
5.09 -11.50 -0.11 0.65 
5.80 -13.82 -0.13 0.31 
5.89 -14.81 -0.13 0.29 
35.50 -94.43 -0.84 0.60 
14.04 -39.60 -0.35 0.75 
33.88 -101.65 -0.90 0.63 
16.41 -52.54 -0.46 0.66 
15.34 -52.57 -0.46 0.69 
14.35 -52.88 -0.46 0.33 
15.79 -62.88 -0.54 0.74 
14.54 -62.94 -0.54 0.75 
13.31 -63.00 -0.54 0.75 
12.09 -63.14 -0.54 0.58 
10.27 -59.71 -0.51 0.76 
9.12 -59.77 -0.51 0.77 
7.56 -56.70 -0.48 0.19 
6.86 -60.13 -0.51 0.14 
1.21 -64.08 -0.54 0.68 
-0.00 -60.25 -0.50 0.17 
-1.14 -60.26 -0.50 0.74 
-2.28 -60.31 -0.51 0.74 
-3.44 -60.46 -0.51 0.65 
-6.16 -64.93 -0.55 0.12 
-6.58 -57.71 -0.49 0.11 
-8.03 -60.26 -0.51 0.76 
-9.28 -60.80 -0.51 0.17 
-10.39 -60.40 -0.51 0.76 
-11.58 -60.47 -0.52 0.76 
-12.79 -60.55 -0.52 0.75 
-14.01 -60.64 -0.52 0.75 
-32.07 -127.73 -1.10 0.56 
-21.63 -79.70 -0.69 0.67 
-39.01 -133.70 -1.17 0.56 
-18.25 -58.42 -0.51 0.13 
-24.55 -73.66 -0.65 0.73 
-40.66 -114.69 -1.02 0.47 
-44.60 -112.14 -1.01 0.18 
-34.72 -82.72 -0.75 0.31 
-62.63 -141.62 -1.30 0.35 
-38.58 -79.02 -0.74 0.56 
-45.11 -88.12 -0.83 0.30 
-28.15 -52.52 -0.50 0.53 
-52.58 -93.78 -0.90 0.51 
-73.45 -125.38 -1.22 0.46 
-55.20 -90.26 -0.89 0.54 
-8.09 -12.68 -0.13 0.59 
-89.50 -134.64 -1.35 0.35 
-77.37 -111.74 -1.14 0.36 
-85.03 -117.97 -1.22 0.15 
-28.65 -38.20 -0.40 0.79 
-61.73 -79.15 -0.84 0.50 
-32.64 -40.26 -0.43 0.55 
-32.73 -38.84 -0.43 0.56 
-32.81 -37.47 -0.42 0.58 
-33.15 -36.45 -0.41 0.59 
-33.61 -35.58 -0.41 0.44 
-35.14 -35.81 -0.42 0.49 
-92.33 -90.60 -1.08 0.32 
-92.57 -87.46 -1.07 0.25 
-117.43 -106.81 -1.33 0.41 
-70.25 -61.51 -0.78 0.42 
-33.60 -28.32 -0.37 0.65 
-33.63 -27.27 -0.36 0.66 
-33.67 -26.26 -0.36 0.69 
-26.53 -19.89 -0.28 0.66 
-33.58 -24.20 -0.35 0.71 
-34.37 -23.80 -0.35 0.39 
-13.81 -9.18 -0.14 0.93 
-45.47 -29.00 -0.45 0.21 
-57.44 -35.13 -0.56 0.26 
-57.79 -33.85 -0.56 0.69 
-57.66 -32.32 -0.55 0.24 
-57.99 -31.08 -0.55 0.56 
-37.84 -19.37 -0.36 0.71 
-37.90 -18.51 -0.35 0.74 
-38.10 -17.72 -0.35 0.18 
-34.49 -15.25 -0.32 0.73 
-34.70 -14.57 -0.31 0.08 
-58.23 -23.16 -0.52 0.26 
-58.49 -21.99 -0.52 0.37 
-57.14 -20.26 -0.51 0.70 
-42.74 -14.25 -0.38 0.21 
-59.22 -18.50 -0.52 0.37 
-59.83 -17.45 -0.52 0.29 
-60.10 -16.31 -0.52 0.55 
-61.39 -15.42 -0.53 0.27 
-63.01 -14.56 -0.54 0.50 
-67.97 -14.36 -0.58 0.65 
-78.17 -14.97 -0.67 0.67 
-68.89 -11.85 -0.58 0.75 
-182.20 -27.80 -1.54 0.04 
-11.72 -1.34 -0.10 0.05 
-11.61 -1.10 -0.10 0.53 
-11.55 -0.88 -0.10 0.56 
-11.52 -0.65 -0.10 0.49 
-11.47 -0.43 -0.10 0.49 
-11.56 -0.22 -0.10 0.48 
-11.59 -0.00 -0.11 0.53 
-11.67 0.22 -0.11 0.54 
-71.87 2.72 -0.69 0.09 
-71.29 4.05 -0.68 0.15 
-117.68 8.93 -1.13 0.55 
-80.73 7.66 -0.78 0.70 
-18.54 2.11 -0.18 0.22 
-18.10 2.41 -0.17 0.86 
-18.06 2.76 -0.17 0.86 
-18.14 3.12 -0.18 0.79 
-50.12 9.60 -0.49 0.35 
-49.48 10.45 -0.48 0.74 
-51.37 11.87 -0.50 0.32 
-107.09 29.06 -1.06 0.21 
-120.32 35.10 -1.20 0.57 
-79.57 24.86 -0.80 0.27 
-38.09 12.69 -0.38 0.60 
-102.20 36.23 -1.04 0.60 
-97.15 36.52 -0.99 0.27 
-92.64 36.84 -0.95 0.61 
-14.03 5.89 -0.15 0.36 
-13.46 5.95 -0.14 0.18 
-13.16 6.12 -0.14 0.16 
-13.00 6.35 -0.14 0.14 
-13.00 6.65 -0.14 0.12 
-87.70 47.01 -0.95 0.57 
-20.40 11.44 -0.22 0.87 
-20.55 12.04 -0.23 0.25 
-20.27 12.40 -0.23 0.88 
-88.30 56.32 -1.00 0.53 
-88.46 58.80 -1.02 0.52 
-88.62 61.36 -1.03 0.51 
-88.79 64.00 -1.05 0.50 
-88.96 66.71 -1.06 0.49 
-89.22 69.59 -1.08 0.42 
-89.40 72.49 -1.10 0.46 
-80.38 67.74 -1.01 0.45 
-77.57 67.92 -0.99 0.47 
-13.93 12.67 -0.18 0.90 
-13.72 12.96 -0.18 0.64 
-69.72 68.41 -0.93 0.50 
-67.27 68.56 -0.92 0.52 
-64.92 68.72 -0.90 0.53 
-62.64 68.86 -0.89 0.54 
-60.42 69.01 -0.88 0.55 
-60.07 71.28 -0.89 0.11 
-83.98 103.57 -1.28 0.34 
-14.68 18.82 -0.23 0.75 
-52.14 69.53 -0.83 0.59 
-50.21 69.65 -0.82 0.60 
-12.38 17.88 -0.21 0.82 
-15.23 22.91 -0.26 0.64 
-10.44 16.37 -0.19 0.92 
-14.56 23.80 -0.27 0.75 
-41.50 70.84 -0.79 0.62 
-39.44 70.34 -0.77 0.65 
-37.99 70.88 -0.77 0.67 
-36.41 71.12 -0.76 0.65 
-36.49 74.74 -0.80 0.67 
-34.83 74.91 -0.79 0.64 
-33.27 75.23 -0.79 0.65 
-31.98 76.19 -0.79 0.30 
-7.26 18.26 -0.19 0.54 
-28.42 75.59 -0.77 0.64 
-2.36 6.65 -0.07 0.10 
-2.18 6.55 -0.07 0.11 
-2.04 6.54 -0.07 0.17 
-1.92 6.57 -0.07 0.17 
-1.79 6.61 -0.07 0.17 
-1.67 6.66 -0.07 0.17 
-1.55 6.72 -0.07 0.16 
-1.48 7.02 -0.07 0.06 
-16.60 86.68 -0.84 0.59 
-15.17 88.21 -0.86 0.45 
-13.45 88.18 -0.85 0.65 
-11.69 87.69 -0.85 0.65 
-9.95 87.26 -0.84 0.66 
-8.26 87.01 -0.84 0.69 
-1.01 13.33 -0.13 0.78 
-0.76 13.31 -0.13 0.85 
-0.51 13.45 -0.13 0.84 
-1.67 88.28 -0.84 0.55 
-0.00 90.43 -0.86 0.26 
1.72 91.02 -0.87 0.68 
3.45 91.09 -0.87 0.61 
5.17 90.89 -0.87 0.68 
1.45 19.09 -0.18 0.75 
8.70 91.69 -0.88 0.56 
10.69 93.74 -0.90 0.29 
9.50 22.62 -0.23 0.34 
9.83 22.23 -0.23 0.55 
9.04 14.78 -0.17 0.87 
16.65 19.02 -0.24 0.64 
104.24 78.17 -1.25 0.01 
106.02 76.41 -1.25 0.01 
14.75 10.21 -0.17 0.37 
109.52 72.80 -1.26 0.01 
111.24 70.95 -1.26 0.01 
112.94 69.06 -1.27 0.01 
18.30 10.72 -0.20 0.91 
18.77 10.52 -0.21 0.32 
117.94 63.22 -1.28 0.01 
119.57 61.21 -1.28 0.01 
121.17 59.16 -1.29 0.01 
122.76 57.09 -1.29 0.01 
124.32 54.98 -1.30 0.01 
125.87 52.83 -1.31 0.01 
43.36 17.24 -0.45 0.83 
128.88 48.45 -1.32 0.01 
130.36 46.21 -1.32 0.01 
131.81 43.93 -1.33 0.01 
133.24 41.63 -1.34 0.01 
134.64 39.28 -1.34 0.01 
50.92 13.82 -0.50 0.72 
137.37 34.50 -1.35 0.01 
138.70 32.05 -1.36 0.01 
140.00 29.57 -1.37 0.01 
141.27 27.06 -1.38 0.01 
142.51 24.51 -1.38 0.01 
31.40 4.79 -0.30 0.84 
144.91 19.31 -1.40 0.01 
146.07 16.66 -1.41 0.01 
147.19 13.97 -1.41 0.01 
47.11 3.57 -0.45 0.81 
149.35 8.49 -1.43 0.01 
150.37 5.69 -1.44 0.01 
42.86 0.81 -0.41 0.57 
152.33 -0.00 -1.46 0.01 
153.25 -2.90 -1.47 0.01 
41.21 -1.56 -0.39 0.17 
154.99 -8.81 -1.48 0.01 
155.80 -11.82 -1.49 0.01 
156.57 -14.86 -1.50 0.01 
157.30 -17.94 -1.51 0.01 
157.99 -21.05 -1.52 0.01 
158.64 -24.20 -1.53 0.01 
159.24 -27.39 -1.55 0.01 
45.74 -8.76 -0.45 0.57 
160.32 -33.86 -1.57 0.01 
68.68 -15.87 -0.67 0.57 
150.09 -37.69 -1.48 0.16 
148.12 -40.19 -1.47 0.51 
148.32 -43.27 -1.48 0.51 
148.51 -46.40 -1.49 0.50 
148.71 -49.57 -1.50 0.50 
148.92 -52.79 -1.51 0.49 
149.12 -56.06 -1.52 0.48 
149.33 -59.39 -1.54 0.48 
149.55 -62.78 -1.55 0.47 
149.77 -66.23 -1.57 0.46 
149.99 -69.75 -1.58 0.45 
55.45 -27.08 -0.59 0.76 
150.45 -77.01 -1.62 0.44 
53.42 -28.64 -0.58 0.62 
41.54 -23.29 -0.46 0.30 
41.38 -24.24 -0.46 0.49 
41.77 -25.55 -0.47 0.44 
46.38 -29.58 -0.53 0.57 
46.59 -30.97 -0.54 0.54 
152.24 -105.41 -1.77 0.37 
152.52 -109.93 -1.80 0.36 
152.82 -114.60 -1.83 0.35 
152.53 -118.96 -1.85 0.31 
147.14 -119.30 -1.81 0.32 
141.96 -119.63 -1.78 0.33 
54.93 -48.09 -0.70 0.72 
97.10 -88.32 -1.26 0.34 
138.32 -130.68 -1.82 0.32 
138.66 -136.06 -1.86 0.31 
56.62 -57.70 -0.77 0.47 
71.28 -78.36 -1.01 0.51 
18.55 -21.18 -0.27 0.89 
18.24 -21.64 -0.27 0.53 
58.01 -74.38 -0.90 0.65 
75.59 -100.79 -1.20 0.56 
30.65 -42.52 -0.50 0.50 
55.06 -79.52 -0.93 0.35 
24.00 -37.63 -0.43 0.46 
23.15 -37.86 -0.42 0.36 
45.68 -77.99 -0.86 0.68 
42.65 -79.56 -0.86 0.14 
46.43 -90.70 -0.97 0.26 
54.64 -111.92 -1.19 0.56 
5.28 -11.35 -0.12 0.77 
5.08 -11.50 -0.12 0.69 
5.80 -13.82 -0.14 0.31 
5.89 -14.81 -0.15 0.29 
35.49 -94.41 -0.96 0.67 
14.04 -39.61 -0.40 0.71 
20.10 -60.30 -0.61 0.15 
16.40 -52.49 -0.53 0.66 
15.33 -52.54 -0.52 0.69 
14.32 -52.77 -0.52 0.34 
15.79 -62.87 -0.62 0.76 
14.54 -62.93 -0.62 0.76 
13.31 -62.99 -0.62 0.75 
12.09 -63.11 -0.61 0.64 
10.27 -59.70 -0.58 0.76 
8.62 -56.52 -0.55 0.64 
7.54 -56.61 -0.55 0.64 
6.85 -60.03 -0.58 0.14 
2.42 -63.95 -0.61 0.72 
1.21 -64.04 -0.61 0.69 
-0.00 -60.20 -0.58 0.71 
-1.14 -60.23 -0.58 0.74 
-2.28 -60.29 -0.58 0.74 
-3.44 -60.44 -0.58 0.67 
-6.09 -64.20 -0.62 0.54 
-6.56 -57.50 -0.55 0.62 
-8.03 -60.26 -0.58 0.76 
-9.28 -60.80 -0.59 0.17 
-10.39 -60.40 -0.59 0.76 
-10.43 -54.46 -0.53 0.13 
-12.79 -60.56 -0.59 0.75 
-14.01 -60.64 -0.60 0.75 
-32.07 -127.73 -1.26 0.56 
-21.62 -79.69 -0.79 0.64 
-39.00 -133.66 -1.33 0.56 
-18.21 -58.28 -0.58 0.63 
-19.47 -58.41 -0.59 0.62 
-38.43 -108.41 -1.10 0.44 
-44.58 -112.10 -1.15 0.30 
-34.64 -82.51 -0.86 0.30 
-62.63 -141.63 -1.48 0.40 
-41.98 -90.28 -0.95 0.51 
-38.59 -79.03 -0.84 0.54 
-45.05 -88.00 -0.95 0.30 
-28.12 -52.46 -0.57 0.67 
-29.19 -52.07 -0.57 0.18 
-73.45 -125.38 -1.39 0.46 
-55.20 -90.26 -1.01 0.54 
-8.09 -12.68 -0.14 0.53 
-54.31 -81.70 -0.94 0.16 
-77.21 -111.51 -1.30 0.36 
-84.98 -117.90 -1.39 0.39 
-28.65 -38.20 -0.46 0.79 
-61.73 -79.15 -0.96 0.50 
-32.64 -40.26 -0.50 0.55 
-32.73 -38.84 -0.49 0.56 
-32.81 -37.47 -0.48 0.58 
-33.14 -36.44 -0.47 0.59 
-33.56 -35.52 -0.47 0.44 
-35.14 -35.81 -0.48 0.49 
-92.43 -90.70 -1.24 0.41 
-92.56 -87.45 -1.22 0.08 
-117.43 -106.81 -1.52 0.41 
-70.23 -61.49 -0.89 0.42 
-33.60 -28.31 -0.42 0.65 
-33.62 -27.26 -0.41 0.66 
-33.67 -26.26 -0.41 0.69 
-26.53 -19.89 -0.32 0.69 
-33.58 -24.20 -0.40 0.71 
-34.31 -23.76 -0.40 0.40 
-13.81 -9.18 -0.16 0.93 
-45.34 -28.92 -0.51 0.51 
-57.63 -35.24 -0.65 0.48 
-57.71 -33.81 -0.64 0.27 
-57.81 -32.41 -0.63 0.50 
-57.90 -31.04 -0.63 0.40 
-37.82 -19.36 -0.41 0.71 
-37.88 -18.50 -0.40 0.74 
-37.97 -17.66 -0.40 0.66 
-34.47 -15.24 -0.36 0.67 
-34.47 -14.47 -0.36 0.48 
-58.38 -23.22 -0.60 0.26 
-58.44 -21.97 -0.60 0.33 
-57.17 -20.26 -0.58 0.51 
-42.74 -14.25 -0.43 0.21 
-59.03 -18.44 -0.59 0.23 
-59.73 -17.43 -0.60 0.57 
-59.92 -16.26 -0.59 0.36 
-61.22 -15.37 -0.60 0.48 
-62.86 -14.53 -0.62 0.63 
-67.96 -14.35 -0.66 0.65 
-78.19 -14.98 -0.76 0.72 
-68.89 -11.85 -0.67 0.75 
-182.19 -27.80 -1.76 0.04 
-11.65 -1.33 -0.11 0.54 
-11.59 -1.10 -0.11 0.53 
-11.53 -0.87 -0.11 0.56 
-11.50 -0.65 -0.11 0.49 
-11.44 -0.43 -0.11 0.49 
-11.54 -0.22 -0.11 0.48 
-11.57 -0.00 -0.12 0.53 
-11.65 0.22 -0.13 0.53 
-71.46 2.71 -0.77 0.11 
-11.85 0.67 -0.13 0.86 
-117.89 8.94 -1.27 0.44 
-80.73 7.66 -0.87 0.70 
-18.50 2.11 -0.20 0.22 
-18.09 2.41 -0.20 0.86 
-18.05 2.75 -0.20 0.86 
-18.13 3.12 -0.20 0.79 
-50.12 9.60 -0.55 0.35 
-49.48 10.45 -0.54 0.74 
-51.36 11.87 -0.57 0.32 
-127.49 34.59 -1.42 0.19 
-120.16 35.06 -1.35 0.21 
-79.58 24.86 -0.90 0.27 
-38.08 12.69 -0.43 0.65 
-102.20 36.23 -1.17 0.60 
-97.15 36.52 -1.12 0.27 
-92.64 36.84 -1.07 0.61 
-14.01 5.88 -0.16 0.36 
-13.42 5.94 -0.16 0.36 
-13.10 6.09 -0.16 0.25 
-12.90 6.30 -0.15 0.14 
-12.86 6.58 -0.16 0.10 
-87.70 47.01 -1.07 0.57 
-20.40 11.44 -0.25 0.87 
-20.55 12.04 -0.26 0.25 
-20.27 12.40 -0.26 0.88 
-88.30 56.32 -1.13 0.53 
-88.46 58.80 -1.14 0.52 
-88.62 61.36 -1.16 0.51 
-88.79 64.00 -1.18 0.50 
-88.96 66.71 -1.20 0.49 
-89.22 69.59 -1.22 0.42 
-89.40 72.49 -1.24 0.46 
-80.38 67.74 -1.13 0.45 
-77.57 67.92 -1.11 0.47 
-13.93 12.67 -0.20 0.90 
-13.72 12.96 -0.20 0.64 
-69.72 68.41 -1.05 0.50 
-67.27 68.56 -1.03 0.52 
-64.92 68.72 -1.02 0.53 
-62.64 68.86 -1.00 0.54 
-60.42 69.01 -0.99 0.55 
-59.75 70.91 -1.00 0.18 
-84.05 103.66 -1.44 0.34 
-14.68 18.82 -0.26 0.75 
-52.14 69.53 -0.94 0.59 
-50.21 69.66 -0.92 0.60 
-12.38 17.87 -0.23 0.82 
-15.21 22.89 -0.30 0.64 
-10.44 16.37 -0.21 0.92 
-14.55 23.80 -0.30 0.75 
-41.51 70.86 -0.88 0.62 
-39.44 70.34 -0.87 0.65 
-37.98 70.86 -0.87 0.67 
-36.39 71.09 -0.86 0.65 
-36.49 74.73 -0.89 0.67 
-34.85 74.95 -0.89 0.64 
-33.28 75.27 -0.89 0.64 
-32.36 77.09 -0.90 0.50 
-7.26 18.27 -0.21 0.52 
-2.51 6.68 -0.08 0.10 
-2.33 6.58 -0.08 0.10 
-2.16 6.48 -0.07 0.11 
-2.03 6.50 -0.07 0.17 
-1.90 6.52 -0.07 0.17 
-1.78 6.57 -0.07 0.17 
-1.66 6.62 -0.07 0.16 
-1.54 6.67 -0.07 0.16 
-1.45 6.89 -0.08 0.06 
-16.60 86.68 -0.95 0.59 
-15.17 88.20 -0.96 0.45 
-13.46 88.20 -0.96 0.65 
-11.69 87.69 -0.95 0.65 
-9.95 87.27 -0.95 0.66 
-8.26 87.02 -0.94 0.69 
-1.01 13.33 -0.14 0.78 
-0.76 13.31 -0.14 0.85 
-0.51 13.45 -0.14 0.84 
-1.67 88.22 -0.95 0.50 
-0.00 89.38 -0.96 0.42 
1.72 91.03 -0.98 0.69 
3.45 91.04 -0.98 0.61 
5.17 90.90 -0.98 0.67 
1.45 19.10 -0.21 0.62 
8.70 91.71 -0.99 0.56 
10.69 93.75 -1.02 0.29 
9.50 22.64 -0.26 0.34 
9.87 22.32 -0.26 0.71 
9.04 14.78 -0.19 0.88 
16.65 19.02 -0.27 0.64 
88.83 77.78 -1.27 0.01 
90.50 76.26 -1.27 0.01 
92.15 74.72 -1.28 0.01 
93.78 73.14 -1.28 0.01 
95.40 71.55 -1.28 0.01 
97.00 69.92 -1.29 0.01 
14.75 10.21 -0.19 0.37 
100.15 66.58 -1.29 0.01 
101.70 64.86 -1.30 0.01 
103.23 63.12 -1.30 0.01 
18.30 10.72 -0.23 0.91 
18.77 10.52 -0.23 0.32 
107.69 57.73 -1.31 0.01 
109.14 55.87 -1.32 0.01 
110.57 53.99 -1.32 0.01 
111.98 52.07 -1.33 0.01 
113.37 50.13 -1.33 0.01 
114.73 48.16 -1.34 0.01 
43.32 17.23 -0.50 0.80 
117.39 44.13 -1.35 0.01 
118.69 42.07 -1.35 0.01 
119.96 39.98 -1.36 0.01 
121.21 37.87 -1.37 0.01 
122.43 35.72 -1.37 0.01 
50.92 13.82 -0.57 0.73 
124.81 31.34 -1.38 0.01 
125.95 29.11 -1.39 0.01 
127.07 26.84 -1.40 0.01 
128.16 24.55 -1.40 0.01 
129.23 22.23 -1.41 0.01 
31.40 4.79 -0.34 0.84 
131.27 17.49 -1.42 0.01 
132.25 15.08 -1.43 0.01 
133.19 12.64 -1.44 0.01 
47.11 3.57 -0.51 0.81 
134.99 7.67 -1.45 0.01 
135.84 5.14 -1.46 0.01 
42.86 0.81 -0.46 0.57 
137.44 -0.00 -1.48 0.01 
138.19 -2.62 -1.49 0.01 
41.19 -1.56 -0.44 0.40 
139.58 -7.93 -1.50 0.01 
140.22 -10.64 -1.51 0.01 
140.82 -13.37 -1.52 0.01 
141.38 -16.12 -1.53 0.01 
141.91 -18.91 -1.54 0.01 
142.39 -21.72 -1.55 0.01 
142.83 -24.57 -1.56 0.01 
45.74 -8.76 -0.50 0.57 
143.59 -30.33 -1.58 0.01 
68.25 -15.77 -0.75 0.26 
144.17 -36.20 -1.60 0.01 
144.39 -39.18 -1.61 0.01 
144.56 -42.18 -1.62 0.01 
144.69 -45.20 -1.63 0.01 
48.49 -16.16 -0.55 0.45 
48.96 -17.36 -0.56 0.45 
144.77 -54.42 -1.66 0.01 
144.69 -57.54 -1.68 0.01 
144.56 -60.68 -1.69 0.01 
144.38 -63.85 -1.70 0.01 
144.14 -67.03 -1.71 0.01 
55.46 -27.08 -0.66 0.58 
143.50 -73.46 -1.73 0.01 
53.42 -28.64 -0.65 0.62 
41.43 -23.23 -0.51 0.38 
41.34 -24.22 -0.52 0.49 
41.72 -25.51 -0.53 0.44 
46.20 -29.47 -0.59 0.60 
46.54 -30.94 -0.60 0.54 
139.35 -96.48 -1.82 0.01 
138.50 -99.82 -1.84 0.00 
137.58 -103.18 -1.85 0.00 
136.60 -106.54 -1.86 0.00 
135.55 -109.90 -1.88 0.00 
134.42 -113.28 -1.89 0.00 
25.55 -22.37 -0.37 0.50 
131.46 -119.58 -1.91 0.00 
129.52 -122.36 -1.92 0.00 
127.49 -125.10 -1.92 0.00 
125.38 -127.78 -1.93 0.00 
123.19 -130.39 -1.93 0.00 
71.28 -78.36 -1.14 0.51 
18.55 -21.18 -0.30 0.89 
18.24 -21.64 -0.30 0.53 
81.64 -100.69 -1.39 0.10 
58.01 -74.37 -1.01 0.67 
75.59 -100.79 -1.36 0.56 
30.71 -42.61 -0.57 0.52 
55.06 -79.53 -1.04 0.35 
24.00 -37.63 -0.48 0.46 
23.15 -37.86 -0.48 0.36 
45.70 -78.02 -0.97 0.35 
96.25 -171.68 -2.12 0.00 
42.34 -78.98 -0.96 0.30 
46.31 -90.46 -1.09 0.30 
50.92 -104.29 -1.25 0.11 
5.27 -11.34 -0.13 0.86 
5.08 -11.49 -0.14 0.72 
5.80 -13.82 -0.16 0.31 
5.89 -14.81 -0.17 0.29 
35.49 -94.40 -1.09 0.67 
14.05 -39.63 -0.45 0.84 
20.03 -60.08 -0.68 0.18 
16.39 -52.45 -0.59 0.66 
15.32 -52.50 -0.59 0.69 
14.29 -52.66 -0.59 0.34 
15.79 -62.87 -0.70 0.76 
14.54 -62.93 -0.69 0.76 
13.30 -62.98 -0.69 0.76 
12.09 -63.10 -0.69 0.77 
10.27 -59.69 -0.65 0.78 
8.62 -56.47 -0.61 0.64 
7.54 -56.56 -0.61 0.64 
6.84 -60.00 -0.65 0.65 
2.42 -63.92 -0.69 0.72 
1.14 -60.48 -0.65 0.16 
-0.00 -60.17 -0.65 0.71 
-1.14 -60.20 -0.65 0.73 
-2.28 -60.26 -0.65 0.74 
-3.43 -60.43 -0.65 0.67 
-6.09 -64.16 -0.69 0.76 
-6.55 -57.45 -0.62 0.62 
-8.03 -60.26 -0.65 0.76 
-9.28 -60.80 -0.66 0.17 
-10.39 -60.40 -0.66 0.76 
-10.38 -54.17 -0.59 0.69 
-11.46 -54.24 -0.60 0.68 
-14.01 -60.64 -0.67 0.75 
-32.07 -127.73 -1.42 0.56 
-21.62 -79.68 -0.89 0.68 
-33.43 -114.57 -1.28 0.31 
-18.19 -58.24 -0.66 0.63 
-19.46 -58.37 -0.66 0.64 
-38.43 -108.41 -1.24 0.44 
-36.48 -97.03 -1.12 0.66 
-44.58 -112.09 -1.30 0.31 
-34.55 -82.32 -0.96 0.26 
-62.62 -141.60 -1.67 0.50 
-42.01 -90.34 -1.07 0.29 
-38.59 -79.03 -0.95 0.53 
-44.99 -87.89 -1.06 0.30 
-28.10 -52.42 -0.64 0.67 
-29.08 -51.87 -0.64 0.24 
-73.45 -125.38 -1.56 0.46 
-55.19 -90.26 -1.14 0.54 
-8.09 -12.68 -0.16 0.46 
-54.31 -81.69 -1.06 0.38 
-77.21 -111.51 -1.46 0.36 
-84.97 -117.89 -1.56 0.41 
-28.65 -38.20 -0.51 0.79 
-61.73 -79.15 -1.08 0.50 
-32.64 -40.26 -0.56 0.55 
-32.73 -38.84 -0.55 0.56 
-32.81 -37.47 -0.54 0.58 
-33.14 -36.43 -0.53 0.59 
-33.34 -35.29 -0.52 0.12 
-34.66 -35.33 -0.53 0.10 
-92.37 -90.64 -1.39 0.32 
-92.63 -87.51 -1.37 0.32 
-117.43 -106.81 -1.71 0.41 
-70.22 -61.49 -1.00 0.42 
-33.59 -28.30 -0.47 0.65 
-33.62 -27.26 -0.47 0.66 
-33.66 -26.25 -0.46 0.69 
-26.53 -19.89 -0.36 0.71 
-33.58 -24.20 -0.45 0.71 
-34.24 -23.71 -0.45 0.23 
-13.81 -9.18 -0.18 0.93 
-45.27 -28.88 -0.58 0.66 
-57.50 -35.16 -0.73 0.47 
-57.80 -33.86 -0.72 0.07 
-57.68 -32.34 -0.71 0.49 
-57.70 -30.93 -0.70 0.06 
-37.80 -19.35 -0.46 0.71 
-37.86 -18.49 -0.45 0.74 
-34.51 -16.05 -0.41 0.10 
-34.44 -15.23 -0.41 0.67 
-34.42 -14.45 -0.40 0.70 
-58.50 -23.27 -0.68 0.71 
-58.43 -21.96 -0.67 0.43 
-57.13 -20.25 -0.65 0.73 
-42.74 -14.25 -0.48 0.21 
-59.20 -18.49 -0.67 0.25 
-59.67 -17.41 -0.67 0.57 
-60.08 -16.30 -0.67 0.54 
-61.30 -15.39 -0.68 0.48 
-62.94 -14.54 -0.69 0.44 
-68.23 -14.41 -0.75 0.73 
-78.18 -14.97 -0.86 0.72 
-68.89 -11.85 -0.75 0.75 
-176.47 -26.92 -1.92 0.00 
-104.70 -13.95 -1.14 0.65 
-11.63 -1.33 -0.13 0.54 
-11.57 -1.10 -0.13 0.53 
-11.51 -0.87 -0.12 0.56 
-11.47 -0.65 -0.12 0.49 
-11.42 -0.43 -0.12 0.49 
-11.51 -0.22 -0.12 0.48 
-11.55 -0.00 -0.14 0.53 
-11.63 0.22 -0.14 0.53 
-71.13 2.69 -0.85 0.14 
-11.85 0.67 -0.14 0.86 
-118.02 8.95 -1.41 0.44 
-80.66 7.66 -0.97 0.71 
-18.45 2.10 -0.22 0.23 
-18.08 2.41 -0.22 0.81 
-18.04 2.75 -0.22 0.86 
-18.12 3.12 -0.22 0.79 
-50.12 9.60 -0.61 0.35 
-49.48 10.45 -0.60 0.74 
-51.36 11.87 -0.63 0.32 
-79.60 24.87 -1.00 0.13 
-38.07 12.69 -0.48 0.69 
-102.13 36.20 -1.30 0.25 
-97.15 36.52 -1.24 0.27 
-14.64 5.82 -0.19 0.31 
-13.98 5.87 -0.18 0.36 
-13.40 5.93 -0.18 0.36 
-13.06 6.07 -0.17 0.39 
-12.79 6.25 -0.17 0.13 
-12.73 6.52 -0.17 0.64 
-87.70 47.01 -1.19 0.57 
-20.40 11.44 -0.28 0.87 
-20.55 12.04 -0.28 0.25 
-20.27 12.40 -0.28 0.88 
-88.30 56.32 -1.25 0.53 
-88.46 58.80 -1.27 0.52 
-88.62 61.36 -1.29 0.51 
-80.86 63.07 -1.23 0.65 
-89.34 72.44 -1.38 0.46 
-81.86 68.98 -1.28 0.47 
-77.57 67.92 -1.23 0.47 
-13.93 12.67 -0.22 0.90 
-13.71 12.96 -0.23 0.64 
-69.72 68.42 -1.17 0.50 
-67.27 68.56 -1.15 0.52 
-64.93 68.72 -1.13 0.53 
-62.64 68.87 -1.11 0.54 
-60.42 69.01 -1.10 0.55 
-59.55 70.67 -1.10 0.19 
-57.21 70.56 -1.09 0.10 
-14.68 18.82 -0.29 0.75 
-52.14 69.53 -1.04 0.59 
-50.21 69.66 -1.03 0.60 
-12.37 17.87 -0.26 0.83 
-15.20 22.86 -0.33 0.64 
-10.44 16.36 -0.23 0.92 
-14.55 23.80 -0.33 0.75 
-41.52 70.88 -0.98 0.62 
-39.44 70.34 -0.96 0.65 
-37.97 70.83 -0.96 0.67 
-36.37 71.06 -0.95 0.65 
-36.48 74.72 -0.99 0.62 
-34.87 74.99 -0.99 0.64 
-33.32 75.35 -0.99 0.42 
-32.53 77.49 -1.00 0.07 
-7.27 18.27 -0.23 0.50 
-2.48 6.59 -0.08 0.08 
-2.30 6.49 -0.08 0.08 
-2.15 6.47 -0.08 0.80 
-2.02 6.47 -0.08 0.77 
-1.89 6.48 -0.08 0.17 
-1.77 6.52 -0.08 0.16 
-1.65 6.57 -0.08 0.16 
-1.53 6.62 -0.08 0.16 
-1.43 6.79 -0.08 0.18 
-16.60 86.68 -1.05 0.60 
-15.17 88.19 -1.07 0.45 
-13.46 88.20 -1.07 0.63 
-11.69 87.69 -1.06 0.65 
-9.95 87.29 -1.05 0.66 
-8.26 87.07 -1.05 0.50 
-1.01 13.33 -0.16 0.78 
-0.76 13.31 -0.16 0.85 
-0.51 13.45 -0.16 0.84 
-1.67 88.17 -1.05 0.61 
-0.00 89.26 -1.07 0.42 
1.72 91.03 -1.09 0.69 
3.45 91.01 -1.09 0.61 
5.17 90.90 -1.09 0.67 
1.45 19.13 -0.23 0.26 
8.71 91.72 -1.10 0.55 
10.55 92.55 -1.11 0.21 
9.50 22.64 -0.29 0.47 
9.87 22.32 -0.29 0.71 
9.04 14.78 -0.21 0.88 
16.65 19.02 -0.30 0.64 
75.69 77.14 -1.29 0.01 
77.28 75.83 -1.29 0.01 
78.85 74.50 -1.30 0.01 
80.41 73.14 -1.30 0.01 
81.95 71.75 -1.30 0.01 
83.47 70.34 -1.30 0.01 
84.98 68.90 -1.31 0.01 
86.47 67.44 -1.31 0.01 
87.95 65.95 -1.31 0.01 
89.40 64.44 -1.32 0.01 
14.75 10.21 -0.21 0.37 
92.26 61.33 -1.32 0.01 
93.67 59.74 -1.33 0.01 
95.05 58.12 -1.33 0.01 
18.30 10.72 -0.25 0.91 
18.77 10.52 -0.26 0.32 
99.09 53.11 -1.34 0.01 
100.39 51.39 -1.35 0.01 
101.68 49.64 -1.35 0.01 
102.94 47.87 -1.36 0.01 
104.18 46.07 -1.36 0.01 
105.41 44.25 -1.37 0.01 
43.33 17.23 -0.56 0.80 
107.78 40.52 -1.38 0.01 
108.94 38.61 -1.38 0.01 
110.07 36.69 -1.39 0.01 
110.23 34.44 -1.38 0.01 
111.09 32.41 -1.38 0.01 
50.49 13.70 -0.63 0.56 
50.88 12.78 -0.63 0.58 
113.44 26.22 -1.39 0.01 
114.31 24.15 -1.40 0.01 
115.47 22.12 -1.41 0.01 
116.56 20.05 -1.41 0.01 
31.40 4.79 -0.38 0.84 
118.70 15.82 -1.43 0.01 
119.69 13.65 -1.44 0.01 
120.69 11.45 -1.45 0.01 
47.11 3.57 -0.56 0.81 
122.57 6.97 -1.47 0.01 
123.47 4.68 -1.48 0.01 
42.86 0.81 -0.51 0.57 
125.15 0.00 -1.50 0.01 
125.82 -2.38 -1.50 0.01 
41.18 -1.56 -0.49 0.53 
126.96 -7.22 -1.52 0.01 
127.47 -9.67 -1.53 0.01 
127.95 -12.14 -1.54 0.01 
128.39 -14.64 -1.54 0.01 
128.80 -17.16 -1.55 0.01 
129.16 -19.71 -1.56 0.01 
129.49 -22.27 -1.57 0.01 
45.73 -8.76 -0.56 0.57 
130.02 -27.47 -1.59 0.01 
68.31 -15.78 -0.84 0.48 
130.39 -32.74 -1.61 0.01 
130.51 -35.41 -1.62 0.01 
130.58 -38.10 -1.63 0.01 
130.61 -40.80 -1.64 0.01 
48.42 -16.14 -0.61 0.46 
48.89 -17.33 -0.62 0.45 
130.43 -49.03 -1.67 0.01 
130.27 -51.81 -1.68 0.01 
130.06 -54.60 -1.69 0.01 
129.81 -57.40 -1.70 0.01 
129.51 -60.22 -1.71 0.01 
129.15 -63.06 -1.72 0.01 
128.74 -65.90 -1.73 0.01 
53.42 -28.64 -0.72 0.62 
41.33 -23.17 -0.57 0.38 
41.29 -24.19 -0.57 0.49 
41.67 -25.48 -0.58 0.44 
46.20 -29.46 -0.65 0.60 
46.51 -30.92 -0.67 0.54 
59.04 -40.88 -0.86 0.64 
123.51 -89.02 -1.82 0.01 
122.59 -91.94 -1.83 0.01 
58.94 -45.97 -0.89 0.10 
121.49 -98.51 -1.87 0.39 
121.75 -102.59 -1.90 0.38 
25.52 -22.35 -0.41 0.81 
111.92 -101.80 -1.81 0.00 
110.22 -104.14 -1.81 0.00 
58.87 -57.77 -0.99 0.61 
106.63 -108.67 -1.82 0.00 
104.74 -110.86 -1.82 0.00 
71.36 -78.46 -1.27 0.41 
18.55 -21.18 -0.34 0.89 
18.24 -21.64 -0.34 0.53 
125.00 -154.16 -2.37 0.26 
58.01 -74.37 -1.13 0.56 
75.59 -100.79 -1.51 0.56 
30.72 -42.63 -0.63 0.35 
55.02 -79.46 -1.16 0.35 
92.64 -139.36 -2.00 0.00 
24.00 -37.62 -0.53 0.46 
23.15 -37.86 -0.53 0.36 
45.66 -77.95 -1.08 0.37 
81.73 -145.78 -2.00 0.00 
42.31 -78.93 -1.07 0.69 
42.44 -82.90 -1.11 0.21 
50.88 -104.21 -1.39 0.11 
5.27 -11.34 -0.15 0.87 
5.08 -11.49 -0.15 0.73 
5.80 -13.82 -0.18 0.31 
5.89 -14.81 -0.19 0.29 
22.26 -59.21 -0.76 0.58 
14.05 -39.62 -0.50 0.76 
19.96 -59.89 -0.75 0.15 
16.37 -52.41 -0.66 0.66 
15.31 -52.47 -0.65 0.69 
14.26 -52.55 -0.65 0.35 
15.79 -62.87 -0.77 0.76 
14.54 -62.92 -0.77 0.76 
13.30 -62.98 -0.77 0.76 
12.09 -63.09 -0.77 0.77 
10.27 -59.69 -0.72 0.78 
8.61 -56.42 -0.68 0.64 
7.53 -56.51 -0.68 0.64 
6.84 -59.99 -0.72 0.65 
16.98 -178.93 -2.15 0.00 
13.65 -179.93 -2.16 0.00 
10.28 -180.85 -2.17 0.00 
2.42 -63.89 -0.76 0.72 
1.14 -60.18 -0.72 0.69 
-0.00 -60.13 -0.72 0.71 
-1.14 -60.18 -0.72 0.73 
-2.28 -60.24 -0.72 0.74 
-3.43 -60.41 -0.72 0.67 
-14.02 -184.80 -2.22 0.00 
-5.47 -57.68 -0.69 0.20 
-6.55 -57.40 -0.69 0.64 
-8.03 -60.26 -0.73 0.76 
-9.28 -60.80 -0.74 0.17 
-10.39 -60.40 -0.73 0.76 
-10.37 -54.14 -0.66 0.69 
-11.45 -54.20 -0.66 0.68 
-14.02 -60.68 -0.74 0.22 
-32.07 -127.73 -1.57 0.56 
-21.62 -79.69 -0.99 0.69 
-17.18 -58.90 -0.73 0.07 
-18.18 -58.19 -0.73 0.58 
-19.44 -58.34 -0.74 0.64 
-38.39 -108.31 -1.37 0.23 
-36.48 -97.03 -1.24 0.66 
-44.46 -111.81 -1.44 0.25 
-34.35 -81.82 -1.06 0.16 
-37.30 -84.34 -1.10 0.69 
-42.07 -90.47 -1.19 0.41 
-38.59 -79.05 -1.05 0.53 
-44.94 -87.78 -1.18 0.30 
-28.08 -52.38 -0.71 0.67 
-29.06 -51.83 -0.71 0.68 
-73.45 -125.38 -1.74 0.46 
-55.19 -90.26 -1.26 0.54 
-8.09 -12.68 -0.18 0.37 
-54.29 -81.67 -1.17 0.55 
-77.21 -111.51 -1.62 0.36 
-84.95 -117.86 -1.74 0.36 
-28.65 -38.20 -0.57 0.79 
-61.73 -79.15 -1.20 0.50 
-32.64 -40.26 -0.62 0.55 
-32.73 -38.84 -0.61 0.56 
-32.81 -37.47 -0.60 0.58 
-33.13 -36.42 -0.59 0.59 
-33.26 -35.20 -0.58 0.48 
-34.39 -35.05 -0.59 0.12 
-92.25 -90.52 -1.55 0.32 
-92.78 -87.66 -1.53 0.34 
-117.43 -106.81 -1.90 0.41 
-70.19 -61.45 -1.12 0.31 
-33.58 -28.30 -0.52 0.65 
-33.61 -27.25 -0.52 0.66 
-33.66 -26.25 -0.51 0.69 
-26.53 -19.89 -0.40 0.73 
-33.58 -24.20 -0.49 0.71 
-34.11 -23.62 -0.50 0.23 
-13.81 -9.18 -0.20 0.93 
-45.25 -28.86 -0.64 0.66 
-46.44 -28.40 -0.65 0.08 
-57.61 -33.75 -0.80 0.47 
-57.57 -32.28 -0.79 0.07 
-57.80 -30.98 -0.78 0.48 
-37.77 -19.34 -0.51 0.71 
-37.84 -18.48 -0.50 0.74 
-34.46 -16.03 -0.45 0.67 
-34.42 -15.22 -0.45 0.67 
-34.39 -14.44 -0.45 0.70 
-58.09 -23.10 -0.75 0.41 
-58.39 -21.95 -0.75 0.23 
-57.14 -20.25 -0.72 0.68 
-42.74 -14.25 -0.54 0.21 
-59.05 -18.45 -0.74 0.14 
-59.56 -17.38 -0.74 0.56 
-60.15 -16.32 -0.75 0.58 
-61.37 -15.41 -0.76 0.47 
-62.97 -14.55 -0.77 0.51 
-68.22 -14.41 -0.83 0.73 
-78.17 -14.97 -0.95 0.72 
-68.89 -11.85 -0.84 0.75 
-156.93 -23.94 -1.90 0.40 
-11.71 -1.56 -0.14 0.87 
-11.61 -1.32 -0.14 0.54 
-11.55 -1.10 -0.14 0.53 
-11.49 -0.87 -0.14 0.56 
-11.45 -0.65 -0.14 0.49 
-11.40 -0.43 -0.14 0.49 
-11.49 -0.22 -0.14 0.49 
-11.53 -0.00 -0.15 0.53 
-11.61 0.22 -0.15 0.53 
-71.01 2.69 -0.93 0.29 
-11.85 0.67 -0.16 0.86 
-118.58 8.99 -1.56 0.22 
-80.66 7.66 -1.07 0.71 
-18.41 2.10 -0.24 0.23 
-18.07 2.41 -0.24 0.81 
-18.04 2.75 -0.24 0.86 
-18.11 3.11 -0.24 0.79 
-50.12 9.60 -0.67 0.35 
-49.48 10.45 -0.67 0.74 
-51.36 11.87 -0.69 0.32 
-128.99 32.39 -1.75 0.01 
-128.76 34.94 -1.75 0.01 
-113.92 35.59 -1.57 0.58 
-38.08 12.69 -0.53 0.68 
-97.15 36.52 -1.36 0.27 
-14.62 5.81 -0.21 0.31 
-13.96 5.86 -0.20 0.36 
-13.37 5.91 -0.19 0.36 
-13.02 6.06 -0.19 0.39 
-12.74 6.22 -0.19 0.64 
-12.72 6.51 -0.19 0.64 
-12.77 6.84 -0.19 0.55 
-20.40 11.44 -0.31 0.87 
-20.55 12.04 -0.31 0.25 
-20.27 12.40 -0.31 0.88 
-80.84 63.05 -1.35 0.63 
-89.34 72.44 -1.51 0.46 
-81.79 68.93 -1.41 0.47 
-78.07 68.35 -1.36 0.30 
-13.92 12.67 -0.25 0.90 
-13.71 12.96 -0.25 0.64 
-69.77 68.46 -1.29 0.64 
-67.24 68.53 -1.26 0.52 
-65.86 69.71 -1.26 0.49 
-63.73 70.06 -1.25 0.60 
-60.42 69.01 -1.21 0.55 
-58.27 69.14 -1.19 0.56 
-56.17 69.28 -1.17 0.57 
-14.68 18.82 -0.31 0.75 
-52.15 69.53 -1.14 0.59 
-50.21 69.66 -1.13 0.60 
-12.37 17.86 -0.29 0.83 
-15.18 22.84 -0.36 0.64 
-10.44 16.36 -0.26 0.92 
-14.55 23.79 -0.37 0.75 
-41.14 70.23 -1.07 0.64 
-39.44 70.34 -1.06 0.65 
-37.95 70.81 -1.06 0.67 
-36.37 71.05 -1.05 0.27 
-36.50 74.76 -1.09 0.62 
-34.89 75.03 -1.09 0.63 
-33.38 75.48 -1.09 0.42 
-7.27 18.27 -0.26 0.49 
-2.44 6.49 -0.09 0.08 
-2.28 6.44 -0.09 0.80 
-2.15 6.46 -0.09 0.80 
-2.02 6.46 -0.09 0.77 
-1.89 6.47 -0.09 0.78 
-1.76 6.48 -0.09 0.16 
-1.64 6.53 -0.09 0.16 
-1.52 6.58 -0.09 0.16 
-1.42 6.74 -0.09 0.18 
-16.60 86.69 -1.16 0.60 
-15.17 88.19 -1.18 0.45 
-13.46 88.20 -1.17 0.63 
-11.69 87.70 -1.16 0.65 
-9.96 87.30 -1.16 0.67 
-8.27 87.17 -1.15 0.50 
-1.01 13.33 -0.18 0.78 
-0.76 13.31 -0.18 0.85 
-0.51 13.45 -0.18 0.84 
-1.67 88.20 -1.16 0.61 
-0.00 89.18 -1.17 0.57 
1.72 91.03 -1.20 0.69 
3.45 91.00 -1.20 0.62 
5.17 90.89 -1.20 0.67 
1.45 19.18 -0.25 0.93 
8.71 91.75 -1.21 0.55 
10.53 92.30 -1.22 0.30 
12.72 95.42 -1.27 0.25 
9.51 22.65 -0.32 0.85 
9.87 22.31 -0.32 0.26 
9.04 14.78 -0.23 0.86 
64.28 76.28 -1.31 0.01 
16.65 19.02 -0.33 0.64 
67.32 74.01 -1.32 0.01 
68.81 72.83 -1.32 0.01 
70.29 71.63 -1.32 0.01 
71.75 70.41 -1.32 0.01 
73.20 69.16 -1.32 0.01 
74.64 67.89 -1.33 0.01 
76.06 66.59 -1.33 0.01 
77.46 65.28 -1.33 0.01 
78.85 63.93 -1.33 0.01 
80.22 62.56 -1.34 0.01 
81.57 61.17 -1.34 0.01 
82.91 59.76 -1.34 0.01 
14.75 10.21 -0.24 0.37 
85.53 56.85 -1.35 0.01 
86.81 55.37 -1.35 0.01 
88.07 53.86 -1.36 0.01 
18.30 10.72 -0.28 0.91 
18.77 10.52 -0.28 0.32 
91.75 49.18 -1.37 0.01 
92.94 47.58 -1.37 0.01 
94.11 45.95 -1.38 0.01 
95.25 44.29 -1.38 0.01 
96.38 42.62 -1.39 0.01 
97.48 40.92 -1.39 0.01 
43.06 17.12 -0.61 0.80 
43.51 16.35 -0.61 0.59 
98.74 35.00 -1.38 0.01 
99.57 33.19 -1.38 0.01 
100.37 31.36 -1.38 0.01 
101.13 29.51 -1.39 0.01 
50.62 13.73 -0.69 0.52 
51.00 12.81 -0.69 0.54 
103.22 23.85 -1.39 0.01 
103.84 21.94 -1.40 0.01 
104.44 20.00 -1.40 0.01 
105.13 18.08 -1.40 0.01 
31.40 4.79 -0.42 0.84 
106.86 14.24 -1.42 0.01 
107.65 12.28 -1.42 0.01 
108.48 10.30 -1.43 0.01 
47.11 3.57 -0.62 0.81 
109.91 6.25 -1.45 0.01 
110.52 4.19 -1.45 0.01 
42.86 0.81 -0.56 0.57 
111.81 -0.00 -1.47 0.01 
112.39 -2.13 -1.48 0.01 
41.17 -1.56 -0.54 0.62 
113.40 -6.44 -1.49 0.01 
113.82 -8.63 -1.50 0.01 
117.24 -11.13 -1.55 0.01 
117.59 -13.41 -1.56 0.01 
117.90 -15.71 -1.56 0.01 
118.18 -18.03 -1.57 0.01 
118.42 -20.37 -1.58 0.01 
45.73 -8.76 -0.61 0.57 
118.80 -25.09 -1.60 0.01 
68.35 -15.80 -0.92 0.48 
119.01 -29.89 -1.61 0.01 
119.06 -32.30 -1.62 0.01 
119.06 -34.74 -1.63 0.01 
119.03 -37.19 -1.64 0.01 
48.35 -16.11 -0.67 0.46 
48.83 -17.31 -0.68 0.59 
118.67 -44.61 -1.67 0.01 
118.46 -47.11 -1.68 0.01 
56.71 -23.81 -0.81 0.58 
56.71 -25.08 -0.82 0.16 
118.76 -55.23 -1.72 0.52 
118.94 -58.07 -1.74 0.51 
57.29 -29.33 -0.85 0.38 
41.70 -22.35 -0.62 0.15 
41.10 -23.05 -0.62 0.17 
41.25 -24.16 -0.63 0.50 
41.61 -25.45 -0.64 0.44 
46.30 -29.53 -0.72 0.61 
46.49 -30.90 -0.73 0.60 
58.18 -40.28 -0.93 0.60 
113.94 -82.12 -1.85 0.01 
112.68 -84.50 -1.85 0.01 
111.36 -86.85 -1.86 0.01 
109.97 -89.17 -1.86 0.01 
108.53 -91.45 -1.87 0.01 
25.52 -22.34 -0.45 0.85 
105.45 -95.92 -1.87 0.01 
103.82 -98.09 -1.88 0.01 
58.90 -57.80 -1.09 0.61 
101.03 -102.96 -1.90 0.01 
99.21 -105.00 -1.90 0.01 
71.36 -78.46 -1.39 0.41 
18.55 -21.18 -0.37 0.89 
18.24 -21.64 -0.37 0.53 
91.39 -112.71 -1.91 0.01 
57.99 -74.36 -1.24 0.64 
75.59 -100.79 -1.66 0.56 
73.37 -101.79 -1.65 0.60 
55.02 -79.46 -1.27 0.35 
80.50 -121.09 -1.91 0.01 
23.99 -37.62 -0.59 0.46 
23.15 -37.85 -0.58 0.36 
45.65 -77.92 -1.19 0.34 
71.03 -126.68 -1.91 0.01 
42.31 -78.94 -1.18 0.70 
42.39 -82.80 -1.22 0.28 
50.85 -104.15 -1.52 0.17 
5.27 -11.33 -0.16 0.88 
5.08 -11.49 -0.17 0.73 
5.80 -13.82 -0.20 0.31 
5.89 -14.81 -0.21 0.29 
22.24 -59.15 -0.83 0.58 
14.04 -39.61 -0.55 0.81 
19.91 -59.72 -0.83 0.20 
16.36 -52.37 -0.72 0.67 
15.30 -52.43 -0.72 0.69 
14.25 -52.50 -0.72 0.69 
15.79 -62.87 -0.85 0.76 
14.54 -62.92 -0.85 0.76 
13.30 -62.98 -0.85 0.76 
12.08 -63.09 -0.84 0.77 
10.27 -59.69 -0.80 0.78 
8.60 -56.37 -0.75 0.64 
7.52 -56.46 -0.75 0.64 
6.84 -59.98 -0.79 0.65 
14.89 -156.89 -2.07 0.01 
11.96 -157.69 -2.08 0.01 
9.00 -158.42 -2.09 0.01 
2.03 -53.55 -0.70 0.81 
1.14 -60.15 -0.79 0.65 
-0.00 -60.10 -0.79 0.78 
-1.14 -60.17 -0.79 0.78 
-2.28 -60.23 -0.79 0.78 
-3.43 -60.39 -0.80 0.67 
-12.24 -161.41 -2.13 0.00 
-5.45 -57.44 -0.76 0.50 
-6.54 -57.35 -0.76 0.64 
-8.03 -60.26 -0.80 0.76 
-9.28 -60.80 -0.81 0.17 
-10.39 -60.41 -0.81 0.76 
-10.36 -54.10 -0.72 0.69 
-11.44 -54.16 -0.73 0.68 
-14.04 -60.74 -0.82 0.22 
-44.05 -175.43 -2.38 0.00 
-21.62 -79.67 -1.09 0.70 
-17.06 -58.48 -0.80 0.25 
-18.16 -58.14 -0.80 0.58 
-19.43 -58.30 -0.81 0.64 
-38.43 -108.41 -1.51 0.44 
-36.48 -97.03 -1.36 0.66 
-44.49 -111.86 -1.58 0.38 
-34.30 -81.71 -1.17 0.42 
-37.30 -84.34 -1.21 0.69 
-42.05 -90.43 -1.31 0.39 
-38.60 -79.05 -1.16 0.51 
-27.12 -52.98 -0.78 0.25 
-28.06 -52.34 -0.78 0.75 
-29.04 -51.79 -0.78 0.68 
-73.45 -125.39 -1.91 0.46 
-55.19 -90.26 -1.39 0.54 
-8.09 -12.68 -0.20 0.79 
-54.30 -81.68 -1.29 0.44 
-77.21 -111.50 -1.78 0.36 
-84.92 -117.82 -1.91 0.42 
-28.65 -38.20 -0.63 0.79 
-61.73 -79.15 -1.32 0.50 
-32.64 -40.26 -0.68 0.55 
-32.73 -38.84 -0.67 0.56 
-32.81 -37.47 -0.65 0.58 
-33.13 -36.42 -0.65 0.59 
-33.22 -35.17 -0.64 0.62 
-34.21 -34.87 -0.64 0.20 
-92.46 -90.72 -1.70 0.29 
-92.60 -87.48 -1.68 0.27 
-117.41 -106.79 -2.09 0.01 
-70.07 -61.35 -1.22 0.49 
-33.58 -28.29 -0.58 0.65 
-33.61 -27.25 -0.57 0.67 
-33.65 -26.25 -0.56 0.69 
-26.52 -19.89 -0.44 0.75 
-33.79 -24.36 -0.55 0.71 
-33.98 -23.53 -0.54 0.62 
-13.81 -9.18 -0.22 0.93 
-45.22 -28.84 -0.71 0.66 
-45.76 -27.98 -0.71 0.08 
-57.64 -33.76 -0.88 0.19 
-57.68 -32.34 -0.87 0.29 
-57.82 -30.99 -0.86 0.12 
-37.75 -19.33 -0.56 0.71 
-37.82 -18.47 -0.55 0.74 
-34.44 -16.02 -0.50 0.67 
-34.40 -15.21 -0.49 0.67 
-34.37 -14.43 -0.49 0.69 
-35.47 -14.11 -0.50 0.14 
-58.34 -21.93 -0.82 0.37 
-57.19 -20.27 -0.80 0.68 
-58.59 -19.53 -0.81 0.54 
-59.07 -18.45 -0.81 0.36 
-59.57 -17.38 -0.82 0.57 
-60.15 -16.32 -0.82 0.26 
-61.31 -15.40 -0.83 0.53 
-62.86 -14.53 -0.85 0.37 
-68.19 -14.40 -0.92 0.40 
-78.16 -14.97 -1.05 0.72 
-68.89 -11.85 -0.92 0.75 
-149.10 -22.75 -1.98 0.01 
-11.71 -1.56 -0.16 0.76 
-11.59 -1.32 -0.15 0.54 
-11.53 -1.09 -0.15 0.53 
-11.47 -0.87 -0.15 0.57 
-11.43 -0.65 -0.15 0.49 
-11.38 -0.43 -0.15 0.49 
-11.47 -0.22 -0.15 0.49 
-11.51 0.00 -0.17 0.53 
-11.59 0.22 -0.17 0.53 
-70.87 2.68 -1.02 0.29 
-11.85 0.67 -0.17 0.86 
-115.97 8.80 -1.67 0.01 
-80.65 7.65 -1.16 0.71 
-18.35 2.09 -0.26 0.14 
-18.06 2.41 -0.26 0.81 
-18.03 2.75 -0.26 0.86 
-18.10 3.11 -0.26 0.78 
-50.12 9.60 -0.73 0.35 
-49.48 10.45 -0.73 0.74 
-51.36 11.87 -0.76 0.32 
-115.10 28.90 -1.70 0.01 
-107.58 29.19 -1.60 0.60 
-114.72 33.47 -1.71 0.01 
-113.92 35.59 -1.71 0.58 
-38.09 12.70 -0.58 0.67 
-14.59 5.80 -0.23 0.33 
-13.93 5.85 -0.22 0.36 
-13.35 5.90 -0.21 0.36 
-12.99 6.04 -0.21 0.40 
-12.72 6.21 -0.20 0.65 
-12.70 6.50 -0.20 0.64 
-12.75 6.83 -0.21 0.56 
-20.40 11.44 -0.34 0.87 
-20.54 12.04 -0.34 0.25 
-20.27 12.40 -0.34 0.88 
-18.95 13.66 -0.34 0.62 
-87.77 65.82 -1.57 0.01 
-80.81 63.03 -1.47 0.61 
-83.84 67.98 -1.55 0.01 
-82.16 69.24 -1.54 0.01 
-77.84 68.16 -1.48 0.41 
-13.92 12.66 -0.27 0.90 
-13.71 12.96 -0.27 0.64 
-69.74 68.43 -1.40 0.64 
-67.24 68.53 -1.38 0.52 
-65.82 69.66 -1.37 0.48 
-63.70 70.03 -1.36 0.60 
-62.25 71.09 -1.36 0.65 
-59.14 70.18 -1.32 0.19 
-56.52 69.70 -1.29 0.19 
-14.68 18.82 -0.34 0.75 
-86.78 115.72 -2.08 0.47 
-12.36 17.85 -0.31 0.83 
-15.17 22.82 -0.39 0.77 
-10.44 16.36 -0.28 0.92 
-14.55 23.79 -0.40 0.75 
-41.14 70.23 -1.17 0.64 
-39.44 70.34 -1.16 0.65 
-37.94 70.78 -1.15 0.66 
-36.41 71.12 -1.15 0.27 
-36.52 74.80 -1.19 0.64 
-34.92 75.09 -1.19 0.40 
-33.43 75.60 -1.19 0.46 
-7.27 18.27 -0.28 0.47 
-2.41 6.41 -0.10 0.80 
-2.28 6.43 -0.10 0.80 
