VERSION 0.7
FIELDS x y z intensity
SIZE 4 4 4 8
TYPE F F F F
COUNT 1 1 1 1
WIDTH 1944
HEIGHT 1
VIEWPOINT 0.0 0.0 0.0 1.0 0.0 0.0 0.0
POINTS 1944
DATA ascii
28.28 37.71 -1.52 0.03 
29.02 37.21 -1.52 0.03 
9.04 11.15 -0.46 0.55 
30.43 36.11 -1.52 0.03 
31.12 35.55 -1.53 0.03 
31.81 34.97 -1.53 0.03 
32.48 34.37 -1.53 0.03 
33.18 33.81 -1.53 0.02 
12.58 12.35 -0.57 0.45 
12.58 11.89 -0.56 0.93 
12.89 11.72 -0.56 0.45 
35.72 31.28 -1.53 0.03 
17.77 14.98 -0.75 0.03 
18.56 15.05 -0.77 0.90 
18.77 14.64 -0.77 0.80 
38.10 28.57 -1.54 0.03 
38.65 27.86 -1.54 0.03 
39.20 27.14 -1.54 0.03 
39.75 26.43 -1.54 0.02 
40.29 25.69 -1.54 0.03 
40.79 24.94 -1.54 0.03 
41.28 24.18 -1.54 0.03 
22.96 12.87 -0.85 0.45 
23.01 12.33 -0.84 0.83 
23.58 12.07 -0.86 0.34 
43.14 21.06 -1.55 0.03 
43.56 20.26 -1.55 0.03 
43.96 19.44 -1.55 0.03 
44.35 18.62 -1.55 0.03 
33.05 13.14 -1.15 0.62 
27.83 10.46 -0.96 0.67 
27.93 9.90 -0.96 0.74 
45.81 15.27 -1.56 0.03 
46.14 14.41 -1.56 0.02 
46.47 13.56 -1.56 0.02 
25.99 7.05 -0.87 0.87 
26.67 6.70 -0.89 0.22 
47.36 10.94 -1.57 0.02 
33.32 7.04 -1.10 0.71 
47.87 9.17 -1.57 0.02 
48.09 8.27 -1.58 0.02 
27.90 4.26 -0.91 0.59 
48.50 6.46 -1.58 0.02 
37.56 4.28 -1.22 0.57 
32.32 3.07 -1.05 0.52 
38.39 2.91 -1.24 0.27 
49.24 2.80 -1.59 0.02 
34.35 1.30 -1.11 0.04 
49.48 0.94 -1.60 0.02 
49.56 -0.00 -1.60 0.02 
42.43 -0.80 -1.37 0.43 
49.67 -1.88 -1.61 0.02 
49.70 -2.83 -1.61 0.02 
49.70 -3.77 -1.61 0.02 
49.69 -4.72 -1.61 0.02 
41.50 -4.73 -1.35 0.23 
41.27 -5.50 -1.34 0.58 
49.53 -7.56 -1.62 0.02 
49.43 -8.50 -1.62 0.02 
49.31 -9.45 -1.62 0.02 
49.21 -10.40 -1.62 0.02 
49.12 -11.35 -1.63 0.02 
49.00 -12.31 -1.63 0.02 
48.87 -13.26 -1.64 0.02 
44.60 -13.01 -1.50 0.57 
48.55 -15.17 -1.64 0.02 
48.36 -16.12 -1.65 0.02 
48.15 -17.07 -1.65 0.02 
47.92 -18.02 -1.65 0.02 
35.70 -14.20 -1.24 0.55 
34.94 -14.67 -1.22 0.75 
34.95 -15.46 -1.23 0.51 
35.51 -16.51 -1.26 0.52 
36.09 -17.62 -1.30 0.45 
41.81 -21.40 -1.52 0.60 
42.27 -22.66 -1.55 0.58 
48.93 -27.43 -1.81 0.62 
49.12 -28.78 -1.84 0.62 
48.94 -29.93 -1.85 0.03 
48.52 -30.95 -1.86 0.02 
48.01 -31.92 -1.86 0.02 
47.48 -32.88 -1.86 0.02 
46.93 -33.83 -1.87 0.02 
46.36 -34.77 -1.87 0.02 
45.77 -35.70 -1.87 0.02 
26.01 -21.09 -1.08 0.27 
44.53 -37.52 -1.88 0.02 
43.88 -38.42 -1.88 0.02 
43.21 -39.30 -1.89 0.02 
42.52 -40.17 -1.89 0.02 
41.81 -41.02 -1.89 0.02 
41.08 -41.86 -1.89 0.02 
40.33 -42.69 -1.90 0.02 
39.57 -43.50 -1.90 0.02 
38.78 -44.30 -1.90 0.02 
30.16 -35.79 -1.51 0.70 
37.17 -45.84 -1.91 0.02 
15.54 -19.93 -0.82 0.45 
14.97 -19.96 -0.81 0.90 
17.58 -24.40 -0.97 0.70 
28.65 -41.38 -1.63 0.69 
32.83 -49.39 -1.91 0.02 
31.92 -50.04 -1.92 0.02 
30.99 -50.68 -1.92 0.02 
21.02 -35.88 -1.34 0.83 
29.09 -51.89 -1.92 0.02 
28.12 -52.47 -1.92 0.02 
27.14 -53.02 -1.92 0.02 
26.15 -53.55 -1.92 0.02 
25.14 -54.07 -1.93 0.02 
24.13 -54.56 -1.93 0.02 
23.10 -55.02 -1.93 0.02 
22.06 -55.47 -1.93 0.02 
21.01 -55.89 -1.93 0.02 
19.95 -56.29 -1.93 0.02 
18.89 -56.67 -1.93 0.02 
11.72 -37.51 -1.27 0.63 
16.73 -57.36 -1.93 0.02 
15.65 -57.67 -1.93 0.02 
14.55 -57.95 -1.93 0.02 
11.87 -51.39 -1.70 0.81 
12.35 -58.44 -1.93 0.02 
2.56 -13.39 -0.44 0.95 
2.03 -11.79 -0.39 0.93 
2.05 -13.46 -0.44 0.95 
7.88 -59.15 -1.93 0.02 
6.76 -59.26 -1.93 0.02 
5.63 -59.35 -1.92 0.02 
4.51 -59.42 -1.92 0.02 
3.38 -59.46 -1.92 0.02 
2.25 -59.48 -1.92 0.02 
1.13 -59.47 -1.92 0.02 
-0.00 -53.97 -1.74 0.08 
-1.02 -53.90 -1.74 0.68 
-2.05 -54.13 -1.75 0.79 
-3.36 -59.20 -1.91 0.02 
-4.48 -59.07 -1.91 0.02 
-5.59 -58.92 -1.91 0.02 
-6.70 -58.74 -1.91 0.02 
-7.80 -58.54 -1.91 0.02 
-8.90 -58.32 -1.90 0.02 
-9.99 -58.08 -1.90 0.02 
-10.74 -56.06 -1.84 0.75 
-12.15 -57.52 -1.90 0.02 
-13.22 -57.20 -1.90 0.02 
-13.79 -54.93 -1.83 0.74 
-13.94 -51.38 -1.72 0.02 
-14.89 -51.04 -1.72 0.02 
-15.83 -50.67 -1.71 0.02 
-16.76 -50.29 -1.71 0.02 
-17.68 -49.89 -1.71 0.02 
-18.60 -49.47 -1.71 0.02 
-19.50 -49.03 -1.70 0.02 
-20.39 -48.57 -1.70 0.02 
-21.27 -48.09 -1.70 0.02 
-22.13 -47.60 -1.69 0.02 
-22.99 -47.09 -1.69 0.02 
-23.83 -46.56 -1.69 0.02 
-24.67 -46.02 -1.69 0.02 
-25.48 -45.46 -1.68 0.02 
-26.29 -44.88 -1.68 0.02 
-27.08 -44.29 -1.68 0.02 
-27.86 -43.68 -1.67 0.02 
-28.63 -43.06 -1.67 0.02 
-29.38 -42.43 -1.67 0.02 
-30.11 -41.78 -1.66 0.02 
-30.83 -41.11 -1.66 0.02 
-34.68 -44.47 -1.82 0.02 
-10.79 -13.30 -0.55 0.44 
-36.19 -42.94 -1.81 0.02 
-36.91 -42.16 -1.81 0.02 
-37.62 -41.36 -1.81 0.02 
-35.32 -37.38 -1.66 0.63 
-36.91 -37.61 -1.70 0.64 
-39.08 -38.35 -1.77 0.25 
-35.92 -33.94 -1.60 0.67 
-37.49 -34.10 -1.64 0.67 
-41.50 -36.33 -1.78 0.02 
-42.08 -35.46 -1.78 0.02 
-42.64 -34.57 -1.77 0.02 
-43.19 -33.68 -1.77 0.02 
-43.71 -32.78 -1.76 0.02 
-44.22 -31.87 -1.76 0.02 
-32.97 -22.83 -1.29 0.76 
-31.30 -20.80 -1.21 0.83 
-37.28 -23.77 -1.43 0.76 
-37.38 -22.86 -1.41 0.76 
-27.02 -15.83 -1.01 0.82 
-38.82 -21.77 -1.44 0.01 
-47.23 -25.32 -1.73 0.03 
-47.59 -24.36 -1.73 0.03 
-44.43 -21.70 -1.60 0.65 
-44.46 -20.68 -1.58 0.78 
-44.59 -19.72 -1.57 0.78 
-27.86 -11.70 -0.98 0.86 
-41.91 -16.67 -1.46 0.83 
-37.81 -14.22 -1.30 0.75 
-37.75 -13.38 -1.29 0.76 
-14.23 -4.74 -0.48 0.75 
-14.26 -4.45 -0.48 0.75 
-37.60 -10.97 -1.26 0.56 
-50.22 -13.63 -1.68 0.03 
-50.34 -12.64 -1.68 0.03 
-50.45 -11.66 -1.67 0.03 
-50.54 -10.68 -1.67 0.03 
-50.61 -9.69 -1.66 0.03 
-50.66 -8.71 -1.66 0.03 
-11.37 -1.73 -0.37 0.06 
-10.88 -1.45 -0.35 0.13 
-10.77 -1.23 -0.35 0.27 
-10.73 -1.02 -0.35 0.28 
-10.72 -0.81 -0.35 0.31 
-10.74 -0.61 -0.35 0.31 
-10.79 -0.41 -0.35 0.27 
-10.86 -0.21 -0.35 0.25 
-10.96 -0.00 -0.37 0.28 
-27.06 0.51 -0.91 0.81 
-27.12 1.03 -0.91 0.80 
-27.20 1.55 -0.91 0.83 
-48.04 3.64 -1.61 0.03 
-16.76 1.59 -0.56 0.27 
-16.26 1.85 -0.55 0.64 
-16.28 2.17 -0.55 0.64 
-16.40 2.50 -0.56 0.32 
-42.73 7.35 -1.45 0.03 
-21.52 4.12 -0.73 0.20 
-20.25 4.28 -0.69 0.29 
-19.14 4.42 -0.66 0.34 
-18.27 4.59 -0.63 0.45 
-17.81 4.83 -0.62 0.74 
-17.67 5.15 -0.62 0.92 
-17.66 5.52 -0.62 0.87 
-17.76 5.92 -0.63 0.65 
-40.35 14.30 -1.43 0.03 
-26.09 9.81 -0.93 0.83 
-25.83 10.27 -0.93 0.84 
-25.34 10.64 -0.92 0.84 
-24.97 11.04 -0.91 0.85 
-24.61 11.45 -0.91 0.86 
-38.72 18.91 -1.44 0.03 
-10.63 5.44 -0.40 0.79 
-10.41 5.58 -0.40 0.44 
-10.05 5.63 -0.39 0.57 
-9.73 5.70 -0.38 0.48 
-9.39 5.74 -0.37 0.51 
-9.08 5.79 -0.36 0.52 
-8.78 5.84 -0.35 0.60 
-8.53 5.90 -0.35 0.62 
-8.38 6.04 -0.35 0.27 
-8.35 6.26 -0.35 0.27 
-8.33 6.50 -0.35 0.23 
-8.32 6.74 -0.36 0.10 
-8.39 7.07 -0.37 0.18 
-32.89 28.80 -1.46 0.03 
-32.37 29.45 -1.47 0.03 
-31.84 30.08 -1.47 0.03 
-21.76 21.35 -1.02 0.82 
-15.18 15.47 -0.73 0.85 
-14.82 15.69 -0.72 0.91 
-14.65 16.11 -0.73 0.33 
-28.99 33.10 -1.47 0.03 
-28.38 33.68 -1.47 0.03 
-27.76 34.24 -1.48 0.03 
-27.13 34.78 -1.48 0.03 
-26.49 35.32 -1.48 0.03 
-25.84 35.84 -1.48 0.03 
-25.17 36.36 -1.48 0.03 
-24.50 36.85 -1.48 0.03 
-23.82 37.34 -1.48 0.03 
-23.12 37.81 -1.48 0.03 
-20.47 34.95 -1.36 0.60 
-21.70 38.71 -1.49 0.03 
-7.06 13.17 -0.50 0.55 
-6.69 13.06 -0.49 0.94 
-6.46 13.22 -0.49 0.93 
-18.76 40.35 -1.49 0.03 
-18.01 40.73 -1.49 0.03 
-17.25 41.08 -1.49 0.03 
-16.47 41.43 -1.49 0.03 
-15.70 41.75 -1.49 0.03 
-14.91 42.07 -1.49 0.03 
-6.44 19.32 -0.68 0.86 
-13.31 42.61 -1.49 0.03 
-12.50 42.85 -1.49 0.03 
-11.69 43.08 -1.49 0.03 
-10.87 43.30 -1.49 0.03 
-10.05 43.50 -1.49 0.03 
-9.23 43.69 -1.50 0.03 
-8.40 43.86 -1.50 0.03 
-7.57 44.02 -1.50 0.03 
-6.74 44.16 -1.50 0.03 
-5.90 44.29 -1.50 0.03 
-5.06 44.41 -1.50 0.03 
-4.22 44.51 -1.50 0.03 
-3.38 44.60 -1.50 0.03 
-1.15 20.30 -0.68 0.92 
-1.69 44.74 -1.50 0.03 
-0.85 44.78 -1.50 0.03 
0.00 44.82 -1.50 0.03 
0.85 44.83 -1.50 0.03 
1.70 44.84 -1.50 0.03 
2.55 44.83 -1.50 0.03 
3.40 44.80 -1.50 0.03 
4.25 44.75 -1.51 0.03 
1.71 15.03 -0.51 0.62 
3.02 22.64 -0.76 0.82 
3.45 22.60 -0.77 0.80 
7.62 44.32 -1.51 0.03 
8.47 44.22 -1.51 0.03 
9.31 44.06 -1.51 0.03 
10.14 43.89 -1.51 0.03 
10.97 43.70 -1.51 0.03 
11.80 43.50 -1.51 0.03 
12.63 43.28 -1.51 0.03 
13.45 43.05 -1.51 0.03 
14.27 42.81 -1.51 0.03 
15.08 42.54 -1.51 0.03 
15.89 42.26 -1.51 0.03 
16.69 41.96 -1.51 0.03 
17.48 41.65 -1.51 0.03 
18.28 41.33 -1.51 0.03 
19.06 40.99 -1.51 0.03 
19.85 40.66 -1.51 0.03 
10.27 20.07 -0.75 0.75 
21.39 39.90 -1.52 0.03 
22.15 39.50 -1.52 0.03 
22.90 39.09 -1.52 0.03 
23.64 38.66 -1.52 0.03 
24.39 38.25 -1.52 0.03 
25.13 37.81 -1.52 0.03 
7.88 11.37 -0.46 0.47 
26.57 36.86 -1.52 0.03 
27.27 36.36 -1.52 0.03 
27.96 35.85 -1.52 0.03 
9.04 11.15 -0.48 0.55 
29.34 34.82 -1.52 0.03 
30.01 34.27 -1.53 0.03 
30.67 33.71 -1.53 0.03 
31.31 33.14 -1.53 0.03 
31.95 32.56 -1.53 0.03 
12.58 12.35 -0.59 0.45 
12.58 11.89 -0.58 0.93 
12.89 11.72 -0.58 0.45 
34.44 30.16 -1.53 0.03 
17.59 14.82 -0.77 0.46 
17.61 14.28 -0.76 0.91 
17.94 13.99 -0.76 0.77 
36.71 27.53 -1.54 0.03 
37.27 26.86 -1.54 0.03 
37.79 26.16 -1.54 0.03 
38.30 25.46 -1.54 0.03 
38.79 24.74 -1.54 0.03 
39.28 24.02 -1.54 0.03 
39.79 23.31 -1.54 0.03 
22.98 12.88 -0.88 0.45 
23.02 12.34 -0.87 0.83 
23.61 12.08 -0.89 0.34 
41.54 20.28 -1.55 0.03 
41.99 19.53 -1.55 0.03 
42.38 18.74 -1.55 0.03 
42.75 17.94 -1.55 0.03 
32.98 13.12 -1.19 0.62 
27.85 10.47 -1.00 0.66 
27.94 9.90 -0.99 0.74 
44.11 14.70 -1.56 0.03 
44.45 13.89 -1.56 0.03 
44.74 13.05 -1.56 0.03 
25.99 7.05 -0.90 0.87 
26.68 6.70 -0.92 0.22 
45.55 10.53 -1.57 0.03 
33.35 7.04 -1.14 0.71 
46.03 8.82 -1.57 0.03 
46.25 7.95 -1.57 0.03 
27.90 4.26 -0.94 0.59 
46.63 6.21 -1.58 0.03 
37.56 4.28 -1.27 0.57 
32.36 3.07 -1.09 0.13 
38.51 2.92 -1.29 0.27 
47.26 2.69 -1.59 0.03 
47.40 1.79 -1.59 0.02 
47.49 0.90 -1.59 0.02 
47.58 -0.00 -1.59 0.02 
42.36 -0.80 -1.42 0.33 
47.67 -1.81 -1.60 0.02 
47.69 -2.71 -1.60 0.02 
47.70 -3.62 -1.60 0.02 
47.68 -4.52 -1.60 0.02 
41.50 -4.73 -1.40 0.23 
41.27 -5.50 -1.39 0.58 
47.52 -7.25 -1.61 0.03 
47.48 -8.17 -1.61 0.03 
47.42 -9.08 -1.62 0.03 
47.34 -10.00 -1.62 0.03 
47.25 -10.92 -1.62 0.03 
47.14 -11.84 -1.63 0.03 
47.01 -12.76 -1.63 0.03 
44.56 -13.00 -1.55 0.60 
46.69 -14.59 -1.64 0.03 
46.51 -15.50 -1.64 0.03 
46.30 -16.41 -1.64 0.03 
46.08 -17.32 -1.65 0.03 
35.71 -14.20 -1.29 0.54 
34.95 -14.67 -1.27 0.75 
34.96 -15.46 -1.28 0.51 
35.50 -16.51 -1.31 0.52 
36.09 -17.62 -1.34 0.45 
41.81 -21.40 -1.57 0.60 
42.26 -22.66 -1.61 0.58 
47.96 -26.89 -1.84 0.02 
47.53 -27.84 -1.84 0.02 
47.08 -28.79 -1.85 0.02 
46.61 -29.73 -1.85 0.02 
46.12 -30.66 -1.85 0.02 
45.61 -31.58 -1.86 0.02 
45.07 -32.49 -1.86 0.02 
44.52 -33.39 -1.86 0.02 
43.95 -34.28 -1.87 0.02 
26.01 -21.09 -1.12 0.27 
42.75 -36.03 -1.87 0.02 
42.13 -36.89 -1.87 0.02 
41.48 -37.73 -1.88 0.02 
40.82 -38.56 -1.88 0.02 
40.13 -39.38 -1.88 0.02 
39.43 -40.18 -1.89 0.02 
38.71 -40.98 -1.89 0.02 
37.98 -41.75 -1.89 0.02 
37.22 -42.51 -1.89 0.02 
30.16 -35.79 -1.57 0.70 
35.67 -43.99 -1.90 0.02 
15.54 -19.92 -0.85 0.45 
14.97 -19.96 -0.84 0.90 
17.58 -24.39 -1.01 0.64 
28.69 -41.44 -1.69 0.22 
28.64 -43.09 -1.73 0.02 
27.85 -43.66 -1.73 0.02 
27.04 -44.21 -1.74 0.02 
21.02 -35.88 -1.39 0.83 
22.80 -40.66 -1.56 0.40 
24.53 -45.77 -1.74 0.02 
23.68 -46.25 -1.74 0.02 
22.81 -46.71 -1.74 0.02 
24.12 -51.86 -1.92 0.02 
23.14 -52.33 -1.92 0.02 
22.16 -52.78 -1.92 0.02 
21.16 -53.21 -1.92 0.02 
20.15 -53.61 -1.92 0.02 
19.14 -54.00 -1.92 0.02 
18.12 -54.36 -1.92 0.02 
11.72 -37.50 -1.32 0.65 
16.05 -55.02 -1.92 0.02 
15.01 -55.31 -1.92 0.02 
13.96 -55.58 -1.92 0.02 
11.91 -51.52 -1.77 0.05 
11.84 -56.06 -1.92 0.02 
2.56 -13.39 -0.46 0.95 
2.03 -11.79 -0.40 0.94 
2.05 -13.46 -0.46 0.95 
7.56 -56.74 -1.92 0.02 
6.48 -56.85 -1.92 0.02 
5.40 -56.94 -1.91 0.02 
4.32 -57.00 -1.91 0.02 
3.24 -57.04 -1.91 0.02 
2.16 -57.06 -1.91 0.02 
1.08 -57.05 -1.91 0.02 
-0.00 -57.02 -1.91 0.02 
-1.08 -56.97 -1.91 0.02 
-2.05 -54.13 -1.81 0.79 
-3.23 -56.80 -1.90 0.02 
-4.30 -56.68 -1.90 0.02 
-5.37 -56.54 -1.90 0.02 
-6.43 -56.37 -1.90 0.02 
-7.49 -56.18 -1.90 0.02 
-8.54 -55.97 -1.90 0.02 
-8.72 -50.68 -1.72 0.02 
-9.66 -50.45 -1.72 0.02 
-10.60 -50.20 -1.72 0.02 
-11.54 -49.93 -1.72 0.02 
-12.46 -49.64 -1.71 0.02 
-13.38 -49.33 -1.71 0.02 
-14.30 -49.00 -1.71 0.02 
-15.20 -48.65 -1.71 0.02 
-16.09 -48.29 -1.70 0.02 
-16.98 -47.90 -1.70 0.02 
-17.86 -47.50 -1.70 0.02 
-18.72 -47.08 -1.70 0.02 
-19.58 -46.64 -1.69 0.02 
-20.43 -46.19 -1.69 0.02 
-21.26 -45.72 -1.69 0.02 
-22.08 -45.23 -1.69 0.02 
-22.90 -44.73 -1.68 0.02 
-23.70 -44.21 -1.68 0.02 
-24.49 -43.67 -1.68 0.02 
-25.26 -43.12 -1.67 0.03 
-26.02 -42.56 -1.67 0.03 
-26.77 -41.98 -1.67 0.03 
-27.51 -41.39 -1.66 0.03 
-28.24 -40.78 -1.66 0.03 
-28.94 -40.16 -1.66 0.03 
-29.64 -39.52 -1.65 0.03 
-30.32 -38.88 -1.65 0.03 
-10.78 -13.30 -0.57 0.47 
-34.80 -41.29 -1.81 0.03 
-35.50 -40.54 -1.80 0.03 
-36.18 -39.78 -1.80 0.03 
-35.32 -37.38 -1.72 0.63 
-36.91 -37.61 -1.76 0.64 
-38.13 -37.42 -1.79 0.03 
-38.75 -36.61 -1.78 0.03 
-37.49 -34.10 -1.70 0.67 
-39.93 -34.96 -1.78 0.03 
-40.49 -34.12 -1.77 0.03 
-41.04 -33.27 -1.77 0.03 
-41.56 -32.42 -1.76 0.03 
-42.07 -31.55 -1.76 0.03 
-42.57 -30.68 -1.76 0.03 
-28.88 -20.00 -1.18 0.58 
-31.30 -20.81 -1.26 0.85 
-43.93 -28.02 -1.74 0.03 
-44.35 -27.12 -1.74 0.03 
-27.02 -15.83 -1.05 0.82 
-45.13 -25.30 -1.73 0.03 
-45.50 -24.39 -1.73 0.03 
-45.84 -23.47 -1.72 0.03 
-44.42 -21.69 -1.66 0.69 
-44.45 -20.67 -1.64 0.78 
-44.58 -19.71 -1.63 0.78 
-27.86 -11.70 -1.01 0.86 
-44.83 -17.83 -1.62 0.79 
-37.81 -14.22 -1.35 0.75 
-37.75 -13.38 -1.34 0.75 
-13.76 -4.59 -0.49 0.46 
-14.25 -4.45 -0.50 0.73 
-37.62 -10.97 -1.31 0.56 
-48.42 -13.14 -1.68 0.03 
-48.55 -12.19 -1.68 0.03 
-48.66 -11.24 -1.67 0.03 
-48.75 -10.30 -1.67 0.03 
-48.82 -9.35 -1.66 0.03 
-48.88 -8.41 -1.66 0.03 
-11.25 -1.72 -0.38 0.06 
-10.82 -1.44 -0.37 0.30 
-10.72 -1.22 -0.36 0.27 
-10.69 -1.01 -0.36 0.28 
-10.69 -0.81 -0.36 0.31 
-10.71 -0.61 -0.36 0.31 
-10.75 -0.41 -0.36 0.28 
-10.81 -0.20 -0.36 0.25 
-10.92 -0.00 -0.38 0.28 
-27.04 0.51 -0.94 0.81 
-27.10 1.03 -0.94 0.80 
-27.19 1.55 -0.94 0.83 
-46.44 3.52 -1.62 0.03 
-16.74 1.59 -0.58 0.27 
-16.24 1.85 -0.57 0.75 
-16.26 2.17 -0.57 0.64 
-16.37 2.50 -0.57 0.32 
-41.32 7.11 -1.45 0.03 
-21.47 4.11 -0.76 0.20 
-20.25 4.28 -0.72 0.29 
-19.13 4.42 -0.68 0.34 
-18.26 4.58 -0.65 0.45 
-17.80 4.83 -0.64 0.74 
-17.66 5.15 -0.64 0.92 
-17.66 5.52 -0.64 0.86 
-17.76 5.92 -0.65 0.65 
-38.94 13.80 -1.43 0.03 
-26.09 9.81 -0.97 0.83 
-25.64 10.19 -0.96 0.67 
-25.34 10.64 -0.95 0.84 
-24.97 11.04 -0.95 0.85 
-24.61 11.45 -0.94 0.86 
-37.36 18.24 -1.44 0.03 
-10.63 5.44 -0.41 0.79 
-10.40 5.57 -0.41 0.45 
-10.04 5.63 -0.40 0.57 
-9.71 5.69 -0.39 0.48 
-9.38 5.74 -0.38 0.51 
-9.07 5.78 -0.37 0.52 
-8.77 5.83 -0.37 0.60 
-8.52 5.90 -0.36 0.62 
-8.35 6.02 -0.36 0.27 
-8.31 6.24 -0.36 0.27 
-8.26 6.45 -0.36 0.14 
-8.22 6.67 -0.37 0.10 
-8.29 6.98 -0.38 0.07 
-31.72 27.78 -1.46 0.03 
-31.22 28.40 -1.46 0.03 
-30.70 29.01 -1.47 0.03 
-21.76 21.35 -1.06 0.82 
-15.22 15.51 -0.75 0.39 
-14.85 15.72 -0.75 0.43 
-14.69 16.15 -0.76 0.32 
-27.95 31.92 -1.47 0.03 
-27.36 32.47 -1.47 0.03 
-26.76 33.01 -1.47 0.03 
-26.16 33.54 -1.48 0.03 
-25.54 34.05 -1.48 0.03 
-24.91 34.56 -1.48 0.03 
-24.27 35.05 -1.48 0.03 
-23.62 35.53 -1.48 0.03 
-22.96 35.99 -1.48 0.03 
-22.29 36.45 -1.48 0.03 
-20.47 34.95 -1.40 0.60 
-20.92 37.32 -1.48 0.03 
-7.06 13.17 -0.52 0.55 
-6.69 13.06 -0.51 0.94 
-6.45 13.22 -0.51 0.93 
-18.09 38.89 -1.49 0.03 
-17.36 39.25 -1.49 0.03 
-16.62 39.60 -1.49 0.03 
-15.88 39.93 -1.49 0.03 
-15.13 40.24 -1.49 0.03 
-14.37 40.54 -1.49 0.03 
-6.44 19.33 -0.71 0.81 
-12.84 41.10 -1.49 0.03 
-12.07 41.35 -1.49 0.03 
-11.29 41.59 -1.49 0.03 
-10.50 41.82 -1.50 0.03 
-9.71 42.03 -1.50 0.03 
-8.92 42.22 -1.50 0.03 
-8.12 42.40 -1.50 0.03 
-7.32 42.56 -1.50 0.03 
-6.52 42.71 -1.50 0.03 
-5.71 42.83 -1.50 0.03 
-4.90 42.95 -1.50 0.03 
-4.09 43.05 -1.50 0.03 
-3.27 43.13 -1.50 0.03 
-1.15 20.30 -0.71 0.92 
-1.64 43.24 -1.50 0.03 
-0.82 43.28 -1.50 0.03 
0.00 43.29 -1.50 0.03 
0.82 43.29 -1.50 0.03 
1.64 43.28 -1.50 0.03 
2.46 43.24 -1.50 0.03 
3.28 43.20 -1.50 0.03 
4.09 43.14 -1.50 0.03 
1.71 15.02 -0.52 0.92 
3.02 22.65 -0.79 0.82 
3.45 22.61 -0.79 0.79 
7.35 42.72 -1.50 0.03 
8.16 42.61 -1.50 0.03 
8.98 42.51 -1.51 0.03 
9.79 42.37 -1.51 0.03 
10.59 42.19 -1.51 0.03 
11.39 41.99 -1.51 0.03 
12.19 41.78 -1.51 0.03 
12.98 41.55 -1.51 0.03 
13.77 41.31 -1.51 0.03 
14.55 41.05 -1.51 0.03 
15.34 40.79 -1.51 0.03 
16.11 40.51 -1.51 0.03 
16.88 40.21 -1.51 0.03 
17.64 39.89 -1.51 0.03 
18.40 39.56 -1.51 0.03 
19.15 39.22 -1.51 0.03 
10.27 20.07 -0.78 0.75 
20.65 38.52 -1.52 0.03 
21.38 38.14 -1.52 0.03 
22.11 37.74 -1.52 0.03 
22.82 37.32 -1.52 0.03 
23.53 36.90 -1.52 0.03 
24.23 36.46 -1.52 0.03 
7.87 11.37 -0.48 0.84 
25.65 35.58 -1.52 0.03 
26.33 35.10 -1.52 0.03 
26.99 34.61 -1.52 0.03 
9.04 11.15 -0.50 0.55 
13.79 16.36 -0.74 0.03 
28.95 33.06 -1.52 0.03 
29.60 32.54 -1.53 0.03 
30.23 31.99 -1.53 0.03 
30.84 31.43 -1.53 0.03 
12.58 12.35 -0.61 0.45 
12.58 11.89 -0.60 0.93 
12.89 11.72 -0.60 0.45 
33.20 29.07 -1.53 0.03 
17.66 14.88 -0.80 0.21 
17.64 14.30 -0.79 0.43 
17.97 14.02 -0.79 0.36 
35.42 26.56 -1.54 0.03 
35.93 25.90 -1.54 0.03 
36.43 25.23 -1.54 0.03 
36.96 24.57 -1.54 0.03 
37.44 23.88 -1.54 0.03 
37.91 23.18 -1.54 0.03 
38.36 22.47 -1.54 0.03 
23.00 12.89 -0.91 0.45 
23.03 12.35 -0.91 0.83 
23.63 12.10 -0.92 0.34 
40.09 19.57 -1.55 0.03 
40.47 18.82 -1.55 0.03 
40.84 18.06 -1.55 0.03 
41.22 17.30 -1.55 0.03 
32.97 13.11 -1.23 0.62 
27.87 10.48 -1.03 0.59 
27.96 9.91 -1.03 0.66 
42.55 14.18 -1.56 0.03 
42.83 13.38 -1.56 0.03 
43.10 12.57 -1.56 0.03 
26.00 7.05 -0.93 0.87 
26.68 6.70 -0.95 0.22 
43.89 10.14 -1.56 0.03 
33.37 7.05 -1.18 0.71 
44.34 8.49 -1.57 0.03 
44.54 7.66 -1.57 0.03 
27.90 4.26 -0.98 0.59 
44.90 5.98 -1.57 0.03 
37.56 4.28 -1.31 0.57 
32.44 3.08 -1.13 0.77 
45.34 3.44 -1.58 0.03 
45.48 2.58 -1.58 0.03 
45.58 1.73 -1.58 0.03 
45.68 0.86 -1.58 0.03 
45.75 -0.00 -1.59 0.03 
42.34 -0.80 -1.47 0.80 
45.84 -1.74 -1.59 0.03 
45.85 -2.61 -1.59 0.03 
45.85 -3.48 -1.59 0.03 
45.82 -4.35 -1.60 0.03 
41.51 -4.73 -1.45 0.23 
41.27 -5.50 -1.44 0.58 
45.79 -6.99 -1.61 0.03 
45.75 -7.87 -1.61 0.03 
45.69 -8.75 -1.61 0.03 
45.62 -9.64 -1.62 0.03 
45.52 -10.52 -1.62 0.03 
45.41 -11.40 -1.62 0.03 
45.28 -12.29 -1.63 0.03 
44.56 -13.00 -1.61 0.60 
44.97 -14.05 -1.63 0.03 
44.98 -14.99 -1.64 0.43 
45.52 -16.14 -1.67 0.59 
46.03 -17.30 -1.71 0.60 
35.71 -14.20 -1.33 0.52 
34.95 -14.67 -1.31 0.75 
34.96 -15.46 -1.33 0.50 
35.49 -16.50 -1.36 0.52 
36.08 -17.62 -1.39 0.45 
46.93 -24.03 -1.83 0.03 
46.55 -24.95 -1.83 0.03 
46.15 -25.88 -1.84 0.03 
45.74 -26.79 -1.84 0.03 
45.30 -27.70 -1.84 0.03 
44.84 -28.60 -1.84 0.03 
44.37 -29.49 -1.85 0.03 
43.87 -30.38 -1.85 0.03 
43.36 -31.25 -1.85 0.03 
42.83 -32.12 -1.86 0.03 
42.27 -32.97 -1.86 0.03 
26.00 -21.08 -1.16 0.27 
41.12 -34.65 -1.86 0.03 
40.51 -35.47 -1.87 0.03 
39.89 -36.28 -1.87 0.03 
39.25 -37.08 -1.87 0.03 
38.59 -37.86 -1.87 0.03 
37.91 -38.64 -1.88 0.02 
37.22 -39.39 -1.88 0.02 
36.51 -40.14 -1.88 0.02 
35.78 -40.87 -1.88 0.02 
30.16 -35.79 -1.62 0.70 
31.18 -38.45 -1.72 0.03 
15.54 -19.92 -0.88 0.45 
14.97 -19.96 -0.87 0.90 
17.58 -24.39 -1.04 0.61 
28.28 -40.85 -1.72 0.03 
27.53 -41.41 -1.72 0.03 
26.76 -41.96 -1.73 0.03 
25.98 -42.49 -1.73 0.03 
21.02 -35.88 -1.44 0.83 
24.39 -43.50 -1.73 0.03 
23.57 -43.98 -1.73 0.03 
22.75 -44.44 -1.73 0.03 
21.92 -44.89 -1.73 0.03 
21.07 -45.31 -1.73 0.03 
20.22 -45.72 -1.73 0.02 
19.36 -46.11 -1.73 0.02 
18.49 -46.49 -1.74 0.02 
17.61 -46.84 -1.74 0.02 
16.72 -47.18 -1.74 0.02 
15.83 -47.49 -1.74 0.02 
11.72 -37.53 -1.36 0.49 
15.42 -52.86 -1.91 0.02 
14.42 -53.14 -1.91 0.02 
13.41 -53.40 -1.91 0.02 
12.40 -53.64 -1.91 0.02 
11.38 -53.86 -1.91 0.02 
2.56 -13.39 -0.47 0.95 
2.03 -11.79 -0.41 0.94 
2.05 -13.46 -0.47 0.95 
7.26 -54.51 -1.91 0.02 
6.23 -54.62 -1.91 0.02 
5.19 -54.71 -1.91 0.02 
4.15 -54.77 -1.90 0.02 
3.12 -54.81 -1.90 0.02 
2.08 -54.83 -1.90 0.02 
1.04 -54.83 -1.90 0.02 
-0.00 -54.80 -1.90 0.02 
-0.94 -49.79 -1.73 0.03 
-1.88 -49.72 -1.73 0.03 
-2.82 -49.64 -1.72 0.03 
-3.76 -49.53 -1.72 0.03 
-4.69 -49.41 -1.72 0.03 
-5.62 -49.27 -1.72 0.03 
-6.54 -49.10 -1.72 0.03 
-7.46 -48.92 -1.72 0.03 
-8.38 -48.72 -1.71 0.03 
-9.29 -48.50 -1.71 0.03 
-10.19 -48.26 -1.71 0.03 
-11.09 -48.00 -1.71 0.03 
-11.98 -47.72 -1.71 0.03 
-12.87 -47.43 -1.70 0.03 
-13.75 -47.12 -1.70 0.03 
-14.62 -46.78 -1.70 0.03 
-15.48 -46.43 -1.70 0.03 
-16.33 -46.07 -1.70 0.03 
-17.17 -45.68 -1.69 0.03 
-18.01 -45.28 -1.69 0.03 
-18.83 -44.87 -1.69 0.03 
-19.65 -44.43 -1.68 0.03 
-20.45 -43.98 -1.68 0.03 
-21.25 -43.52 -1.68 0.03 
-22.03 -43.03 -1.68 0.03 
-22.80 -42.54 -1.67 0.03 
-23.56 -42.03 -1.67 0.03 
-24.31 -41.50 -1.67 0.03 
-25.05 -40.96 -1.66 0.03 
-25.77 -40.40 -1.66 0.03 
-26.48 -39.84 -1.66 0.03 
-27.18 -39.25 -1.66 0.03 
-27.86 -38.66 -1.65 0.03 
-28.54 -38.05 -1.65 0.03 
-29.19 -37.43 -1.65 0.03 
-10.78 -13.30 -0.59 0.50 
-30.47 -36.16 -1.64 0.03 
-31.08 -35.50 -1.64 0.03 
-31.69 -34.84 -1.63 0.03 
-35.32 -37.38 -1.78 0.63 
-36.12 -36.81 -1.79 0.03 
-36.73 -36.05 -1.78 0.03 
-37.33 -35.27 -1.78 0.03 
-37.91 -34.48 -1.78 0.03 
-38.47 -33.69 -1.77 0.03 
-39.02 -32.88 -1.77 0.03 
-39.55 -32.07 -1.77 0.03 
-40.06 -31.24 -1.76 0.03 
-40.55 -30.41 -1.76 0.03 
-41.03 -29.58 -1.75 0.03 
-28.88 -20.00 -1.22 0.58 
-31.31 -20.81 -1.30 0.77 
-42.36 -27.02 -1.74 0.03 
-42.77 -26.15 -1.74 0.03 
-27.01 -15.82 -1.09 0.82 
-43.53 -24.40 -1.73 0.03 
-43.88 -23.52 -1.73 0.03 
-44.22 -22.64 -1.72 0.03 
-44.41 -21.68 -1.71 0.69 
-44.44 -20.67 -1.70 0.78 
-44.57 -19.71 -1.69 0.78 
-27.86 -11.69 -1.05 0.86 
-44.82 -17.83 -1.67 0.79 
-37.81 -14.22 -1.40 0.75 
-37.75 -13.38 -1.39 0.75 
-13.73 -4.58 -0.50 0.46 
-13.63 -4.26 -0.50 0.19 
-37.63 -10.98 -1.36 0.56 
-46.75 -12.69 -1.68 0.03 
-46.88 -11.77 -1.68 0.03 
-46.99 -10.86 -1.67 0.03 
-47.08 -9.94 -1.67 0.03 
-47.15 -9.03 -1.66 0.03 
-47.21 -8.12 -1.66 0.03 
-11.10 -1.69 -0.39 0.05 
-10.78 -1.44 -0.38 0.30 
-10.68 -1.22 -0.37 0.27 
-10.65 -1.01 -0.37 0.28 
-10.65 -0.81 -0.37 0.31 
-10.67 -0.61 -0.37 0.31 
-10.70 -0.41 -0.37 0.28 
-10.77 -0.20 -0.37 0.25 
-10.88 -0.00 -0.39 0.28 
-27.03 0.51 -0.97 0.81 
-27.09 1.03 -0.97 0.80 
-27.18 1.54 -0.98 0.80 
-44.95 3.41 -1.62 0.03 
-16.71 1.59 -0.60 0.27 
-16.22 1.85 -0.59 0.75 
-16.24 2.16 -0.59 0.64 
-16.33 2.49 -0.59 0.33 
-40.28 6.93 -1.47 0.25 
-21.42 4.10 -0.78 0.26 
-20.24 4.28 -0.74 0.30 
-19.13 4.42 -0.70 0.34 
-18.24 4.58 -0.67 0.57 
-17.80 4.83 -0.66 0.74 
-17.66 5.15 -0.66 0.92 
-17.66 5.52 -0.66 0.86 
-17.75 5.92 -0.67 0.65 
-37.65 13.35 -1.43 0.03 
-26.09 9.81 -1.00 0.83 
-25.63 10.19 -0.99 0.84 
-25.34 10.64 -0.99 0.84 
-24.97 11.04 -0.98 0.85 
-24.61 11.45 -0.97 0.86 
-10.76 5.25 -0.43 0.52 
-10.63 5.44 -0.43 0.79 
-10.38 5.57 -0.42 0.45 
-10.03 5.62 -0.41 0.57 
-9.70 5.68 -0.40 0.48 
-9.37 5.73 -0.39 0.51 
-9.06 5.78 -0.39 0.52 
-8.76 5.83 -0.38 0.60 
-8.51 5.89 -0.37 0.62 
-8.31 5.99 -0.37 0.27 
-8.28 6.21 -0.37 0.18 
-8.20 6.39 -0.37 0.18 
-8.15 6.61 -0.38 0.14 
-8.15 6.87 -0.38 0.10 
-30.63 26.82 -1.46 0.03 
-30.15 27.42 -1.46 0.03 
-29.65 28.01 -1.46 0.03 
-21.76 21.35 -1.09 0.82 
-15.24 15.53 -0.78 0.78 
-14.87 15.74 -0.78 0.83 
-14.72 16.18 -0.78 0.65 
-26.98 30.82 -1.47 0.03 
-26.42 31.35 -1.47 0.03 
-25.84 31.87 -1.47 0.03 
-25.25 32.38 -1.47 0.03 
-24.65 32.87 -1.47 0.03 
-24.04 33.36 -1.48 0.03 
-23.43 33.83 -1.48 0.03 
-22.80 34.29 -1.48 0.03 
-22.16 34.74 -1.48 0.03 
-10.24 16.75 -0.70 0.04 
-10.10 17.24 -0.72 0.89 
-9.78 17.45 -0.72 0.88 
-7.06 13.17 -0.54 0.55 
-6.69 13.06 -0.53 0.94 
-6.45 13.22 -0.53 0.93 
-17.46 37.54 -1.49 0.03 
-16.75 37.88 -1.49 0.03 
-16.04 38.21 -1.49 0.03 
-15.32 38.53 -1.49 0.03 
-14.60 38.84 -1.49 0.03 
-13.87 39.12 -1.49 0.03 
-6.45 19.34 -0.73 0.74 
-12.39 39.66 -1.49 0.03 
-11.64 39.91 -1.49 0.03 
-10.89 40.14 -1.49 0.03 
-10.13 40.35 -1.49 0.03 
-9.37 40.55 -1.49 0.03 
-8.61 40.74 -1.49 0.03 
-7.84 40.91 -1.49 0.03 
-7.06 41.07 -1.50 0.03 
-6.29 41.21 -1.50 0.03 
-5.51 41.33 -1.50 0.03 
-4.73 41.44 -1.50 0.03 
-3.94 41.54 -1.50 0.03 
-3.16 41.61 -1.50 0.03 
-1.15 20.30 -0.73 0.92 
-1.58 41.73 -1.50 0.03 
-0.79 41.76 -1.50 0.03 
0.00 41.78 -1.50 0.03 
0.79 41.78 -1.50 0.03 
1.58 41.76 -1.50 0.03 
2.37 41.73 -1.50 0.03 
3.16 41.70 -1.50 0.03 
3.95 41.64 -1.50 0.03 
1.71 15.02 -0.54 0.91 
3.02 22.66 -0.82 0.82 
3.45 22.62 -0.82 0.79 
7.09 41.23 -1.50 0.03 
7.87 41.11 -1.50 0.03 
8.66 41.00 -1.50 0.03 
9.45 40.88 -1.51 0.03 
10.24 40.77 -1.51 0.03 
11.01 40.58 -1.51 0.03 
11.78 40.38 -1.51 0.03 
12.55 40.16 -1.51 0.03 
13.31 39.92 -1.51 0.03 
14.06 39.67 -1.51 0.03 
14.82 39.41 -1.51 0.03 
15.57 39.15 -1.51 0.03 
16.31 38.86 -1.51 0.03 
17.05 38.55 -1.51 0.03 
17.78 38.23 -1.51 0.03 
18.50 37.90 -1.51 0.03 
10.27 20.07 -0.81 0.75 
19.94 37.19 -1.51 0.03 
20.66 36.85 -1.52 0.03 
21.37 36.47 -1.52 0.03 
22.06 36.07 -1.52 0.03 
22.74 35.66 -1.52 0.03 
23.42 35.23 -1.52 0.03 
7.87 11.37 -0.50 0.84 
24.75 34.34 -1.52 0.03 
25.42 33.90 -1.52 0.03 
26.09 33.45 -1.52 0.03 
9.04 11.15 -0.51 0.55 
13.76 16.32 -0.77 0.87 
13.89 15.87 -0.76 0.64 
28.59 31.43 -1.52 0.03 
29.19 30.89 -1.52 0.03 
29.79 30.36 -1.53 0.03 
12.58 12.35 -0.63 0.45 
12.58 11.89 -0.62 0.93 
12.89 11.72 -0.62 0.45 
32.07 28.08 -1.53 0.03 
17.71 14.92 -0.83 0.42 
17.67 14.33 -0.82 0.84 
18.01 14.05 -0.82 0.71 
34.23 25.67 -1.54 0.03 
34.73 25.03 -1.54 0.03 
35.21 24.38 -1.54 0.03 
35.68 23.72 -1.54 0.03 
36.14 23.05 -1.54 0.03 
36.59 22.37 -1.54 0.03 
37.06 21.71 -1.54 0.03 
23.02 12.90 -0.95 0.45 
23.04 12.35 -0.94 0.83 
23.66 12.11 -0.95 0.34 
38.68 18.89 -1.54 0.03 
39.07 18.17 -1.55 0.03 
39.46 17.45 -1.55 0.03 
39.81 16.71 -1.55 0.03 
32.96 13.11 -1.27 0.61 
27.90 10.49 -1.07 0.59 
27.99 9.92 -1.07 0.65 
41.10 13.70 -1.55 0.03 
41.38 12.93 -1.56 0.03 
41.64 12.15 -1.56 0.03 
26.00 7.05 -0.97 0.87 
26.68 6.70 -0.99 0.22 
42.34 9.78 -1.56 0.03 
33.40 7.06 -1.22 0.47 
42.79 8.20 -1.56 0.03 
42.97 7.39 -1.56 0.03 
27.90 4.26 -1.01 0.59 
43.30 5.77 -1.57 0.03 
37.56 4.28 -1.36 0.57 
32.45 3.08 -1.17 0.80 
38.79 2.94 -1.40 0.50 
43.81 2.49 -1.57 0.03 
43.91 1.66 -1.58 0.03 
44.00 0.83 -1.58 0.03 
44.06 -0.00 -1.58 0.03 
42.34 -0.80 -1.52 0.65 
44.14 -1.67 -1.58 0.03 
44.15 -2.51 -1.59 0.03 
44.19 -3.35 -1.59 0.03 
44.22 -4.20 -1.59 0.03 
41.51 -4.73 -1.50 0.23 
41.26 -5.50 -1.49 0.58 
44.19 -6.74 -1.60 0.03 
44.15 -7.59 -1.61 0.03 
44.09 -8.44 -1.61 0.03 
44.01 -9.30 -1.61 0.03 
43.92 -10.15 -1.62 0.03 
43.80 -11.00 -1.62 0.03 
43.68 -11.85 -1.62 0.03 
43.81 -12.78 -1.64 0.57 
44.40 -13.87 -1.67 0.57 
44.97 -14.99 -1.70 0.58 
45.51 -16.13 -1.73 0.58 
46.01 -17.30 -1.76 0.60 
35.72 -14.20 -1.38 0.52 
34.96 -14.67 -1.36 0.75 
34.96 -15.46 -1.37 0.49 
35.48 -16.50 -1.40 0.52 
36.09 -17.62 -1.44 0.45 
45.23 -23.16 -1.82 0.03 
44.87 -24.05 -1.83 0.03 
44.48 -24.94 -1.83 0.03 
44.07 -25.82 -1.83 0.03 
43.65 -26.69 -1.84 0.03 
43.21 -27.56 -1.84 0.03 
42.75 -28.42 -1.84 0.03 
42.27 -29.26 -1.84 0.03 
41.77 -30.11 -1.85 0.03 
41.25 -30.94 -1.85 0.03 
40.72 -31.76 -1.85 0.03 
26.00 -21.08 -1.20 0.27 
39.60 -33.37 -1.86 0.03 
39.01 -34.16 -1.86 0.03 
38.41 -34.94 -1.86 0.03 
37.79 -35.71 -1.87 0.03 
37.16 -36.46 -1.87 0.03 
36.50 -37.20 -1.87 0.03 
35.84 -37.93 -1.87 0.03 
35.15 -38.65 -1.87 0.03 
34.45 -39.35 -1.88 0.03 
30.16 -35.79 -1.68 0.70 
30.01 -37.01 -1.71 0.03 
15.53 -19.92 -0.91 0.45 
14.97 -19.96 -0.90 0.90 
17.59 -24.41 -1.08 0.47 
27.23 -39.32 -1.72 0.03 
26.50 -39.86 -1.72 0.03 
25.76 -40.38 -1.72 0.03 
25.01 -40.89 -1.72 0.03 
21.02 -35.88 -1.49 0.83 
23.47 -41.86 -1.72 0.03 
22.69 -42.33 -1.72 0.03 
21.89 -42.77 -1.72 0.03 
21.09 -43.20 -1.72 0.03 
20.28 -43.61 -1.73 0.03 
19.46 -44.00 -1.73 0.03 
18.63 -44.38 -1.73 0.03 
17.79 -44.73 -1.73 0.03 
16.94 -45.07 -1.73 0.03 
16.09 -45.40 -1.73 0.03 
15.23 -45.70 -1.73 0.03 
11.74 -37.57 -1.41 0.47 
13.49 -46.25 -1.73 0.03 
12.62 -46.50 -1.73 0.03 
11.73 -46.73 -1.73 0.03 
10.85 -46.94 -1.73 0.03 
9.96 -47.13 -1.73 0.03 
2.56 -13.39 -0.49 0.95 
2.00 -11.62 -0.42 0.32 
2.05 -13.46 -0.49 0.95 
6.36 -47.70 -1.73 0.03 
5.45 -47.80 -1.73 0.03 
4.54 -47.87 -1.73 0.03 
3.64 -47.93 -1.72 0.03 
2.73 -47.96 -1.72 0.03 
1.82 -47.98 -1.72 0.03 
0.91 -47.98 -1.72 0.03 
-0.00 -47.96 -1.72 0.03 
-0.91 -47.92 -1.72 0.03 
-1.81 -47.86 -1.72 0.03 
-2.72 -47.78 -1.72 0.03 
-3.62 -47.68 -1.72 0.03 
-4.51 -47.56 -1.71 0.03 
-5.41 -47.43 -1.71 0.03 
-6.30 -47.27 -1.71 0.03 
-7.19 -47.10 -1.71 0.03 
-8.07 -46.90 -1.71 0.03 
-8.94 -46.69 -1.71 0.03 
-9.82 -46.46 -1.70 0.03 
-10.68 -46.22 -1.70 0.03 
-11.54 -45.95 -1.70 0.03 
-12.39 -45.67 -1.70 0.03 
-13.24 -45.37 -1.70 0.03 
-14.08 -45.05 -1.69 0.03 
-14.91 -44.72 -1.69 0.03 
-15.73 -44.37 -1.69 0.03 
-16.54 -44.00 -1.69 0.03 
-17.35 -43.62 -1.68 0.03 
-18.14 -43.22 -1.68 0.03 
-18.93 -42.80 -1.68 0.03 
-19.70 -42.37 -1.68 0.03 
-20.47 -41.93 -1.67 0.03 
-21.23 -41.46 -1.67 0.03 
-21.97 -40.99 -1.67 0.03 
-22.70 -40.50 -1.67 0.03 
-23.43 -39.99 -1.66 0.03 
-24.14 -39.47 -1.66 0.03 
-24.84 -38.94 -1.66 0.03 
-25.52 -38.40 -1.65 0.03 
-26.20 -37.84 -1.65 0.03 
-26.86 -37.27 -1.65 0.03 
-27.51 -36.68 -1.65 0.03 
-28.15 -36.09 -1.64 0.03 
-10.78 -13.30 -0.61 0.53 
-29.38 -34.86 -1.64 0.03 
-29.98 -34.24 -1.63 0.03 
-30.56 -33.60 -1.63 0.03 
-31.13 -32.95 -1.63 0.03 
-31.68 -32.29 -1.62 0.03 
-32.22 -31.62 -1.62 0.03 
-36.01 -34.02 -1.78 0.03 
-36.58 -33.27 -1.77 0.03 
-37.12 -32.50 -1.77 0.03 
-37.65 -31.73 -1.77 0.03 
-38.16 -30.94 -1.76 0.03 
-38.66 -30.15 -1.76 0.03 
-39.14 -29.35 -1.76 0.03 
-39.61 -28.55 -1.75 0.03 
-28.88 -20.00 -1.26 0.70 
-31.32 -20.82 -1.35 0.58 
-40.90 -26.08 -1.74 0.03 
-41.29 -25.25 -1.74 0.03 
-27.18 -15.92 -1.13 0.05 
-42.03 -23.57 -1.73 0.03 
-42.38 -22.72 -1.73 0.03 
-42.71 -21.86 -1.72 0.03 
-43.02 -21.00 -1.72 0.03 
-43.31 -20.14 -1.71 0.03 
-43.59 -19.28 -1.71 0.03 
-27.86 -11.69 -1.08 0.86 
-44.09 -17.53 -1.70 0.03 
-37.81 -14.22 -1.45 0.75 
-37.75 -13.38 -1.44 0.75 
-13.70 -4.57 -0.52 0.46 
-13.60 -4.25 -0.51 0.93 
-38.83 -11.33 -1.45 0.78 
-45.19 -12.26 -1.68 0.03 
-45.32 -11.38 -1.68 0.03 
-45.43 -10.50 -1.67 0.03 
-45.52 -9.62 -1.67 0.03 
-45.59 -8.73 -1.67 0.03 
-45.65 -7.85 -1.66 0.03 
-10.97 -1.67 -0.40 0.05 
-10.74 -1.43 -0.39 0.30 
-10.64 -1.21 -0.38 0.27 
-10.60 -1.01 -0.38 0.28 
-10.61 -0.80 -0.38 0.31 
-10.63 -0.60 -0.38 0.31 
-10.66 -0.40 -0.38 0.28 
-10.72 -0.20 -0.38 0.25 
-10.84 -0.00 -0.40 0.28 
-11.02 0.21 -0.41 0.10 
-27.08 1.03 -1.00 0.87 
-27.17 1.54 -1.01 0.87 
-17.36 1.32 -0.65 0.30 
-16.68 1.58 -0.62 0.27 
-16.21 1.85 -0.60 0.76 
-16.22 2.16 -0.61 0.65 
-16.30 2.49 -0.61 0.33 
-40.25 6.92 -1.51 0.25 
-21.39 4.10 -0.81 0.26 
-20.23 4.27 -0.77 0.30 
-19.12 4.42 -0.73 0.29 
-18.23 4.58 -0.70 0.57 
-17.79 4.83 -0.68 0.79 
-17.66 5.15 -0.68 0.92 
-17.66 5.52 -0.69 0.86 
-17.75 5.92 -0.69 0.65 
-36.51 12.94 -1.44 0.03 
-26.09 9.81 -1.03 0.83 
-25.63 10.19 -1.02 0.84 
-25.34 10.64 -1.02 0.84 
-24.97 11.04 -1.01 0.85 
-24.61 11.45 -1.01 0.86 
-10.76 5.25 -0.44 0.52 
-10.63 5.44 -0.44 0.79 
-10.37 5.56 -0.44 0.45 
-10.02 5.62 -0.43 0.57 
-9.69 5.68 -0.42 0.48 
-9.36 5.72 -0.41 0.51 
-9.05 5.77 -0.40 0.53 
-8.75 5.82 -0.39 0.60 
-8.50 5.88 -0.38 0.62 
-8.29 5.98 -0.38 0.63 
-8.23 6.17 -0.38 0.18 
-8.15 6.35 -0.38 0.18 
-8.08 6.55 -0.39 0.14 
-8.07 6.80 -0.39 0.10 
-8.20 7.18 -0.40 0.09 
-29.15 26.51 -1.46 0.03 
-28.66 27.08 -1.46 0.03 
-21.76 21.35 -1.13 0.82 
-15.25 15.54 -0.81 0.51 
-14.88 15.75 -0.80 0.83 
-14.72 16.19 -0.81 0.65 
-26.08 29.79 -1.47 0.03 
-25.53 30.30 -1.47 0.03 
-24.97 30.80 -1.47 0.03 
-24.41 31.29 -1.47 0.03 
-23.83 31.77 -1.47 0.03 
-23.24 32.24 -1.47 0.03 
-22.64 32.70 -1.47 0.03 
-22.03 33.14 -1.48 0.03 
-21.42 33.58 -1.48 0.03 
-9.97 16.31 -0.71 0.63 
-10.10 17.24 -0.74 0.89 
-9.78 17.45 -0.74 0.88 
-7.06 13.17 -0.55 0.55 
-6.69 13.06 -0.54 0.94 
-6.45 13.22 -0.55 0.93 
-16.87 36.27 -1.48 0.03 
-16.19 36.60 -1.48 0.03 
-15.50 36.92 -1.48 0.03 
-14.81 37.23 -1.49 0.03 
-14.11 37.52 -1.49 0.03 
-13.40 37.80 -1.49 0.03 
-6.45 19.35 -0.76 0.64 
-11.97 38.32 -1.49 0.03 
-11.25 38.56 -1.49 0.03 
-10.52 38.78 -1.49 0.03 
-9.79 38.99 -1.49 0.03 
-9.05 39.18 -1.49 0.03 
-8.31 39.36 -1.49 0.03 
-7.57 39.52 -1.49 0.03 
-6.82 39.67 -1.49 0.03 
-6.07 39.81 -1.49 0.03 
-5.32 39.94 -1.49 0.03 
-4.57 40.04 -1.49 0.03 
-3.81 40.13 -1.49 0.03 
-3.05 40.21 -1.49 0.03 
-1.15 20.30 -0.75 0.92 
-1.53 40.32 -1.50 0.03 
-0.76 40.35 -1.50 0.03 
0.00 40.37 -1.50 0.03 
0.76 40.37 -1.50 0.03 
1.53 40.35 -1.50 0.03 
2.29 40.32 -1.50 0.03 
3.06 40.28 -1.50 0.03 
3.82 40.24 -1.50 0.03 
1.71 15.01 -0.56 0.89 
3.02 22.67 -0.85 0.82 
3.45 22.63 -0.85 0.79 
6.85 39.85 -1.50 0.03 
7.61 39.72 -1.50 0.03 
8.37 39.60 -1.50 0.03 
9.12 39.48 -1.50 0.03 
9.88 39.35 -1.50 0.03 
10.64 39.22 -1.51 0.03 
11.40 39.06 -1.51 0.03 
12.14 38.85 -1.51 0.03 
12.87 38.63 -1.51 0.03 
13.61 38.38 -1.51 0.03 
14.33 38.13 -1.51 0.03 
15.06 37.86 -1.51 0.03 
15.77 37.58 -1.51 0.03 
16.49 37.30 -1.51 0.03 
17.20 36.99 -1.51 0.03 
17.90 36.67 -1.51 0.03 
10.28 20.07 -0.84 0.75 
19.29 35.98 -1.51 0.03 
19.97 35.62 -1.51 0.03 
20.65 35.25 -1.51 0.03 
21.34 34.89 -1.52 0.03 
22.01 34.50 -1.52 0.03 
22.66 34.09 -1.52 0.03 
7.87 11.37 -0.51 0.84 
23.95 33.23 -1.52 0.03 
24.58 32.78 -1.52 0.03 
25.21 32.32 -1.52 0.03 
9.04 11.15 -0.53 0.55 
12.98 15.40 -0.75 0.90 
13.39 15.30 -0.75 0.66 
27.66 30.41 -1.52 0.03 
28.24 29.89 -1.52 0.03 
28.81 29.36 -1.53 0.03 
12.58 12.35 -0.65 0.45 
12.58 11.89 -0.64 0.93 
12.89 11.72 -0.65 0.45 
31.03 27.17 -1.53 0.03 
17.72 14.93 -0.86 0.42 
17.68 14.34 -0.84 0.84 
18.02 14.06 -0.85 0.70 
33.04 24.78 -1.53 0.03 
33.54 24.17 -1.53 0.03 
34.03 23.56 -1.53 0.03 
34.52 22.95 -1.54 0.03 
34.97 22.30 -1.54 0.03 
35.40 21.65 -1.54 0.03 
35.82 20.98 -1.54 0.03 
23.04 12.91 -0.98 0.45 
23.05 12.36 -0.97 0.83 
37.03 18.96 -1.54 0.03 
37.42 18.27 -1.54 0.03 
37.78 17.57 -1.54 0.03 
38.12 16.86 -1.55 0.03 
38.45 16.14 -1.55 0.03 
32.95 13.10 -1.31 0.61 
27.93 10.50 -1.11 0.59 
28.01 9.93 -1.10 0.65 
39.70 13.23 -1.55 0.03 
39.96 12.48 -1.55 0.03 
40.22 11.73 -1.55 0.03 
26.00 7.05 -1.00 0.87 
26.68 6.70 -1.02 0.22 
40.95 9.46 -1.56 0.03 
33.47 7.07 -1.27 0.47 
41.31 7.91 -1.56 0.03 
41.48 7.13 -1.56 0.03 
27.89 4.26 -1.05 0.59 
41.82 5.57 -1.56 0.03 
41.96 4.79 -1.57 0.03 
32.47 3.08 -1.21 0.79 
38.77 2.94 -1.44 0.59 
42.28 2.40 -1.57 0.03 
42.37 1.60 -1.57 0.03 
42.44 0.80 -1.57 0.03 
42.50 -0.00 -1.58 0.03 
42.42 -0.80 -1.57 0.30 
42.62 -1.61 -1.58 0.03 
42.68 -2.43 -1.58 0.03 
42.71 -3.24 -1.59 0.03 
42.73 -4.06 -1.59 0.03 
41.51 -4.73 -1.55 0.23 
41.26 -5.50 -1.54 0.58 
42.69 -6.51 -1.60 0.03 
42.65 -7.34 -1.60 0.03 
42.59 -8.16 -1.61 0.03 
42.51 -8.98 -1.61 0.03 
42.42 -9.80 -1.61 0.03 
42.55 -10.69 -1.63 0.56 
43.19 -11.72 -1.66 0.57 
43.80 -12.78 -1.69 0.57 
44.39 -13.87 -1.72 0.57 
44.95 -14.98 -1.76 0.58 
45.46 -16.11 -1.79 0.04 
45.42 -17.07 -1.80 0.04 
35.72 -14.21 -1.43 0.52 
34.96 -14.68 -1.41 0.75 
34.96 -15.46 -1.42 0.49 
35.48 -16.50 -1.45 0.52 
36.09 -17.62 -1.49 0.49 
43.65 -22.35 -1.82 0.03 
43.30 -23.21 -1.82 0.03 
42.92 -24.06 -1.82 0.03 
42.53 -24.91 -1.83 0.03 
42.11 -25.75 -1.83 0.03 
41.68 -26.59 -1.83 0.03 
41.24 -27.41 -1.84 0.03 
40.77 -28.23 -1.84 0.03 
40.29 -29.04 -1.84 0.03 
39.79 -29.84 -1.84 0.03 
39.28 -30.63 -1.85 0.03 
26.00 -21.08 -1.24 0.27 
38.19 -32.18 -1.85 0.03 
37.63 -32.94 -1.85 0.03 
37.04 -33.69 -1.86 0.03 
36.44 -34.43 -1.86 0.03 
35.83 -35.16 -1.86 0.03 
35.20 -35.87 -1.86 0.03 
34.55 -36.57 -1.87 0.03 
33.89 -37.26 -1.87 0.03 
30.20 -34.49 -1.70 0.03 
29.57 -35.09 -1.70 0.03 
28.93 -35.68 -1.70 0.03 
15.53 -19.92 -0.94 0.45 
14.97 -19.96 -0.92 0.90 
17.69 -24.54 -1.12 0.14 
26.24 -37.90 -1.71 0.03 
25.54 -38.42 -1.71 0.03 
24.83 -38.92 -1.71 0.03 
24.10 -39.41 -1.71 0.03 
21.01 -35.87 -1.54 0.83 
22.62 -40.35 -1.71 0.03 
21.87 -40.79 -1.72 0.03 
21.10 -41.22 -1.72 0.03 
20.33 -41.63 -1.72 0.03 
19.54 -42.02 -1.72 0.03 
18.75 -42.40 -1.72 0.03 
17.95 -42.76 -1.72 0.03 
17.14 -43.11 -1.72 0.03 
16.33 -43.44 -1.72 0.03 
15.51 -43.75 -1.72 0.03 
14.68 -44.04 -1.72 0.03 
11.75 -37.61 -1.46 0.46 
13.00 -44.57 -1.72 0.03 
12.16 -44.81 -1.72 0.03 
11.31 -45.03 -1.72 0.03 
10.45 -45.23 -1.72 0.03 
9.59 -45.42 -1.72 0.03 
2.56 -13.39 -0.51 0.95 
2.00 -11.61 -0.44 0.49 
2.05 -13.46 -0.50 0.95 
6.13 -45.97 -1.72 0.03 
5.25 -46.06 -1.72 0.03 
4.38 -46.13 -1.72 0.03 
3.50 -46.19 -1.72 0.03 
2.63 -46.22 -1.72 0.03 
1.75 -46.24 -1.72 0.03 
0.88 -46.24 -1.71 0.03 
-0.00 -46.22 -1.71 0.03 
-0.87 -46.18 -1.71 0.03 
-1.75 -46.13 -1.71 0.03 
-2.62 -46.05 -1.71 0.03 
-3.49 -45.96 -1.71 0.03 
-4.35 -45.85 -1.71 0.03 
-5.21 -45.72 -1.71 0.03 
-6.07 -45.57 -1.70 0.03 
-6.93 -45.40 -1.70 0.03 
-7.78 -45.22 -1.70 0.03 
-8.62 -45.02 -1.70 0.03 
-9.46 -44.80 -1.70 0.03 
-10.30 -44.56 -1.70 0.03 
-11.13 -44.31 -1.69 0.03 
-11.95 -44.04 -1.69 0.03 
-12.77 -43.75 -1.69 0.03 
-13.57 -43.45 -1.69 0.03 
-14.38 -43.13 -1.69 0.03 
-15.17 -42.79 -1.68 0.03 
-15.95 -42.44 -1.68 0.03 
-16.73 -42.07 -1.68 0.03 
-17.50 -41.69 -1.68 0.03 
-18.26 -41.29 -1.67 0.03 
-19.01 -40.88 -1.67 0.03 
-19.75 -40.45 -1.67 0.03 
-20.48 -40.00 -1.67 0.03 
-21.20 -39.55 -1.66 0.03 
-21.91 -39.08 -1.66 0.03 
-22.61 -38.59 -1.66 0.03 
-23.29 -38.09 -1.66 0.03 
-23.97 -37.58 -1.65 0.03 
-24.64 -37.06 -1.65 0.03 
-25.29 -36.52 -1.65 0.03 
-25.93 -35.97 -1.64 0.03 
-26.56 -35.41 -1.64 0.03 
-27.17 -34.84 -1.64 0.03 
-10.78 -13.30 -0.63 0.55 
-28.37 -33.66 -1.63 0.03 
-28.94 -33.06 -1.63 0.03 
-29.51 -32.44 -1.63 0.03 
-30.06 -31.82 -1.62 0.03 
-30.60 -31.18 -1.62 0.03 
-31.12 -30.54 -1.62 0.03 
-31.63 -29.88 -1.61 0.03 
-32.13 -29.22 -1.61 0.03 
-32.61 -28.55 -1.61 0.03 
-36.38 -30.65 -1.76 0.03 
-36.87 -29.90 -1.76 0.03 
-37.36 -29.14 -1.76 0.03 
-37.82 -28.37 -1.75 0.03 
-38.27 -27.59 -1.75 0.03 
-28.88 -20.00 -1.30 0.62 
-39.13 -26.01 -1.74 0.03 
-39.53 -25.21 -1.74 0.03 
-39.92 -24.41 -1.73 0.03 
-37.45 -21.94 -1.61 0.77 
-40.64 -22.78 -1.73 0.03 
-40.98 -21.96 -1.72 0.03 
-41.30 -21.14 -1.72 0.03 
-41.60 -20.31 -1.72 0.03 
-41.89 -19.48 -1.71 0.03 
-42.16 -18.64 -1.71 0.03 
-27.86 -11.69 -1.12 0.86 
-42.65 -16.96 -1.70 0.03 
-37.81 -14.21 -1.50 0.75 
-37.74 -13.38 -1.48 0.75 
-13.67 -4.56 -0.53 0.46 
-13.60 -4.25 -0.53 0.93 
-38.83 -11.33 -1.50 0.78 
-43.74 -11.87 -1.68 0.03 
-43.86 -11.01 -1.68 0.03 
-43.97 -10.16 -1.67 0.03 
-44.06 -9.31 -1.67 0.03 
-44.13 -8.45 -1.67 0.03 
-44.19 -7.60 -1.66 0.03 
-10.83 -1.65 -0.41 0.05 
-10.70 -1.43 -0.40 0.30 
-10.60 -1.21 -0.40 0.27 
-10.56 -1.00 -0.39 0.28 
-10.57 -0.80 -0.39 0.31 
-10.59 -0.60 -0.39 0.31 
-10.62 -0.40 -0.39 0.31 
-10.67 -0.20 -0.40 0.25 
-10.79 -0.00 -0.41 0.25 
-10.94 0.21 -0.42 0.10 
-27.07 1.03 -1.04 0.88 
-27.16 1.54 -1.04 0.87 
-17.33 1.31 -0.67 0.88 
-16.65 1.58 -0.64 0.30 
-16.19 1.85 -0.62 0.76 
-16.20 2.16 -0.63 0.65 
-16.28 2.48 -0.63 0.66 
-40.22 6.92 -1.56 0.25 
-21.55 4.13 -0.84 0.44 
-20.23 4.27 -0.79 0.30 
-19.11 4.42 -0.75 0.29 
-18.22 4.58 -0.72 0.57 
-17.79 4.83 -0.71 0.79 
-17.65 5.15 -0.70 0.92 
-17.65 5.52 -0.71 0.86 
-17.74 5.91 -0.72 0.65 
-35.43 12.56 -1.44 0.03 
-26.10 9.81 -1.07 0.83 
-25.63 10.19 -1.06 0.85 
-25.34 10.64 -1.05 0.84 
-24.97 11.04 -1.04 0.85 
-24.61 11.45 -1.04 0.86 
-10.76 5.25 -0.46 0.52 
-10.63 5.44 -0.46 0.79 
-10.36 5.55 -0.45 0.45 
-10.00 5.61 -0.44 0.57 
-9.67 5.67 -0.43 0.48 
-9.35 5.71 -0.42 0.51 
-9.04 5.76 -0.41 0.53 
-8.74 5.81 -0.40 0.60 
-8.48 5.88 -0.40 0.62 
-8.28 5.97 -0.39 0.63 
-8.18 6.13 -0.39 0.18 
-8.09 6.31 -0.39 0.18 
-8.01 6.50 -0.39 0.14 
-8.01 6.75 -0.40 0.45 
-8.15 7.13 -0.41 0.37 
-28.21 25.66 -1.46 0.03 
-27.74 26.21 -1.46 0.03 
-21.76 21.35 -1.17 0.82 
-15.26 15.56 -0.83 0.51 
-14.89 15.76 -0.83 0.83 
-14.73 16.20 -0.84 0.64 
-25.24 28.83 -1.47 0.03 
-24.71 29.32 -1.47 0.03 
-24.17 29.81 -1.47 0.03 
-23.62 30.28 -1.47 0.03 
-23.06 30.74 -1.47 0.03 
-22.49 31.20 -1.47 0.03 
-21.91 31.64 -1.47 0.03 
-21.32 32.07 -1.47 0.03 
-20.72 32.49 -1.47 0.03 
-9.97 16.31 -0.73 0.28 
-9.52 16.25 -0.72 0.89 
-9.20 16.40 -0.72 0.90 
-7.06 13.17 -0.57 0.55 
-6.69 13.06 -0.56 0.94 
-6.45 13.22 -0.56 0.93 
-16.32 35.09 -1.48 0.03 
-15.66 35.41 -1.48 0.03 
-14.99 35.72 -1.48 0.03 
-14.32 36.02 -1.48 0.03 
-13.65 36.30 -1.48 0.03 
-12.96 36.57 -1.48 0.03 
-6.46 19.37 -0.78 0.49 
-11.58 37.06 -1.49 0.03 
-10.88 37.29 -1.49 0.03 
-10.18 37.51 -1.49 0.03 
-9.47 37.71 -1.49 0.03 
-8.76 37.90 -1.49 0.03 
-8.04 38.07 -1.49 0.03 
-7.32 38.23 -1.49 0.03 
-6.60 38.37 -1.49 0.03 
-5.88 38.51 -1.49 0.03 
-5.15 38.63 -1.49 0.03 
-4.42 38.73 -1.49 0.03 
-3.68 38.82 -1.49 0.03 
-2.95 38.89 -1.49 0.03 
-1.15 20.30 -0.78 0.92 
-1.48 39.00 -1.49 0.03 
-0.74 39.03 -1.49 0.03 
0.00 39.05 -1.49 0.03 
0.74 39.05 -1.49 0.03 
1.48 39.03 -1.50 0.03 
2.22 39.00 -1.50 0.03 
2.96 38.96 -1.50 0.03 
3.69 38.93 -1.50 0.03 
1.71 15.01 -0.58 0.87 
3.02 22.68 -0.88 0.82 
3.45 22.64 -0.88 0.79 
6.63 38.55 -1.50 0.03 
7.36 38.42 -1.50 0.03 
8.09 38.30 -1.50 0.03 
8.82 38.18 -1.50 0.03 
9.55 38.05 -1.50 0.03 
10.28 37.90 -1.50 0.03 
11.02 37.75 -1.51 0.03 
11.75 37.60 -1.51 0.03 
12.47 37.41 -1.51 0.03 
13.18 37.18 -1.51 0.03 
13.88 36.93 -1.51 0.03 
14.58 36.67 -1.51 0.03 
15.28 36.39 -1.51 0.03 
7.75 17.53 -0.73 0.80 
8.10 17.41 -0.73 0.92 
8.37 17.15 -0.73 0.04 
10.28 20.07 -0.86 0.75 
18.68 34.85 -1.51 0.03 
19.34 34.50 -1.51 0.03 
20.00 34.13 -1.51 0.03 
20.64 33.76 -1.51 0.03 
21.28 33.37 -1.51 0.03 
21.94 33.00 -1.52 0.03 
7.87 11.36 -0.53 0.84 
23.20 32.18 -1.52 0.03 
23.81 31.75 -1.52 0.03 
24.41 31.30 -1.52 0.03 
9.04 11.15 -0.55 0.55 
12.99 15.41 -0.77 0.42 
13.42 15.33 -0.78 0.30 
26.77 29.44 -1.52 0.03 
27.35 28.95 -1.52 0.03 
27.91 28.44 -1.52 0.03 
12.58 12.35 -0.67 0.45 
12.58 11.89 -0.66 0.93 
12.89 11.72 -0.67 0.45 
30.02 26.28 -1.53 0.03 
30.53 25.73 -1.53 0.03 
17.69 14.34 -0.87 0.84 
18.03 14.06 -0.88 0.70 
32.00 24.00 -1.53 0.03 
32.46 23.40 -1.53 0.03 
32.91 22.79 -1.53 0.03 
33.35 22.17 -1.53 0.03 
33.80 21.56 -1.53 0.03 
34.24 20.94 -1.54 0.03 
34.67 20.31 -1.54 0.03 
23.06 12.93 -1.01 0.40 
23.07 12.36 -1.00 0.74 
35.83 18.34 -1.54 0.03 
36.18 17.67 -1.54 0.03 
36.53 16.99 -1.54 0.03 
36.88 16.31 -1.54 0.03 
37.22 15.62 -1.54 0.03 
32.93 13.10 -1.36 0.61 
27.98 10.52 -1.14 0.29 
28.04 9.94 -1.14 0.65 
38.38 12.79 -1.55 0.03 
38.65 12.07 -1.55 0.03 
38.91 11.35 -1.55 0.03 
26.00 7.05 -1.03 0.87 
26.68 6.70 -1.05 0.22 
39.57 9.14 -1.55 0.03 
33.53 7.08 -1.31 0.38 
39.96 7.65 -1.56 0.03 
40.14 6.90 -1.56 0.03 
27.89 4.26 -1.08 0.59 
40.43 5.39 -1.56 0.03 
40.54 4.62 -1.56 0.03 
32.49 3.08 -1.25 0.84 
38.77 2.94 -1.49 0.59 
40.86 2.32 -1.57 0.03 
40.94 1.55 -1.57 0.03 
41.02 0.78 -1.57 0.03 
41.11 -0.00 -1.57 0.03 
41.18 -0.78 -1.58 0.03 
41.25 -1.56 -1.58 0.03 
41.29 -2.35 -1.58 0.03 
41.32 -3.13 -1.59 0.03 
41.34 -3.92 -1.59 0.03 
41.34 -4.71 -1.59 0.03 
41.26 -5.50 -1.59 0.58 
41.30 -6.30 -1.60 0.03 
41.25 -7.09 -1.60 0.03 
41.19 -7.89 -1.61 0.03 
41.22 -8.71 -1.61 0.42 
41.89 -9.68 -1.65 0.56 
42.54 -10.68 -1.68 0.56 
43.17 -11.71 -1.71 0.57 
43.79 -12.78 -1.75 0.57 
44.34 -13.85 -1.78 0.04 
44.33 -14.78 -1.79 0.03 
44.13 -15.64 -1.79 0.03 
43.90 -16.50 -1.79 0.03 
35.73 -14.21 -1.47 0.52 
34.97 -14.68 -1.45 0.75 
34.96 -15.46 -1.46 0.50 
35.48 -16.50 -1.50 0.52 
36.09 -17.62 -1.54 0.49 
42.18 -21.59 -1.81 0.03 
41.83 -22.42 -1.82 0.03 
41.47 -23.25 -1.82 0.03 
41.08 -24.07 -1.82 0.03 
40.68 -24.88 -1.83 0.03 
40.27 -25.68 -1.83 0.03 
39.83 -26.48 -1.83 0.03 
39.38 -27.27 -1.83 0.03 
38.91 -28.05 -1.84 0.03 
38.43 -28.82 -1.84 0.03 
37.93 -29.58 -1.84 0.03 
25.99 -21.07 -1.28 0.27 
36.88 -31.08 -1.85 0.03 
36.33 -31.81 -1.85 0.03 
35.77 -32.53 -1.85 0.03 
35.19 -33.24 -1.85 0.03 
34.59 -33.94 -1.85 0.03 
33.98 -34.63 -1.86 0.03 
30.33 -32.10 -1.69 0.03 
29.75 -32.71 -1.69 0.03 
29.15 -33.30 -1.69 0.03 
28.55 -33.88 -1.70 0.03 
27.93 -34.44 -1.70 0.03 
15.53 -19.91 -0.97 0.45 
14.97 -19.96 -0.95 0.90 
25.99 -36.06 -1.70 0.03 
25.33 -36.58 -1.70 0.03 
24.65 -37.08 -1.70 0.03 
23.96 -37.57 -1.71 0.03 
23.26 -38.04 -1.71 0.03 
21.01 -35.87 -1.59 0.83 
21.83 -38.94 -1.71 0.03 
21.10 -39.36 -1.71 0.03 
20.36 -39.78 -1.71 0.03 
19.61 -40.17 -1.71 0.03 
18.86 -40.55 -1.71 0.03 
18.09 -40.92 -1.71 0.03 
17.32 -41.26 -1.71 0.03 
16.54 -41.60 -1.71 0.03 
15.76 -41.91 -1.71 0.03 
14.96 -42.21 -1.71 0.03 
14.16 -42.49 -1.71 0.03 
11.76 -37.65 -1.51 0.44 
12.55 -43.01 -1.71 0.03 
11.73 -43.24 -1.71 0.03 
10.91 -43.45 -1.71 0.03 
10.09 -43.64 -1.71 0.03 
9.26 -43.82 -1.71 0.03 
2.56 -13.39 -0.52 0.95 
2.00 -11.60 -0.45 0.60 
2.05 -13.46 -0.52 0.95 
5.91 -44.36 -1.71 0.03 
5.07 -44.45 -1.71 0.03 
4.23 -44.52 -1.71 0.03 
3.38 -44.57 -1.71 0.03 
2.54 -44.61 -1.71 0.03 
1.69 -44.62 -1.71 0.03 
0.84 -44.62 -1.71 0.03 
-0.00 -44.61 -1.71 0.03 
-0.84 -44.57 -1.71 0.03 
-1.69 -44.52 -1.71 0.03 
-2.53 -44.45 -1.70 0.03 
-3.36 -44.36 -1.70 0.03 
-4.20 -44.25 -1.70 0.03 
-5.03 -44.13 -1.70 0.03 
-5.86 -43.98 -1.70 0.03 
-6.69 -43.83 -1.70 0.03 
-7.51 -43.65 -1.70 0.03 
-8.32 -43.46 -1.69 0.03 
-9.14 -43.25 -1.69 0.03 
-9.94 -43.02 -1.69 0.03 
-10.74 -42.78 -1.69 0.03 
-11.54 -42.52 -1.69 0.03 
-12.32 -42.24 -1.68 0.03 
-13.11 -41.95 -1.68 0.03 
-13.88 -41.64 -1.68 0.03 
-14.65 -41.32 -1.68 0.03 
-15.41 -40.98 -1.68 0.03 
-16.16 -40.63 -1.67 0.03 
-16.90 -40.26 -1.67 0.03 
-17.64 -39.88 -1.67 0.03 
-18.36 -39.48 -1.67 0.03 
-19.08 -39.07 -1.66 0.03 
-19.78 -38.64 -1.66 0.03 
-20.48 -38.20 -1.66 0.03 
-21.17 -37.75 -1.66 0.03 
-21.84 -37.29 -1.65 0.03 
-22.51 -36.81 -1.65 0.03 
-23.16 -36.31 -1.65 0.03 
-23.81 -35.81 -1.65 0.03 
-24.44 -35.29 -1.64 0.03 
-25.06 -34.77 -1.64 0.03 
-25.67 -34.23 -1.64 0.03 
-26.26 -33.67 -1.63 0.03 
-10.78 -13.30 -0.66 0.58 
-27.42 -32.54 -1.63 0.03 
-27.98 -31.96 -1.63 0.03 
-28.53 -31.36 -1.62 0.03 
-29.06 -30.76 -1.62 0.03 
-29.58 -30.15 -1.62 0.03 
-30.09 -29.53 -1.61 0.03 
-30.59 -28.90 -1.61 0.03 
-31.07 -28.26 -1.61 0.03 
-31.54 -27.61 -1.60 0.03 
-31.99 -26.96 -1.60 0.03 
-32.43 -26.30 -1.60 0.03 
-32.86 -25.63 -1.59 0.03 
-33.27 -24.95 -1.59 0.03 
-37.03 -26.69 -1.75 0.03 
-28.89 -20.01 -1.35 0.42 
-37.86 -25.17 -1.74 0.03 
-38.25 -24.40 -1.74 0.03 
-38.63 -23.62 -1.73 0.03 
-37.55 -22.00 -1.67 0.16 
-39.33 -22.05 -1.73 0.03 
-39.66 -21.26 -1.72 0.03 
-39.98 -20.46 -1.72 0.03 
-40.27 -19.66 -1.72 0.03 
-40.55 -18.86 -1.71 0.03 
-40.82 -18.05 -1.71 0.03 
-27.86 -11.69 -1.16 0.86 
-41.30 -16.42 -1.70 0.03 
-37.81 -14.21 -1.55 0.75 
-39.22 -13.90 -1.59 0.75 
-13.64 -4.55 -0.55 0.46 
-13.60 -4.25 -0.55 0.93 
-38.83 -11.33 -1.55 0.77 
-42.37 -11.50 -1.68 0.03 
-42.49 -10.67 -1.68 0.03 
-42.60 -9.84 -1.67 0.03 
-42.69 -9.02 -1.67 0.03 
-42.76 -8.19 -1.67 0.03 
-42.82 -7.37 -1.66 0.03 
-10.79 -1.65 -0.42 0.19 
-10.66 -1.42 -0.41 0.30 
-10.55 -1.20 -0.41 0.27 
-10.52 -1.00 -0.40 0.28 
-10.54 -0.80 -0.40 0.31 
-10.56 -0.60 -0.40 0.31 
-10.58 -0.40 -0.41 0.31 
-10.63 -0.20 -0.41 0.25 
-10.74 -0.00 -0.42 0.25 
-10.89 0.21 -0.43 0.28 
-27.07 1.03 -1.07 0.88 
-27.16 1.54 -1.07 0.87 
-17.34 1.31 -0.69 0.88 
-16.62 1.58 -0.66 0.30 
-16.18 1.85 -0.64 0.76 
-16.18 2.16 -0.64 0.65 
-16.26 2.48 -0.65 0.68 
-40.01 6.88 -1.60 0.04 
-21.60 4.14 -0.87 0.44 
-20.22 4.27 -0.82 0.30 
-19.10 4.41 -0.77 0.29 
-18.21 4.57 -0.74 0.57 
-17.79 4.83 -0.73 0.79 
-17.65 5.15 -0.73 0.92 
-17.65 5.51 -0.73 0.86 
-17.74 5.91 -0.74 0.65 
-34.42 12.20 -1.44 0.04 
-26.10 9.81 -1.10 0.83 
-25.64 10.20 -1.09 0.85 
-25.34 10.64 -1.08 0.84 
-24.97 11.04 -1.08 0.85 
-24.61 11.45 -1.07 0.86 
-10.76 5.25 -0.47 0.52 
-10.74 5.50 -0.48 0.46 
-10.34 5.54 -0.46 0.45 
-9.99 5.60 -0.45 0.57 
-9.66 5.66 -0.44 0.48 
-9.33 5.71 -0.43 0.52 
-9.02 5.76 -0.42 0.47 
-8.73 5.81 -0.41 0.60 
-8.47 5.87 -0.41 0.62 
-8.27 5.96 -0.40 0.54 
-8.13 6.10 -0.40 0.19 
-8.04 6.27 -0.40 0.18 
-8.00 6.49 -0.41 0.72 
-8.00 6.74 -0.41 0.45 
-8.13 7.12 -0.43 0.38 
-27.33 24.86 -1.46 0.03 
-26.88 25.39 -1.46 0.03 
-21.76 21.35 -1.20 0.82 
-15.28 15.57 -0.86 0.51 
-14.90 15.77 -0.86 0.83 
-14.74 16.21 -0.86 0.64 
-24.45 27.92 -1.46 0.03 
-23.93 28.40 -1.47 0.03 
-23.41 28.87 -1.47 0.03 
-22.88 29.33 -1.47 0.03 
-22.33 29.78 -1.47 0.03 
-21.78 30.22 -1.47 0.03 
-21.22 30.64 -1.47 0.03 
-20.65 31.06 -1.47 0.03 
-20.07 31.47 -1.47 0.03 
-10.08 16.49 -0.76 0.07 
-9.53 16.27 -0.74 0.41 
-9.21 16.42 -0.74 0.42 
-7.06 13.16 -0.59 0.55 
-6.69 13.06 -0.58 0.94 
-6.45 13.22 -0.58 0.93 
-15.80 33.98 -1.48 0.03 
-15.16 34.29 -1.48 0.03 
-14.52 34.59 -1.48 0.03 
-13.87 34.88 -1.48 0.03 
-13.21 35.15 -1.48 0.03 
-12.55 35.41 -1.48 0.03 
-6.46 19.39 -0.81 0.21 
-11.21 35.89 -1.48 0.03 
-10.54 36.11 -1.48 0.03 
