VERSION 0.7
FIELDS x y z intensity
SIZE 4 4 4 8
TYPE F F F F
COUNT 1 1 1 1
WIDTH 2021
HEIGHT 1
VIEWPOINT 0.0 0.0 0.0 1.0 0.0 0.0 0.0
POINTS 2021
DATA ascii
4.25 -12.76 -1.55 0.11 
4.01 -12.83 -1.55 0.11 
3.76 -12.89 -1.55 0.11 
3.51 -12.95 -1.55 0.11 
3.27 -13.01 -1.55 0.11 
3.02 -13.06 -1.54 0.11 
2.77 -13.10 -1.54 0.11 
2.52 -13.14 -1.54 0.11 
2.27 -13.18 -1.54 0.11 
2.02 -13.21 -1.54 0.11 
1.76 -13.23 -1.54 0.11 
1.51 -13.26 -1.54 0.11 
1.26 -13.27 -1.54 0.11 
1.01 -13.28 -1.54 0.11 
0.76 -13.29 -1.53 0.11 
0.50 -13.29 -1.53 0.11 
0.25 -13.29 -1.53 0.11 
0.00 -13.28 -1.53 0.11 
-0.25 -13.27 -1.53 0.11 
-0.50 -13.25 -1.53 0.11 
-0.75 -13.23 -1.53 0.11 
-1.00 -13.20 -1.53 0.11 
-1.25 -13.17 -1.53 0.11 
-1.50 -13.14 -1.52 0.11 
-1.75 -13.10 -1.52 0.11 
-1.99 -13.05 -1.52 0.11 
-2.24 -13.00 -1.52 0.11 
-2.48 -12.95 -1.52 0.11 
-2.72 -12.89 -1.52 0.11 
-2.96 -12.82 -1.52 0.11 
-3.20 -12.76 -1.52 0.11 
-3.44 -12.68 -1.51 0.11 
-3.68 -12.61 -1.51 0.11 
-3.91 -12.53 -1.51 0.11 
-4.15 -12.44 -1.51 0.11 
-4.38 -12.35 -1.51 0.11 
-4.61 -12.26 -1.51 0.11 
-4.84 -12.16 -1.51 0.11 
-5.06 -12.06 -1.51 0.11 
-5.28 -11.95 -1.51 0.11 
-5.51 -11.84 -1.51 0.11 
-5.73 -11.73 -1.50 0.11 
-5.94 -11.61 -1.50 0.11 
-6.16 -11.48 -1.50 0.11 
-6.37 -11.36 -1.50 0.11 
-6.58 -11.23 -1.50 0.11 
-6.78 -11.09 -1.50 0.11 
-6.99 -10.96 -1.50 0.11 
-7.19 -10.82 -1.50 0.11 
-7.39 -10.67 -1.50 0.11 
-7.58 -10.52 -1.50 0.11 
-7.78 -10.37 -1.49 0.11 
-7.97 -10.22 -1.49 0.11 
-8.15 -10.06 -1.49 0.11 
-8.34 -9.89 -1.49 0.11 
-8.52 -9.73 -1.49 0.11 
-8.70 -9.56 -1.49 0.11 
-8.12 -8.59 -1.36 0.66 
-8.39 -8.55 -1.38 0.67 
-9.21 -9.04 -1.49 0.11 
-9.37 -8.86 -1.49 0.11 
-9.53 -8.67 -1.49 0.11 
-9.69 -8.49 -1.48 0.11 
-9.85 -8.30 -1.48 0.11 
-10.00 -8.10 -1.48 0.11 
-10.14 -7.91 -1.48 0.11 
-10.46 -7.84 -1.51 0.57 
-10.87 -7.83 -1.54 0.56 
-11.31 -7.83 -1.59 0.54 
-11.71 -7.78 -1.62 0.12 
-11.87 -7.57 -1.62 0.12 
-12.03 -7.36 -1.63 0.11 
-12.17 -7.13 -1.63 0.11 
-12.29 -6.89 -1.62 0.11 
-12.42 -6.66 -1.62 0.11 
-12.54 -6.42 -1.62 0.11 
-12.65 -6.18 -1.62 0.11 
-12.76 -5.93 -1.62 0.11 
-12.87 -5.69 -1.62 0.11 
-12.97 -5.44 -1.62 0.11 
-13.06 -5.20 -1.62 0.11 
-13.16 -4.95 -1.62 0.11 
-13.24 -4.69 -1.62 0.11 
-13.33 -4.44 -1.62 0.11 
-13.40 -4.19 -1.62 0.11 
-13.48 -3.93 -1.62 0.11 
-13.55 -3.68 -1.62 0.11 
-13.61 -3.42 -1.62 0.11 
-13.67 -3.16 -1.62 0.11 
-13.72 -2.90 -1.62 0.11 
-13.77 -2.64 -1.62 0.11 
-13.82 -2.38 -1.62 0.11 
-6.84 -1.04 -0.80 0.38 
-6.76 -0.90 -0.79 0.88 
-6.73 -0.77 -0.78 0.89 
-6.70 -0.64 -0.78 0.89 
-6.68 -0.51 -0.77 0.93 
-6.66 -0.38 -0.77 0.94 
-6.65 -0.25 -0.77 0.94 
-6.64 -0.13 -0.77 0.94 
-6.65 0.00 -0.77 0.94 
-6.66 0.13 -0.78 0.94 
-6.67 0.25 -0.78 0.94 
-6.69 0.38 -0.78 0.90 
-6.72 0.51 -0.79 0.90 
-6.75 0.64 -0.79 0.89 
-6.79 0.77 -0.80 0.72 
-13.75 1.83 -1.62 0.11 
-13.71 2.09 -1.62 0.11 
-13.67 2.35 -1.62 0.11 
-13.62 2.61 -1.62 0.11 
-13.57 2.87 -1.62 0.11 
-13.52 3.12 -1.62 0.11 
-13.46 3.38 -1.62 0.11 
-8.85 2.40 -1.07 0.83 
-8.30 2.42 -1.01 0.28 
-7.77 2.43 -0.95 0.29 
-7.29 2.43 -0.89 0.31 
-6.86 2.43 -0.85 0.33 
-6.48 2.43 -0.81 0.35 
-6.13 2.44 -0.77 0.49 
-5.94 2.49 -0.75 0.59 
-5.79 2.56 -0.74 0.60 
-5.68 2.64 -0.73 0.90 
-5.65 2.76 -0.73 0.87 
-5.65 2.89 -0.74 0.86 
-5.64 3.03 -0.75 0.85 
-5.64 3.16 -0.75 0.84 
-5.64 3.30 -0.76 0.83 
-5.63 3.44 -0.77 0.81 
-5.63 3.59 -0.78 0.79 
-5.63 3.74 -0.79 0.78 
-5.63 3.90 -0.80 0.77 
-5.63 4.06 -0.81 0.76 
-5.62 4.22 -0.82 0.75 
-7.62 5.94 -1.13 0.58 
-7.33 5.95 -1.10 0.65 
-7.09 5.98 -1.08 0.64 
-6.83 5.98 -1.06 0.62 
-6.59 5.99 -1.04 0.64 
-6.38 6.02 -1.02 0.87 
-6.22 6.10 -1.02 0.96 
-6.09 6.21 -1.01 0.96 
-5.97 6.32 -1.01 0.85 
-5.91 6.49 -1.02 0.83 
-5.87 6.71 -1.04 0.67 
-5.86 6.96 -1.06 0.60 
-5.87 7.24 -1.09 0.57 
-8.60 11.03 -1.63 0.12 
-8.31 11.09 -1.61 0.76 
-8.00 11.09 -1.59 0.77 
-7.68 11.10 -1.57 0.78 
-7.38 11.10 -1.55 0.79 
-7.08 11.11 -1.53 0.80 
-6.79 11.11 -1.52 0.81 
-6.51 11.11 -1.50 0.82 
-6.27 11.19 -1.49 0.11 
-6.06 11.31 -1.50 0.11 
-5.85 11.43 -1.50 0.11 
-5.64 11.55 -1.50 0.11 
-5.42 11.66 -1.50 0.11 
-5.20 11.77 -1.50 0.11 
-4.98 11.87 -1.50 0.11 
-4.76 11.97 -1.50 0.11 
-4.54 12.07 -1.50 0.11 
-4.31 12.16 -1.50 0.11 
-4.08 12.25 -1.50 0.11 
-3.85 12.33 -1.50 0.11 
-3.62 12.41 -1.51 0.11 
-3.39 12.49 -1.51 0.11 
-3.15 12.56 -1.51 0.11 
-2.92 12.62 -1.51 0.11 
-2.68 12.69 -1.51 0.11 
-2.44 12.74 -1.51 0.11 
-2.20 12.80 -1.51 0.11 
-1.96 12.84 -1.51 0.11 
-1.72 12.89 -1.51 0.11 
-1.47 12.93 -1.52 0.11 
-1.23 12.96 -1.52 0.11 
-0.99 12.99 -1.52 0.11 
-0.74 13.02 -1.52 0.11 
-0.49 13.04 -1.52 0.11 
-0.25 13.06 -1.52 0.11 
0.00 13.07 -1.52 0.11 
0.25 13.08 -1.52 0.11 
0.50 13.08 -1.52 0.11 
0.74 13.08 -1.53 0.11 
0.99 13.07 -1.53 0.11 
1.24 13.06 -1.53 0.11 
1.49 13.04 -1.53 0.11 
1.74 13.02 -1.53 0.11 
1.98 13.00 -1.53 0.11 
2.23 12.97 -1.53 0.11 
2.48 12.93 -1.53 0.11 
2.72 12.89 -1.53 0.11 
2.97 12.85 -1.54 0.11 
3.21 12.80 -1.54 0.11 
3.46 12.75 -1.54 0.11 
3.70 12.69 -1.54 0.11 
3.94 12.63 -1.54 0.11 
4.19 12.56 -1.54 0.11 
1.29 3.63 -0.45 0.18 
1.29 3.44 -0.43 0.33 
1.31 3.30 -0.41 0.26 
1.33 3.18 -0.40 0.44 
1.36 3.08 -0.39 0.44 
1.41 3.02 -0.39 0.68 
1.45 2.98 -0.39 0.92 
1.52 2.98 -0.39 0.78 
1.59 2.98 -0.39 0.77 
1.67 2.97 -0.40 0.74 
1.74 2.97 -0.40 0.73 
1.82 2.97 -0.41 0.66 
1.90 2.98 -0.41 0.64 
1.98 2.98 -0.42 0.63 
2.07 2.99 -0.42 0.58 
2.18 3.02 -0.43 0.45 
2.29 3.06 -0.44 0.44 
5.60 7.17 -1.06 0.51 
5.58 6.88 -1.03 0.56 
5.61 6.66 -1.01 0.67 
5.65 6.45 -1.00 0.79 
5.71 6.27 -0.99 0.76 
5.75 6.08 -0.97 0.77 
5.82 5.94 -0.97 0.94 
5.97 5.86 -0.97 0.82 
6.17 5.83 -0.99 0.66 
6.41 5.83 -1.01 0.64 
6.70 5.86 -1.04 0.63 
6.96 5.86 -1.06 0.60 
7.23 5.87 -1.08 0.59 
7.53 5.87 -1.11 0.57 
7.84 5.88 -1.14 0.55 
8.17 5.89 -1.17 0.54 
8.51 5.89 -1.21 0.54 
8.88 5.90 -1.24 0.52 
9.17 5.85 -1.27 0.81 
9.54 5.83 -1.30 0.49 
9.96 5.83 -1.34 0.48 
13.00 7.29 -1.74 0.11 
13.15 7.05 -1.74 0.11 
13.28 6.80 -1.74 0.11 
13.41 6.55 -1.74 0.11 
13.54 6.30 -1.74 0.11 
13.66 6.04 -1.74 0.11 
13.78 5.78 -1.74 0.11 
13.89 5.52 -1.74 0.11 
14.00 5.26 -1.74 0.10 
14.10 5.00 -1.74 0.10 
14.19 4.73 -1.74 0.10 
14.29 4.46 -1.74 0.10 
14.37 4.19 -1.74 0.10 
14.45 3.92 -1.74 0.10 
14.53 3.65 -1.74 0.10 
14.60 3.37 -1.75 0.10 
14.66 3.10 -1.75 0.10 
14.72 2.82 -1.75 0.10 
14.77 2.54 -1.75 0.10 
14.82 2.26 -1.75 0.10 
14.87 1.98 -1.75 0.10 
14.90 1.70 -1.75 0.10 
14.93 1.42 -1.75 0.10 
14.96 1.13 -1.75 0.10 
14.98 0.85 -1.75 0.10 
14.99 0.57 -1.75 0.10 
15.00 0.28 -1.75 0.10 
15.01 -0.00 -1.75 0.10 
15.01 -0.28 -1.75 0.10 
15.00 -0.57 -1.75 0.10 
14.98 -0.85 -1.75 0.10 
14.97 -1.14 -1.75 0.10 
14.94 -1.42 -1.75 0.10 
14.91 -1.70 -1.75 0.10 
14.88 -1.98 -1.75 0.10 
14.84 -2.26 -1.75 0.10 
14.79 -2.54 -1.75 0.10 
14.74 -2.82 -1.75 0.10 
14.68 -3.10 -1.75 0.10 
14.62 -3.38 -1.75 0.10 
14.55 -3.65 -1.75 0.10 
14.47 -3.93 -1.75 0.10 
14.40 -4.20 -1.75 0.10 
14.31 -4.47 -1.75 0.10 
14.22 -4.74 -1.75 0.10 
14.13 -5.01 -1.75 0.10 
14.03 -5.27 -1.75 0.10 
13.92 -5.54 -1.74 0.10 
13.81 -5.80 -1.74 0.10 
13.69 -6.06 -1.74 0.10 
13.57 -6.31 -1.74 0.10 
13.45 -6.57 -1.74 0.10 
13.32 -6.82 -1.74 0.10 
13.18 -7.07 -1.74 0.10 
13.04 -7.31 -1.74 0.11 
12.90 -7.55 -1.74 0.11 
12.75 -7.79 -1.74 0.11 
12.59 -8.03 -1.74 0.11 
4.76 -3.17 -0.67 0.53 
4.58 -3.17 -0.65 0.53 
4.41 -3.17 -0.63 0.55 
4.24 -3.18 -0.62 0.57 
4.09 -3.19 -0.60 0.63 
3.95 -3.20 -0.59 0.68 
3.82 -3.22 -0.58 0.75 
3.71 -3.25 -0.57 0.72 
3.63 -3.30 -0.57 0.54 
3.58 -3.38 -0.57 0.60 
3.56 -3.50 -0.58 0.57 
3.55 -3.62 -0.59 0.56 
3.54 -3.74 -0.60 0.54 
3.53 -3.88 -0.61 0.54 
8.88 -10.15 -1.57 0.11 
8.69 -10.31 -1.57 0.11 
8.48 -10.46 -1.57 0.11 
8.28 -10.62 -1.57 0.11 
8.07 -10.76 -1.57 0.11 
7.86 -10.91 -1.57 0.11 
7.65 -11.05 -1.57 0.11 
7.44 -11.19 -1.56 0.11 
7.22 -11.32 -1.56 0.11 
7.00 -11.44 -1.56 0.11 
6.78 -11.57 -1.56 0.11 
6.55 -11.69 -1.56 0.11 
6.33 -11.80 -1.56 0.11 
6.10 -11.91 -1.56 0.11 
5.87 -12.02 -1.56 0.11 
5.63 -12.12 -1.56 0.11 
5.40 -12.21 -1.56 0.11 
5.17 -12.30 -1.55 0.11 
4.93 -12.39 -1.55 0.11 
4.69 -12.47 -1.55 0.11 
4.45 -12.55 -1.55 0.11 
4.21 -12.62 -1.55 0.11 
3.97 -12.69 -1.55 0.11 
3.72 -12.76 -1.55 0.11 
3.48 -12.82 -1.55 0.11 
3.23 -12.87 -1.55 0.11 
2.99 -12.92 -1.54 0.11 
2.74 -12.96 -1.54 0.11 
2.49 -13.00 -1.54 0.11 
2.24 -13.04 -1.54 0.11 
1.99 -13.07 -1.54 0.11 
1.75 -13.10 -1.54 0.11 
1.50 -13.12 -1.54 0.11 
1.25 -13.13 -1.54 0.11 
1.00 -13.14 -1.54 0.11 
0.75 -13.15 -1.53 0.11 
0.50 -13.15 -1.53 0.11 
0.25 -13.15 -1.53 0.11 
0.00 -13.14 -1.53 0.11 
-0.25 -13.13 -1.53 0.11 
-0.50 -13.11 -1.53 0.11 
-0.74 -13.09 -1.53 0.11 
-0.99 -13.07 -1.53 0.11 
-1.24 -13.04 -1.53 0.11 
-1.48 -13.00 -1.52 0.11 
-1.73 -12.96 -1.52 0.11 
-1.97 -12.92 -1.52 0.11 
-2.21 -12.87 -1.52 0.11 
-2.45 -12.81 -1.52 0.11 
-2.69 -12.75 -1.52 0.11 
-2.93 -12.69 -1.52 0.11 
-3.17 -12.62 -1.52 0.11 
-3.41 -12.55 -1.51 0.11 
-3.64 -12.48 -1.51 0.11 
-3.87 -12.40 -1.51 0.11 
-4.10 -12.31 -1.51 0.11 
-4.33 -12.22 -1.51 0.11 
-4.56 -12.13 -1.51 0.11 
-4.79 -12.03 -1.51 0.11 
-5.01 -11.93 -1.51 0.11 
-5.23 -11.83 -1.51 0.11 
-5.45 -11.72 -1.51 0.11 
-5.67 -11.61 -1.50 0.11 
-5.88 -11.49 -1.50 0.11 
-6.09 -11.37 -1.50 0.11 
-6.30 -11.24 -1.50 0.11 
-6.51 -11.11 -1.50 0.11 
-6.72 -10.98 -1.50 0.11 
-6.92 -10.85 -1.50 0.11 
-7.12 -10.71 -1.50 0.11 
-7.31 -10.56 -1.50 0.11 
-7.51 -10.42 -1.50 0.11 
-7.70 -10.27 -1.49 0.11 
-7.89 -10.11 -1.49 0.11 
-8.07 -9.95 -1.49 0.11 
-8.25 -9.79 -1.49 0.11 
-8.43 -9.63 -1.49 0.11 
-8.61 -9.46 -1.49 0.11 
-8.12 -8.59 -1.38 0.66 
-8.39 -8.55 -1.40 0.67 
-9.12 -8.94 -1.49 0.11 
-9.28 -8.77 -1.49 0.11 
-9.44 -8.58 -1.49 0.11 
-9.59 -8.40 -1.49 0.11 
-9.75 -8.21 -1.48 0.11 
-9.89 -8.02 -1.48 0.11 
-10.06 -7.85 -1.49 0.49 
-10.45 -7.84 -1.52 0.57 
-10.87 -7.83 -1.56 0.56 
-11.30 -7.82 -1.60 0.54 
-11.60 -7.71 -1.62 0.12 
-11.76 -7.50 -1.63 0.12 
-11.91 -7.29 -1.63 0.11 
-12.04 -7.06 -1.63 0.11 
-12.17 -6.82 -1.63 0.11 
-12.29 -6.59 -1.62 0.11 
-12.41 -6.35 -1.62 0.11 
-12.52 -6.11 -1.62 0.11 
-12.63 -5.87 -1.62 0.11 
-12.74 -5.63 -1.62 0.11 
-12.84 -5.39 -1.62 0.11 
-12.93 -5.14 -1.62 0.11 
-13.02 -4.90 -1.62 0.11 
-13.11 -4.65 -1.62 0.11 
-13.19 -4.40 -1.62 0.11 
-13.27 -4.15 -1.62 0.11 
-13.34 -3.89 -1.62 0.11 
-13.41 -3.64 -1.62 0.11 
-13.47 -3.38 -1.62 0.11 
-13.53 -3.13 -1.62 0.11 
-13.59 -2.87 -1.62 0.11 
-13.64 -2.61 -1.62 0.11 
-13.68 -2.35 -1.62 0.11 
-6.83 -1.04 -0.81 0.38 
-6.76 -0.90 -0.79 0.88 
-6.73 -0.77 -0.79 0.89 
-6.69 -0.64 -0.78 0.89 
-6.67 -0.51 -0.78 0.93 
-6.66 -0.38 -0.78 0.94 
-6.65 -0.25 -0.78 0.94 
-6.64 -0.13 -0.77 0.94 
-6.64 -0.00 -0.78 0.95 
-6.66 0.13 -0.78 0.94 
-6.67 0.25 -0.79 0.94 
-6.69 0.38 -0.79 0.90 
-6.72 0.51 -0.79 0.90 
-6.75 0.64 -0.80 0.89 
-6.79 0.77 -0.80 0.72 
-13.61 1.81 -1.62 0.11 
-13.57 2.07 -1.62 0.11 
-13.53 2.33 -1.62 0.11 
-13.49 2.58 -1.62 0.11 
-13.44 2.84 -1.62 0.11 
-13.38 3.09 -1.62 0.11 
-13.32 3.35 -1.62 0.11 
-8.84 2.40 -1.08 0.83 
-8.30 2.42 -1.02 0.28 
-7.77 2.43 -0.96 0.29 
-7.29 2.43 -0.90 0.31 
-6.86 2.43 -0.86 0.33 
-6.48 2.43 -0.81 0.29 
-6.13 2.44 -0.78 0.49 
-5.93 2.49 -0.76 0.59 
-5.78 2.56 -0.74 0.60 
-5.68 2.64 -0.74 0.90 
-5.65 2.76 -0.74 0.87 
-5.64 2.89 -0.75 0.86 
-5.64 3.02 -0.75 0.85 
-5.64 3.16 -0.76 0.83 
-5.63 3.30 -0.77 0.82 
-5.63 3.44 -0.78 0.81 
-5.63 3.59 -0.79 0.79 
-5.63 3.74 -0.80 0.78 
-5.62 3.89 -0.81 0.77 
-5.62 4.05 -0.82 0.76 
-5.62 4.22 -0.83 0.75 
-7.61 5.94 -1.14 0.58 
-7.33 5.95 -1.11 0.65 
-7.09 5.98 -1.09 0.64 
-6.83 5.98 -1.07 0.62 
-6.58 5.99 -1.05 0.65 
-6.38 6.02 -1.03 0.89 
-6.22 6.10 -1.03 0.95 
-6.09 6.21 -1.02 0.96 
-5.97 6.32 -1.02 0.85 
-5.91 6.49 -1.03 0.83 
-5.87 6.71 -1.05 0.67 
-5.86 6.96 -1.07 0.60 
-5.87 7.24 -1.10 0.57 
-8.52 10.93 -1.63 0.13 
-8.31 11.08 -1.63 0.13 
-7.99 11.09 -1.61 0.77 
-7.68 11.09 -1.59 0.78 
-7.38 11.10 -1.57 0.79 
-7.08 11.10 -1.55 0.80 
-6.79 11.11 -1.53 0.81 
-6.51 11.11 -1.52 0.82 
-6.23 11.12 -1.50 0.66 
-6.00 11.20 -1.50 0.11 
-5.79 11.32 -1.50 0.11 
-5.58 11.43 -1.50 0.11 
-5.37 11.54 -1.50 0.11 
-5.15 11.65 -1.50 0.11 
-4.93 11.75 -1.50 0.11 
-4.71 11.85 -1.50 0.11 
-4.49 11.95 -1.50 0.11 
-4.27 12.04 -1.50 0.11 
-4.04 12.12 -1.50 0.11 
-3.81 12.21 -1.51 0.11 
-3.58 12.29 -1.51 0.11 
-3.35 12.36 -1.51 0.11 
-3.12 12.43 -1.51 0.11 
-2.89 12.49 -1.51 0.11 
-2.65 12.56 -1.51 0.11 
-2.42 12.61 -1.51 0.11 
-2.18 12.67 -1.51 0.11 
-1.94 12.71 -1.51 0.11 
-1.70 12.76 -1.51 0.11 
-1.46 12.80 -1.52 0.11 
-1.22 12.83 -1.52 0.11 
-0.98 12.86 -1.52 0.11 
-0.73 12.89 -1.52 0.11 
-0.49 12.91 -1.52 0.11 
-0.24 12.92 -1.52 0.11 
0.00 12.94 -1.52 0.11 
0.25 12.94 -1.52 0.11 
0.49 12.95 -1.52 0.11 
0.74 12.94 -1.53 0.11 
0.98 12.94 -1.53 0.11 
1.23 12.93 -1.53 0.11 
1.47 12.91 -1.53 0.11 
1.72 12.89 -1.53 0.11 
1.96 12.86 -1.53 0.11 
2.21 12.83 -1.53 0.11 
2.45 12.80 -1.53 0.11 
2.70 12.76 -1.53 0.11 
2.94 12.72 -1.54 0.11 
3.18 12.67 -1.54 0.11 
3.42 12.61 -1.54 0.11 
3.66 12.56 -1.54 0.11 
3.90 12.49 -1.54 0.11 
4.14 12.43 -1.54 0.11 
1.28 3.61 -0.45 0.16 
1.29 3.43 -0.43 0.33 
1.31 3.29 -0.42 0.26 
1.33 3.17 -0.40 0.44 
1.36 3.08 -0.40 0.44 
1.40 3.02 -0.39 0.69 
1.45 2.98 -0.39 0.92 
1.52 2.97 -0.39 0.79 
1.59 2.97 -0.40 0.77 
1.67 2.97 -0.40 0.74 
1.74 2.97 -0.41 0.74 
1.82 2.97 -0.41 0.73 
1.90 2.97 -0.42 0.64 
1.98 2.98 -0.42 0.63 
2.07 2.99 -0.43 0.58 
2.17 3.01 -0.44 0.45 
2.29 3.05 -0.45 0.44 
5.59 7.17 -1.07 0.51 
5.58 6.88 -1.04 0.56 
5.60 6.65 -1.02 0.67 
5.65 6.45 -1.01 0.79 
5.70 6.27 -1.00 0.76 
5.74 6.08 -0.98 0.77 
5.82 5.93 -0.98 0.94 
5.97 5.85 -0.98 0.82 
6.17 5.83 -1.00 0.66 
6.41 5.83 -1.02 0.64 
6.70 5.86 -1.05 0.63 
6.96 5.86 -1.07 0.61 
7.23 5.86 -1.10 0.59 
7.53 5.87 -1.12 0.57 
7.84 5.88 -1.15 0.55 
8.17 5.89 -1.18 0.54 
8.51 5.89 -1.22 0.54 
8.88 5.90 -1.25 0.52 
9.17 5.85 -1.28 0.81 
9.54 5.83 -1.32 0.49 
9.96 5.84 -1.36 0.48 
12.87 7.21 -1.74 0.11 
13.01 6.97 -1.74 0.11 
13.14 6.73 -1.74 0.11 
13.27 6.48 -1.74 0.11 
13.40 6.23 -1.74 0.11 
13.52 5.98 -1.74 0.11 
13.63 5.72 -1.74 0.11 
13.74 5.46 -1.74 0.11 
13.85 5.21 -1.74 0.11 
13.95 4.94 -1.74 0.11 
14.04 4.68 -1.74 0.11 
14.13 4.42 -1.74 0.11 
14.22 4.15 -1.74 0.11 
14.30 3.88 -1.74 0.11 
14.37 3.61 -1.74 0.11 
14.44 3.34 -1.74 0.11 
14.50 3.06 -1.74 0.11 
14.56 2.79 -1.75 0.11 
14.62 2.51 -1.75 0.11 
14.66 2.24 -1.75 0.11 
14.71 1.96 -1.75 0.11 
14.74 1.68 -1.75 0.11 
14.77 1.40 -1.75 0.11 
14.80 1.12 -1.75 0.11 
14.82 0.84 -1.75 0.11 
14.83 0.56 -1.75 0.11 
14.84 0.28 -1.75 0.11 
14.85 -0.00 -1.75 0.11 
14.84 -0.28 -1.75 0.11 
14.84 -0.56 -1.75 0.11 
14.82 -0.84 -1.75 0.11 
14.81 -1.12 -1.75 0.11 
14.78 -1.40 -1.75 0.11 
14.75 -1.68 -1.75 0.11 
14.72 -1.96 -1.75 0.11 
14.68 -2.24 -1.75 0.11 
14.63 -2.52 -1.75 0.11 
14.58 -2.79 -1.75 0.11 
14.52 -3.07 -1.75 0.11 
14.46 -3.34 -1.75 0.11 
14.39 -3.61 -1.75 0.11 
14.32 -3.89 -1.75 0.11 
14.24 -4.15 -1.75 0.11 
14.16 -4.42 -1.75 0.11 
14.07 -4.69 -1.75 0.11 
13.97 -4.95 -1.74 0.11 
13.88 -5.22 -1.74 0.11 
13.77 -5.48 -1.74 0.11 
13.66 -5.73 -1.74 0.11 
13.55 -5.99 -1.74 0.11 
13.43 -6.24 -1.74 0.11 
13.30 -6.50 -1.74 0.11 
13.17 -6.74 -1.74 0.11 
13.04 -6.99 -1.74 0.11 
12.90 -7.23 -1.74 0.11 
12.76 -7.47 -1.74 0.11 
12.61 -7.71 -1.74 0.11 
12.46 -7.95 -1.74 0.11 
4.76 -3.16 -0.67 0.53 
4.58 -3.17 -0.65 0.53 
4.40 -3.17 -0.64 0.56 
4.24 -3.18 -0.62 0.57 
4.09 -3.19 -0.61 0.63 
3.95 -3.20 -0.60 0.68 
3.82 -3.22 -0.59 0.75 
3.71 -3.25 -0.58 0.72 
3.62 -3.30 -0.58 0.80 
3.58 -3.38 -0.58 0.60 
3.56 -3.49 -0.59 0.57 
3.54 -3.61 -0.60 0.56 
3.53 -3.74 -0.61 0.55 
3.52 -3.87 -0.62 0.54 
8.79 -10.04 -1.57 0.11 
8.59 -10.20 -1.57 0.11 
8.39 -10.35 -1.57 0.11 
8.19 -10.50 -1.57 0.11 
7.99 -10.65 -1.57 0.11 
7.78 -10.79 -1.57 0.11 
7.57 -10.93 -1.57 0.11 
7.36 -11.07 -1.56 0.11 
7.14 -11.20 -1.56 0.11 
6.92 -11.32 -1.56 0.11 
6.70 -11.45 -1.56 0.11 
6.48 -11.56 -1.56 0.11 
6.26 -11.68 -1.56 0.11 
6.03 -11.79 -1.56 0.11 
5.81 -11.89 -1.56 0.11 
5.58 -11.99 -1.56 0.11 
5.34 -12.08 -1.56 0.11 
5.11 -12.18 -1.55 0.11 
4.88 -12.26 -1.55 0.11 
4.64 -12.34 -1.55 0.11 
4.40 -12.42 -1.55 0.11 
4.16 -12.49 -1.55 0.11 
3.92 -12.56 -1.55 0.11 
3.68 -12.62 -1.55 0.11 
3.44 -12.68 -1.55 0.11 
3.20 -12.74 -1.55 0.11 
2.95 -12.79 -1.54 0.11 
2.71 -12.83 -1.54 0.11 
2.47 -12.87 -1.54 0.11 
2.22 -12.90 -1.54 0.11 
1.97 -12.93 -1.54 0.11 
1.73 -12.96 -1.54 0.11 
1.48 -12.98 -1.54 0.11 
1.23 -13.00 -1.54 0.11 
0.99 -13.01 -1.54 0.11 
0.74 -13.02 -1.53 0.11 
0.49 -13.02 -1.53 0.11 
0.25 -13.01 -1.53 0.11 
0.00 -13.01 -1.53 0.11 
-0.25 -13.00 -1.53 0.11 
-0.49 -12.98 -1.53 0.11 
-0.74 -12.96 -1.53 0.11 
-0.98 -12.93 -1.53 0.11 
-1.22 -12.90 -1.53 0.11 
-1.47 -12.87 -1.52 0.11 
-1.71 -12.83 -1.52 0.11 
-1.95 -12.78 -1.52 0.11 
-2.19 -12.73 -1.52 0.11 
-2.43 -12.68 -1.52 0.11 
-2.67 -12.62 -1.52 0.11 
-2.90 -12.56 -1.52 0.11 
-3.14 -12.50 -1.52 0.11 
-3.37 -12.42 -1.52 0.11 
-3.60 -12.35 -1.51 0.11 
-3.83 -12.27 -1.51 0.11 
-4.06 -12.19 -1.51 0.11 
-4.29 -12.10 -1.51 0.11 
-4.51 -12.01 -1.51 0.11 
-4.74 -11.91 -1.51 0.11 
-4.96 -11.81 -1.51 0.11 
-5.18 -11.71 -1.51 0.11 
-5.39 -11.60 -1.51 0.11 
-5.61 -11.49 -1.50 0.11 
-5.82 -11.37 -1.50 0.11 
-6.03 -11.25 -1.50 0.11 
-6.24 -11.13 -1.50 0.11 
-6.44 -11.00 -1.50 0.11 
-6.65 -10.87 -1.50 0.11 
-6.85 -10.74 -1.50 0.11 
-7.04 -10.60 -1.50 0.11 
-7.24 -10.46 -1.50 0.11 
-7.43 -10.31 -1.50 0.11 
-7.62 -10.16 -1.49 0.11 
-7.81 -10.01 -1.49 0.11 
-7.99 -9.85 -1.49 0.11 
-8.17 -9.70 -1.49 0.11 
-8.35 -9.53 -1.49 0.11 
-8.52 -9.37 -1.49 0.11 
-8.12 -8.59 -1.39 0.66 
-8.39 -8.55 -1.41 0.67 
-9.02 -8.85 -1.49 0.11 
-9.19 -8.68 -1.49 0.11 
-9.34 -8.50 -1.49 0.11 
-9.50 -8.32 -1.49 0.11 
-9.65 -8.13 -1.48 0.11 
-9.80 -7.94 -1.48 0.11 
-10.05 -7.84 -1.50 0.59 
-10.45 -7.84 -1.54 0.58 
-10.86 -7.83 -1.58 0.56 
-11.30 -7.82 -1.62 0.55 
-11.49 -7.64 -1.62 0.12 
-11.65 -7.43 -1.63 0.12 
-11.79 -7.21 -1.63 0.11 
-11.92 -6.99 -1.63 0.11 
-12.05 -6.76 -1.63 0.11 
-12.17 -6.52 -1.63 0.11 
-12.29 -6.29 -1.62 0.11 
-12.40 -6.05 -1.62 0.11 
-12.51 -5.82 -1.62 0.11 
-12.61 -5.58 -1.62 0.11 
-12.71 -5.34 -1.62 0.11 
-12.80 -5.09 -1.62 0.11 
-12.89 -4.85 -1.62 0.11 
-12.98 -4.60 -1.62 0.11 
-13.06 -4.35 -1.62 0.11 
-13.14 -4.10 -1.62 0.11 
-13.21 -3.85 -1.62 0.11 
-13.28 -3.60 -1.62 0.11 
-13.34 -3.35 -1.62 0.11 
-13.40 -3.10 -1.62 0.11 
-13.45 -2.84 -1.62 0.11 
-13.50 -2.59 -1.62 0.11 
-13.54 -2.33 -1.62 0.11 
-6.83 -1.04 -0.81 0.38 
-6.75 -0.90 -0.80 0.88 
-6.72 -0.77 -0.80 0.89 
-6.69 -0.64 -0.79 0.89 
-6.67 -0.51 -0.79 0.94 
-6.66 -0.38 -0.79 0.94 
-6.65 -0.25 -0.78 0.94 
-6.64 -0.13 -0.78 0.94 
-6.64 -0.00 -0.79 0.95 
-6.65 0.13 -0.79 0.94 
-6.67 0.25 -0.79 0.94 
-6.68 0.38 -0.80 0.90 
-6.71 0.51 -0.80 0.90 
-6.75 0.64 -0.81 0.89 
-6.78 0.77 -0.81 0.72 
-13.48 1.80 -1.62 0.12 
-13.44 2.05 -1.62 0.12 
-13.40 2.30 -1.62 0.12 
-13.35 2.56 -1.62 0.12 
-13.30 2.81 -1.62 0.12 
-13.25 3.06 -1.62 0.12 
-13.19 3.31 -1.62 0.12 
-8.84 2.40 -1.09 0.83 
-8.31 2.42 -1.03 0.28 
-7.77 2.43 -0.97 0.29 
-7.29 2.43 -0.91 0.31 
-6.86 2.43 -0.87 0.33 
-6.47 2.43 -0.82 0.29 
-6.12 2.44 -0.78 0.49 
-5.93 2.49 -0.76 0.59 
-5.78 2.55 -0.75 0.60 
-5.68 2.64 -0.74 0.90 
-5.65 2.76 -0.75 0.87 
-5.64 2.89 -0.75 0.85 
-5.64 3.02 -0.76 0.84 
-5.63 3.16 -0.77 0.83 
-5.63 3.30 -0.78 0.82 
-5.63 3.44 -0.78 0.81 
-5.62 3.59 -0.79 0.79 
-5.62 3.74 -0.80 0.79 
-5.62 3.89 -0.81 0.78 
-5.62 4.05 -0.82 0.76 
-5.62 4.21 -0.83 0.75 
-7.61 5.94 -1.15 0.58 
-7.33 5.95 -1.12 0.65 
-7.09 5.98 -1.10 0.64 
-6.83 5.98 -1.08 0.62 
-6.58 5.98 -1.06 0.65 
-6.38 6.02 -1.04 0.89 
-6.22 6.10 -1.04 0.95 
-6.09 6.20 -1.03 0.96 
-5.97 6.31 -1.03 0.85 
-5.90 6.49 -1.04 0.83 
-5.87 6.70 -1.06 0.67 
-5.86 6.96 -1.08 0.60 
-5.87 7.24 -1.11 0.57 
-8.45 10.83 -1.63 0.13 
-8.23 10.98 -1.63 0.13 
-7.99 11.09 -1.62 0.77 
-7.68 11.09 -1.60 0.78 
-7.38 11.10 -1.58 0.79 
-7.08 11.10 -1.57 0.80 
-6.79 11.10 -1.55 0.81 
-6.51 11.11 -1.53 0.82 
-6.23 11.11 -1.51 0.83 
-5.96 11.12 -1.50 0.67 
-5.74 11.20 -1.50 0.11 
-5.53 11.32 -1.50 0.11 
-5.31 11.43 -1.50 0.11 
-5.10 11.53 -1.50 0.11 
-4.88 11.63 -1.50 0.11 
-4.67 11.73 -1.50 0.11 
-4.45 11.83 -1.50 0.11 
-4.22 11.92 -1.50 0.11 
-4.00 12.00 -1.50 0.11 
-3.78 12.08 -1.51 0.11 
-3.55 12.16 -1.51 0.11 
-3.32 12.23 -1.51 0.11 
-3.09 12.30 -1.51 0.11 
-2.86 12.37 -1.51 0.11 
-2.63 12.43 -1.51 0.11 
-2.39 12.49 -1.51 0.11 
-2.16 12.54 -1.51 0.11 
-1.92 12.58 -1.51 0.11 
-1.68 12.63 -1.51 0.11 
-1.44 12.67 -1.52 0.11 
-1.21 12.70 -1.52 0.11 
-0.97 12.73 -1.52 0.11 
-0.73 12.76 -1.52 0.11 
-0.48 12.78 -1.52 0.11 
-0.24 12.79 -1.52 0.11 
0.00 12.80 -1.52 0.11 
0.24 12.81 -1.52 0.11 
0.49 12.81 -1.52 0.11 
0.73 12.81 -1.53 0.11 
0.97 12.81 -1.53 0.11 
1.21 12.79 -1.53 0.11 
1.46 12.78 -1.53 0.11 
1.70 12.76 -1.53 0.11 
1.94 12.73 -1.53 0.11 
2.18 12.70 -1.53 0.11 
2.43 12.67 -1.53 0.11 
2.67 12.63 -1.53 0.11 
2.91 12.59 -1.54 0.11 
3.15 12.54 -1.54 0.11 
3.39 12.48 -1.54 0.11 
3.63 12.43 -1.54 0.11 
3.86 12.37 -1.54 0.11 
4.10 12.30 -1.54 0.11 
1.27 3.59 -0.45 0.16 
1.29 3.42 -0.43 0.33 
1.30 3.28 -0.42 0.27 
1.33 3.16 -0.41 0.43 
1.36 3.07 -0.40 0.44 
1.40 3.02 -0.40 0.69 
1.45 2.97 -0.39 0.92 
1.52 2.97 -0.40 0.79 
1.59 2.97 -0.40 0.77 
1.66 2.97 -0.40 0.74 
1.74 2.97 -0.41 0.74 
1.81 2.97 -0.41 0.73 
1.89 2.97 -0.42 0.64 
1.98 2.98 -0.42 0.64 
2.06 2.98 -0.43 0.58 
2.17 3.01 -0.44 0.45 
2.28 3.05 -0.45 0.44 
5.58 7.16 -1.08 0.51 
5.57 6.87 -1.05 0.60 
5.60 6.65 -1.03 0.67 
5.64 6.44 -1.02 0.79 
5.70 6.27 -1.01 0.76 
5.74 6.08 -0.99 0.77 
5.82 5.93 -0.99 0.94 
5.96 5.85 -0.99 0.82 
6.17 5.83 -1.01 0.66 
6.41 5.83 -1.03 0.64 
6.70 5.86 -1.06 0.63 
6.95 5.86 -1.08 0.61 
7.23 5.86 -1.11 0.59 
7.53 5.87 -1.13 0.57 
7.84 5.88 -1.16 0.55 
8.17 5.89 -1.20 0.54 
8.51 5.89 -1.23 0.54 
8.88 5.90 -1.27 0.52 
9.17 5.85 -1.29 0.81 
9.54 5.83 -1.33 0.49 
9.96 5.84 -1.37 0.48 
12.73 7.14 -1.74 0.11 
12.87 6.90 -1.74 0.11 
13.00 6.66 -1.74 0.11 
13.13 6.41 -1.74 0.11 
13.25 6.16 -1.74 0.11 
13.37 5.91 -1.74 0.11 
13.49 5.66 -1.74 0.11 
13.60 5.41 -1.74 0.11 
13.70 5.15 -1.74 0.11 
13.80 4.89 -1.74 0.11 
13.89 4.63 -1.74 0.11 
13.98 4.37 -1.74 0.11 
14.07 4.10 -1.74 0.11 
14.15 3.84 -1.74 0.11 
14.22 3.57 -1.74 0.11 
14.29 3.30 -1.74 0.11 
14.35 3.03 -1.74 0.11 
14.41 2.76 -1.74 0.11 
14.46 2.49 -1.74 0.11 
14.51 2.21 -1.75 0.11 
14.55 1.94 -1.75 0.11 
14.59 1.66 -1.75 0.11 
14.62 1.39 -1.75 0.11 
14.64 1.11 -1.75 0.11 
14.66 0.83 -1.75 0.11 
14.68 0.56 -1.75 0.11 
14.69 0.28 -1.75 0.11 
14.69 -0.00 -1.75 0.11 
14.69 -0.28 -1.75 0.11 
14.68 -0.56 -1.75 0.11 
14.67 -0.83 -1.75 0.11 
14.65 -1.11 -1.75 0.11 
14.62 -1.39 -1.75 0.11 
14.60 -1.66 -1.75 0.11 
14.56 -1.94 -1.75 0.11 
14.52 -2.22 -1.75 0.11 
14.48 -2.49 -1.75 0.11 
14.42 -2.76 -1.75 0.11 
14.37 -3.04 -1.75 0.11 
14.31 -3.31 -1.75 0.11 
14.24 -3.58 -1.75 0.11 
14.17 -3.84 -1.75 0.11 
14.09 -4.11 -1.75 0.11 
14.01 -4.38 -1.74 0.11 
13.92 -4.64 -1.74 0.11 
13.83 -4.90 -1.74 0.11 
13.73 -5.16 -1.74 0.11 
13.63 -5.42 -1.74 0.11 
13.52 -5.67 -1.74 0.11 
13.40 -5.93 -1.74 0.11 
13.29 -6.18 -1.74 0.11 
13.16 -6.43 -1.74 0.11 
13.03 -6.67 -1.74 0.11 
12.90 -6.92 -1.74 0.11 
12.77 -7.16 -1.74 0.11 
12.62 -7.39 -1.74 0.11 
12.48 -7.63 -1.74 0.11 
12.33 -7.86 -1.74 0.11 
4.76 -3.16 -0.68 0.53 
4.57 -3.17 -0.66 0.53 
4.40 -3.17 -0.64 0.55 
4.23 -3.17 -0.63 0.57 
4.09 -3.19 -0.62 0.64 
3.95 -3.20 -0.60 0.68 
3.82 -3.22 -0.59 0.75 
3.71 -3.25 -0.59 0.72 
3.62 -3.29 -0.58 0.81 
3.57 -3.37 -0.58 0.61 
3.55 -3.49 -0.59 0.57 
3.54 -3.61 -0.60 0.56 
3.52 -3.73 -0.61 0.55 
3.52 -3.87 -0.62 0.54 
8.70 -9.93 -1.57 0.11 
8.50 -10.09 -1.57 0.11 
8.31 -10.24 -1.57 0.11 
8.11 -10.39 -1.57 0.11 
7.90 -10.54 -1.57 0.11 
7.70 -10.68 -1.57 0.11 
7.49 -10.82 -1.56 0.11 
7.28 -10.95 -1.56 0.11 
7.07 -11.08 -1.56 0.11 
6.85 -11.21 -1.56 0.11 
6.64 -11.33 -1.56 0.11 
6.42 -11.44 -1.56 0.11 
6.19 -11.56 -1.56 0.11 
5.97 -11.66 -1.56 0.11 
5.74 -11.77 -1.56 0.11 
5.52 -11.86 -1.56 0.11 
5.29 -11.96 -1.55 0.11 
5.06 -12.05 -1.55 0.11 
4.83 -12.13 -1.55 0.11 
4.59 -12.22 -1.55 0.11 
4.36 -12.29 -1.55 0.11 
4.12 -12.36 -1.55 0.11 
3.88 -12.43 -1.55 0.11 
3.65 -12.49 -1.55 0.11 
3.41 -12.55 -1.55 0.11 
3.17 -12.60 -1.55 0.11 
2.92 -12.65 -1.54 0.11 
2.68 -12.70 -1.54 0.11 
2.44 -12.74 -1.54 0.11 
2.20 -12.77 -1.54 0.11 
1.95 -12.80 -1.54 0.11 
1.71 -12.83 -1.54 0.11 
1.47 -12.85 -1.54 0.11 
1.22 -12.86 -1.54 0.11 
0.98 -12.88 -1.54 0.11 
0.73 -12.88 -1.53 0.11 
0.49 -12.88 -1.53 0.11 
0.24 -12.88 -1.53 0.11 
0.00 -12.87 -1.53 0.11 
-0.24 -12.86 -1.53 0.11 
-0.49 -12.85 -1.53 0.11 
-0.73 -12.83 -1.53 0.11 
-0.97 -12.80 -1.53 0.11 
-1.21 -12.77 -1.53 0.11 
-1.45 -12.74 -1.52 0.11 
-1.69 -12.70 -1.52 0.11 
-1.93 -12.65 -1.52 0.11 
-2.17 -12.60 -1.52 0.11 
-2.40 -12.55 -1.52 0.11 
-2.64 -12.50 -1.52 0.11 
-2.87 -12.43 -1.52 0.11 
-3.11 -12.37 -1.52 0.11 
-3.34 -12.30 -1.52 0.11 
-3.57 -12.22 -1.51 0.11 
-3.79 -12.15 -1.51 0.11 
-4.02 -12.06 -1.51 0.11 
-4.25 -11.98 -1.51 0.11 
-4.47 -11.89 -1.51 0.11 
-4.69 -11.79 -1.51 0.11 
-4.91 -11.69 -1.51 0.11 
-5.13 -11.59 -1.51 0.11 
-5.34 -11.48 -1.51 0.11 
-5.55 -11.37 -1.50 0.11 
-5.76 -11.26 -1.50 0.11 
-5.97 -11.14 -1.50 0.11 
-6.18 -11.02 -1.50 0.11 
-6.38 -10.89 -1.50 0.11 
-6.58 -10.76 -1.50 0.11 
-6.78 -10.63 -1.50 0.11 
-6.97 -10.49 -1.50 0.11 
-7.17 -10.35 -1.50 0.11 
-7.36 -10.21 -1.50 0.11 
-7.54 -10.06 -1.50 0.11 
-7.73 -9.91 -1.49 0.11 
-7.91 -9.76 -1.49 0.11 
-8.09 -9.60 -1.49 0.11 
-8.26 -9.44 -1.49 0.11 
-8.44 -9.28 -1.49 0.11 
-8.12 -8.59 -1.41 0.66 
-8.39 -8.55 -1.42 0.67 
-8.93 -8.77 -1.49 0.12 
-9.09 -8.59 -1.49 0.12 
-9.25 -8.41 -1.49 0.12 
-9.40 -8.23 -1.49 0.12 
-9.55 -8.05 -1.49 0.12 
-9.70 -7.86 -1.48 0.12 
-10.05 -7.84 -1.52 0.59 
-10.44 -7.83 -1.55 0.58 
-10.86 -7.83 -1.59 0.56 
-11.22 -7.77 -1.62 0.12 
-11.39 -7.57 -1.63 0.12 
-11.55 -7.36 -1.63 0.12 
-11.68 -7.14 -1.63 0.12 
-11.81 -6.92 -1.63 0.12 
-11.93 -6.69 -1.63 0.12 
-12.05 -6.46 -1.63 0.12 
-12.17 -6.23 -1.63 0.12 
-12.28 -5.99 -1.62 0.12 
-12.38 -5.76 -1.62 0.12 
-12.49 -5.52 -1.62 0.12 
-12.58 -5.28 -1.62 0.12 
-12.68 -5.04 -1.62 0.12 
-12.77 -4.80 -1.62 0.12 
-12.85 -4.56 -1.62 0.12 
-12.93 -4.31 -1.62 0.12 
-13.01 -4.06 -1.62 0.12 
-13.08 -3.82 -1.62 0.12 
-13.15 -3.57 -1.62 0.12 
-13.21 -3.32 -1.62 0.12 
-13.27 -3.07 -1.62 0.12 
-13.32 -2.81 -1.62 0.12 
-13.37 -2.56 -1.62 0.12 
-13.41 -2.31 -1.62 0.12 
-6.82 -1.04 -0.82 0.38 
-6.75 -0.90 -0.81 0.88 
-6.72 -0.77 -0.80 0.89 
-6.69 -0.63 -0.80 0.89 
-6.67 -0.51 -0.80 0.94 
-6.66 -0.38 -0.79 0.94 
-6.64 -0.25 -0.79 0.94 
-6.63 -0.13 -0.79 0.94 
-6.64 -0.00 -0.80 0.95 
-6.65 0.13 -0.80 0.94 
-6.66 0.25 -0.80 0.94 
-6.68 0.38 -0.80 0.90 
-6.71 0.51 -0.81 0.90 
-6.74 0.64 -0.81 0.89 
-6.78 0.77 -0.82 0.72 
-13.34 1.78 -1.62 0.12 
-13.31 2.03 -1.62 0.12 
-13.27 2.28 -1.62 0.12 
-13.22 2.53 -1.62 0.12 
-13.18 2.78 -1.62 0.12 
-13.12 3.03 -1.62 0.12 
-13.06 3.28 -1.62 0.12 
-8.83 2.40 -1.10 0.83 
-8.31 2.42 -1.04 0.27 
-7.77 2.43 -0.98 0.29 
-7.29 2.43 -0.92 0.31 
-6.86 2.43 -0.87 0.33 
-6.47 2.43 -0.83 0.29 
-6.12 2.43 -0.79 0.49 
-5.92 2.48 -0.77 0.59 
-5.77 2.55 -0.76 0.60 
-5.67 2.64 -0.75 0.90 
-5.64 2.76 -0.75 0.86 
-5.64 2.89 -0.76 0.85 
-5.64 3.02 -0.77 0.84 
-5.63 3.16 -0.78 0.83 
-5.63 3.30 -0.78 0.82 
-5.62 3.44 -0.79 0.81 
-5.62 3.59 -0.80 0.76 
-5.62 3.74 -0.81 0.79 
-5.62 3.89 -0.82 0.78 
-5.62 4.05 -0.83 0.77 
-5.61 4.21 -0.84 0.75 
-7.61 5.93 -1.16 0.58 
-7.33 5.95 -1.13 0.65 
-7.09 5.98 -1.11 0.64 
-6.83 5.98 -1.09 0.62 
-6.57 5.98 -1.07 0.62 
-6.38 6.02 -1.05 0.89 
-6.22 6.10 -1.05 0.95 
-6.09 6.20 -1.04 0.96 
-5.96 6.31 -1.04 0.85 
-5.90 6.49 -1.05 0.83 
-5.87 6.70 -1.07 0.67 
-5.86 6.95 -1.09 0.60 
-5.87 7.24 -1.12 0.57 
-8.37 10.74 -1.64 0.13 
-8.16 10.88 -1.63 0.13 
-7.95 11.02 -1.63 0.13 
-7.68 11.09 -1.62 0.78 
-7.37 11.09 -1.60 0.79 
-7.08 11.10 -1.58 0.80 
-6.79 11.10 -1.56 0.81 
-6.51 11.11 -1.55 0.82 
-6.23 11.11 -1.53 0.83 
-5.96 11.11 -1.51 0.84 
-5.69 11.12 -1.50 0.68 
-5.47 11.21 -1.50 0.12 
-5.26 11.31 -1.50 0.12 
-5.05 11.42 -1.50 0.12 
-4.84 11.52 -1.50 0.12 
-4.62 11.62 -1.50 0.12 
-4.40 11.71 -1.50 0.12 
-4.18 11.80 -1.50 0.12 
-3.96 11.88 -1.50 0.12 
-3.74 11.96 -1.51 0.11 
-3.51 12.04 -1.51 0.11 
-3.29 12.11 -1.51 0.11 
-3.06 12.18 -1.51 0.11 
-2.83 12.25 -1.51 0.11 
-2.60 12.31 -1.51 0.11 
-2.37 12.36 -1.51 0.11 
-2.13 12.41 -1.51 0.11 
-1.90 12.46 -1.51 0.11 
-1.67 12.50 -1.51 0.11 
-1.43 12.54 -1.52 0.11 
-1.19 12.57 -1.52 0.11 
-0.96 12.60 -1.52 0.11 
-0.72 12.63 -1.52 0.11 
-0.48 12.65 -1.52 0.11 
-0.24 12.66 -1.52 0.11 
0.00 12.68 -1.52 0.11 
0.24 12.68 -1.52 0.11 
0.48 12.68 -1.52 0.11 
0.72 12.68 -1.53 0.11 
0.96 12.68 -1.53 0.11 
1.20 12.66 -1.53 0.11 
1.44 12.65 -1.53 0.11 
1.68 12.63 -1.53 0.11 
1.92 12.60 -1.53 0.11 
2.16 12.57 -1.53 0.11 
2.40 12.54 -1.53 0.11 
2.64 12.50 -1.53 0.11 
2.88 12.46 -1.54 0.11 
3.12 12.41 -1.54 0.11 
3.35 12.36 -1.54 0.11 
3.59 12.30 -1.54 0.11 
3.82 12.24 -1.54 0.11 
4.06 12.17 -1.54 0.11 
1.26 3.57 -0.45 0.16 
1.28 3.41 -0.44 0.34 
1.30 3.27 -0.42 0.33 
1.33 3.16 -0.41 0.43 
1.36 3.06 -0.40 0.64 
1.40 3.01 -0.40 0.69 
1.45 2.97 -0.40 0.92 
1.52 2.97 -0.40 0.79 
1.59 2.97 -0.40 0.77 
1.66 2.97 -0.41 0.74 
1.74 2.97 -0.41 0.74 
1.81 2.97 -0.42 0.73 
1.89 2.97 -0.42 0.64 
1.98 2.97 -0.43 0.64 
2.06 2.98 -0.43 0.58 
2.16 3.00 -0.44 0.45 
2.28 3.04 -0.46 0.44 
5.58 7.15 -1.09 0.51 
5.56 6.86 -1.06 0.60 
5.60 6.64 -1.04 0.67 
5.64 6.44 -1.03 0.79 
5.70 6.26 -1.02 0.76 
5.74 6.07 -1.00 0.77 
5.82 5.93 -1.00 0.94 
5.96 5.85 -1.00 0.82 
6.17 5.83 -1.02 0.66 
6.41 5.83 -1.04 0.64 
6.70 5.86 -1.07 0.63 
6.95 5.86 -1.09 0.61 
7.23 5.86 -1.12 0.59 
7.52 5.87 -1.15 0.57 
7.84 5.88 -1.18 0.55 
8.17 5.89 -1.21 0.54 
8.51 5.89 -1.24 0.54 
8.87 5.90 -1.28 0.52 
9.17 5.85 -1.31 0.81 
9.54 5.83 -1.34 0.49 
9.96 5.84 -1.39 0.48 
12.60 7.06 -1.73 0.11 
12.73 6.83 -1.74 0.11 
12.87 6.59 -1.74 0.11 
12.99 6.34 -1.74 0.11 
13.12 6.10 -1.74 0.11 
13.23 5.85 -1.74 0.11 
13.35 5.60 -1.74 0.11 
13.45 5.35 -1.74 0.11 
13.56 5.10 -1.74 0.11 
13.66 4.84 -1.74 0.11 
13.75 4.58 -1.74 0.11 
13.84 4.32 -1.74 0.11 
13.92 4.06 -1.74 0.11 
14.00 3.80 -1.74 0.11 
14.07 3.53 -1.74 0.11 
14.14 3.27 -1.74 0.11 
14.20 3.00 -1.74 0.11 
14.26 2.73 -1.74 0.11 
14.31 2.46 -1.74 0.11 
14.36 2.19 -1.74 0.11 
14.40 1.92 -1.74 0.11 
14.43 1.65 -1.74 0.11 
14.46 1.37 -1.75 0.11 
14.49 1.10 -1.75 0.11 
14.51 0.82 -1.75 0.11 
14.52 0.55 -1.75 0.11 
14.53 0.28 -1.75 0.11 
14.54 -0.00 -1.75 0.11 
14.53 -0.28 -1.75 0.11 
14.53 -0.55 -1.75 0.11 
14.51 -0.82 -1.75 0.11 
14.49 -1.10 -1.75 0.11 
14.47 -1.37 -1.75 0.11 
14.44 -1.65 -1.75 0.11 
14.41 -1.92 -1.75 0.11 
14.37 -2.19 -1.75 0.11 
14.32 -2.46 -1.75 0.11 
14.27 -2.73 -1.75 0.11 
14.22 -3.00 -1.75 0.11 
14.16 -3.27 -1.75 0.11 
14.09 -3.54 -1.75 0.11 
14.02 -3.80 -1.74 0.11 
13.94 -4.07 -1.74 0.11 
13.86 -4.33 -1.74 0.11 
13.77 -4.59 -1.74 0.11 
13.68 -4.85 -1.74 0.11 
13.58 -5.11 -1.74 0.11 
13.48 -5.36 -1.74 0.11 
13.38 -5.61 -1.74 0.11 
13.26 -5.87 -1.74 0.11 
13.15 -6.11 -1.74 0.11 
13.02 -6.36 -1.74 0.11 
12.90 -6.60 -1.74 0.11 
12.77 -6.84 -1.74 0.11 
12.63 -7.08 -1.74 0.11 
12.49 -7.32 -1.74 0.11 
12.35 -7.55 -1.74 0.11 
12.20 -7.78 -1.74 0.11 
4.75 -3.16 -0.69 0.53 
4.57 -3.16 -0.67 0.53 
4.39 -3.17 -0.65 0.55 
4.23 -3.17 -0.63 0.57 
4.08 -3.18 -0.62 0.64 
3.94 -3.20 -0.61 0.68 
3.82 -3.22 -0.60 0.75 
3.70 -3.24 -0.59 0.72 
3.62 -3.29 -0.59 0.81 
3.57 -3.37 -0.59 0.63 
3.55 -3.48 -0.60 0.57 
3.53 -3.60 -0.61 0.56 
3.52 -3.72 -0.62 0.55 
3.51 -3.86 -0.63 0.54 
8.61 -9.83 -1.57 0.11 
8.42 -9.99 -1.57 0.11 
8.22 -10.14 -1.57 0.11 
8.02 -10.29 -1.57 0.11 
7.82 -10.43 -1.57 0.11 
7.62 -10.57 -1.57 0.11 
7.41 -10.71 -1.56 0.11 
7.21 -10.84 -1.56 0.11 
6.99 -10.97 -1.56 0.11 
6.78 -11.09 -1.56 0.11 
6.57 -11.21 -1.56 0.11 
6.35 -11.32 -1.56 0.11 
6.13 -11.44 -1.56 0.11 
5.91 -11.54 -1.56 0.11 
5.69 -11.65 -1.56 0.11 
5.46 -11.74 -1.56 0.11 
5.23 -11.84 -1.55 0.11 
5.01 -11.93 -1.55 0.11 
4.78 -12.01 -1.55 0.11 
4.55 -12.09 -1.55 0.11 
4.31 -12.17 -1.55 0.11 
4.08 -12.24 -1.55 0.11 
3.84 -12.30 -1.55 0.11 
3.61 -12.37 -1.55 0.11 
3.37 -12.42 -1.55 0.11 
3.13 -12.48 -1.55 0.11 
2.89 -12.52 -1.54 0.11 
2.65 -12.57 -1.54 0.11 
2.41 -12.61 -1.54 0.11 
2.17 -12.64 -1.54 0.11 
1.93 -12.67 -1.54 0.11 
1.69 -12.70 -1.54 0.11 
1.45 -12.72 -1.54 0.11 
1.21 -12.73 -1.54 0.11 
0.97 -12.74 -1.54 0.11 
0.72 -12.75 -1.53 0.11 
0.48 -12.75 -1.53 0.11 
0.24 -12.75 -1.53 0.11 
0.00 -12.74 -1.53 0.11 
-0.24 -12.73 -1.53 0.11 
-0.48 -12.72 -1.53 0.11 
-0.72 -12.70 -1.53 0.11 
-0.96 -12.67 -1.53 0.11 
-1.20 -12.64 -1.53 0.11 
-1.44 -12.61 -1.52 0.11 
-1.67 -12.57 -1.52 0.11 
-1.91 -12.53 -1.52 0.11 
-2.15 -12.48 -1.52 0.11 
-2.38 -12.43 -1.52 0.11 
-2.61 -12.37 -1.52 0.11 
-2.84 -12.31 -1.52 0.11 
-3.07 -12.24 -1.52 0.11 
-3.30 -12.18 -1.52 0.11 
-3.53 -12.10 -1.51 0.11 
-3.76 -12.02 -1.51 0.11 
-3.98 -11.94 -1.51 0.11 
-4.20 -11.86 -1.51 0.11 
-4.42 -11.77 -1.51 0.11 
-4.64 -11.67 -1.51 0.11 
-4.86 -11.58 -1.51 0.11 
-5.07 -11.47 -1.51 0.11 
-5.29 -11.37 -1.51 0.11 
-5.50 -11.26 -1.50 0.12 
-5.71 -11.15 -1.50 0.12 
-5.91 -11.03 -1.50 0.12 
-6.12 -10.91 -1.50 0.12 
-6.32 -10.78 -1.50 0.12 
-6.52 -10.65 -1.50 0.12 
-6.71 -10.52 -1.50 0.12 
-6.91 -10.39 -1.50 0.12 
-7.10 -10.25 -1.50 0.12 
-7.28 -10.11 -1.50 0.12 
-7.47 -9.96 -1.50 0.12 
-7.65 -9.81 -1.49 0.12 
-7.83 -9.66 -1.49 0.12 
-8.01 -9.50 -1.49 0.12 
-8.18 -9.35 -1.49 0.12 
-8.35 -9.18 -1.49 0.12 
-8.12 -8.59 -1.42 0.66 
-8.39 -8.55 -1.44 0.67 
-8.85 -8.68 -1.49 0.12 
-9.00 -8.51 -1.49 0.12 
-9.16 -8.33 -1.49 0.12 
-9.31 -8.15 -1.49 0.12 
-9.46 -7.97 -1.49 0.12 
-9.67 -7.84 -1.50 0.60 
-10.05 -7.84 -1.53 0.59 
-10.44 -7.83 -1.57 0.58 
-10.85 -7.82 -1.61 0.56 
-11.12 -7.70 -1.62 0.13 
-11.28 -7.50 -1.63 0.13 
-11.43 -7.29 -1.63 0.12 
-11.56 -7.07 -1.63 0.12 
-11.69 -6.85 -1.63 0.12 
-11.81 -6.62 -1.63 0.12 
-11.93 -6.40 -1.63 0.12 
-12.05 -6.17 -1.63 0.12 
-12.16 -5.94 -1.62 0.12 
-12.26 -5.70 -1.62 0.12 
-12.36 -5.47 -1.62 0.12 
-12.46 -5.23 -1.62 0.12 
-12.55 -4.99 -1.62 0.12 
-12.64 -4.75 -1.62 0.12 
-12.73 -4.51 -1.62 0.12 
-12.81 -4.27 -1.62 0.12 
-12.88 -4.02 -1.62 0.12 
-12.95 -3.78 -1.62 0.12 
-13.02 -3.53 -1.62 0.12 
-13.08 -3.28 -1.62 0.12 
-13.14 -3.04 -1.62 0.12 
-13.19 -2.79 -1.62 0.12 
-13.24 -2.54 -1.62 0.12 
-13.28 -2.28 -1.62 0.12 
-6.81 -1.04 -0.83 0.41 
-6.75 -0.90 -0.82 0.88 
-6.72 -0.77 -0.81 0.89 
-6.69 -0.63 -0.81 0.90 
-6.67 -0.51 -0.80 0.94 
-6.65 -0.38 -0.80 0.94 
-6.64 -0.25 -0.80 0.94 
-6.63 -0.13 -0.80 0.94 
-6.64 -0.00 -0.81 0.95 
-6.65 0.13 -0.81 0.94 
-6.66 0.25 -0.81 0.94 
-6.68 0.38 -0.81 0.90 
-6.71 0.51 -0.82 0.90 
-6.74 0.64 -0.82 0.89 
-6.77 0.77 -0.83 0.89 
-13.22 1.76 -1.62 0.12 
-13.18 2.01 -1.62 0.12 
-13.14 2.26 -1.62 0.12 
-13.10 2.51 -1.62 0.12 
-13.05 2.76 -1.62 0.12 
-13.00 3.00 -1.62 0.12 
-12.94 3.25 -1.62 0.12 
-8.82 2.39 -1.11 0.83 
-8.31 2.42 -1.05 0.27 
-7.77 2.43 -0.99 0.29 
-7.29 2.43 -0.93 0.31 
-6.86 2.43 -0.88 0.33 
-6.47 2.43 -0.84 0.29 
-6.12 2.43 -0.80 0.49 
-5.91 2.48 -0.78 0.59 
-5.76 2.55 -0.76 0.89 
-5.67 2.64 -0.76 0.90 
-5.64 2.75 -0.76 0.86 
-5.64 2.89 -0.77 0.85 
-5.63 3.02 -0.78 0.84 
-5.63 3.16 -0.78 0.83 
-5.63 3.30 -0.79 0.82 
-5.62 3.44 -0.80 0.81 
-5.62 3.58 -0.81 0.76 
-5.62 3.73 -0.82 0.79 
-5.62 3.89 -0.83 0.78 
-5.61 4.05 -0.84 0.77 
-5.61 4.21 -0.85 0.75 
-7.61 5.93 -1.17 0.58 
-7.33 5.95 -1.15 0.65 
-7.09 5.98 -1.13 0.64 
-6.83 5.98 -1.10 0.62 
-6.57 5.98 -1.08 0.62 
-6.38 6.02 -1.06 0.89 
-6.22 6.10 -1.06 0.95 
-6.09 6.20 -1.05 0.96 
-5.96 6.31 -1.05 0.85 
-5.90 6.49 -1.06 0.83 
-5.87 6.70 -1.08 0.67 
-5.86 6.95 -1.10 0.60 
-5.86 7.23 -1.13 0.57 
-8.30 10.64 -1.64 0.13 
-8.09 10.79 -1.64 0.13 
-7.88 10.93 -1.63 0.13 
-7.66 11.07 -1.63 0.13 
-7.37 11.09 -1.62 0.79 
-7.08 11.09 -1.60 0.80 
-6.79 11.10 -1.58 0.81 
-6.50 11.10 -1.56 0.82 
-6.23 11.11 -1.54 0.83 
-5.96 11.11 -1.53 0.84 
-5.69 11.11 -1.51 0.85 
-5.43 11.12 -1.50 0.68 
-5.21 11.20 -1.50 0.12 
-5.00 11.31 -1.50 0.12 
-4.79 11.41 -1.50 0.12 
-4.57 11.50 -1.50 0.12 
-4.36 11.59 -1.50 0.12 
-4.14 11.68 -1.50 0.12 
-3.92 11.77 -1.50 0.12 
-3.70 11.85 -1.51 0.12 
-3.48 11.92 -1.51 0.12 
-3.25 11.99 -1.51 0.12 
-3.03 12.06 -1.51 0.12 
-2.80 12.12 -1.51 0.12 
-2.57 12.18 -1.51 0.12 
-2.34 12.24 -1.51 0.12 
-2.11 12.29 -1.51 0.12 
-1.88 12.34 -1.51 0.12 
-1.65 12.38 -1.51 0.12 
-1.42 12.42 -1.52 0.12 
-1.18 12.45 -1.52 0.12 
-0.95 12.48 -1.52 0.12 
-0.71 12.50 -1.52 0.12 
-0.47 12.52 -1.52 0.11 
-0.24 12.54 -1.52 0.11 
-0.00 12.55 -1.52 0.11 
0.24 12.56 -1.52 0.11 
0.48 12.56 -1.52 0.11 
0.71 12.56 -1.53 0.11 
0.95 12.55 -1.53 0.11 
1.19 12.54 -1.53 0.11 
1.43 12.52 -1.53 0.11 
1.67 12.50 -1.53 0.11 
1.90 12.48 -1.53 0.11 
2.14 12.45 -1.53 0.11 
2.38 12.41 -1.53 0.11 
2.61 12.38 -1.53 0.11 
2.85 12.33 -1.54 0.11 
3.09 12.29 -1.54 0.11 
3.32 12.23 -1.54 0.11 
3.55 12.18 -1.54 0.11 
3.79 12.12 -1.54 0.11 
4.02 12.05 -1.54 0.11 
1.26 3.55 -0.46 0.16 
1.28 3.40 -0.44 0.34 
1.30 3.26 -0.43 0.33 
1.32 3.15 -0.41 0.43 
1.35 3.06 -0.41 0.64 
1.40 3.01 -0.40 0.69 
1.45 2.97 -0.40 0.92 
1.52 2.97 -0.40 0.79 
1.59 2.96 -0.41 0.77 
1.66 2.96 -0.41 0.75 
1.74 2.96 -0.42 0.74 
1.81 2.96 -0.42 0.80 
1.89 2.96 -0.43 0.78 
1.97 2.97 -0.43 0.64 
2.06 2.97 -0.44 0.63 
2.16 3.00 -0.45 0.45 
2.28 3.03 -0.46 0.42 
5.57 7.14 -1.10 0.51 
5.56 6.86 -1.07 0.66 
5.59 6.64 -1.05 0.67 
5.63 6.44 -1.04 0.79 
5.70 6.26 -1.03 0.76 
5.73 6.07 -1.01 0.77 
5.82 5.93 -1.01 0.94 
5.96 5.85 -1.01 0.82 
6.17 5.83 -1.03 0.66 
6.41 5.83 -1.05 0.64 
6.70 5.86 -1.08 0.63 
6.95 5.86 -1.10 0.61 
7.23 5.86 -1.13 0.59 
7.52 5.87 -1.16 0.57 
7.84 5.88 -1.19 0.55 
8.16 5.88 -1.22 0.54 
8.51 5.89 -1.26 0.54 
8.87 5.90 -1.29 0.52 
9.17 5.85 -1.32 0.77 
9.54 5.83 -1.36 0.49 
9.96 5.84 -1.40 0.48 
12.47 6.99 -1.73 0.11 
12.60 6.76 -1.73 0.11 
12.73 6.52 -1.74 0.11 
12.86 6.28 -1.74 0.11 
12.98 6.04 -1.74 0.11 
13.10 5.79 -1.74 0.11 
13.21 5.54 -1.74 0.11 
13.32 5.30 -1.74 0.11 
13.42 5.04 -1.74 0.11 
13.51 4.79 -1.74 0.11 
13.61 4.54 -1.74 0.11 
13.69 4.28 -1.74 0.11 
13.78 4.02 -1.74 0.11 
13.85 3.76 -1.74 0.11 
13.93 3.50 -1.74 0.11 
13.99 3.23 -1.74 0.11 
14.05 2.97 -1.74 0.11 
14.11 2.70 -1.74 0.11 
14.16 2.44 -1.74 0.11 
14.21 2.17 -1.74 0.11 
14.25 1.90 -1.74 0.11 
14.28 1.63 -1.74 0.11 
14.31 1.36 -1.74 0.11 
14.34 1.09 -1.74 0.11 
14.36 0.82 -1.74 0.11 
14.37 0.54 -1.75 0.11 
14.38 0.27 -1.75 0.11 
14.38 -0.00 -1.75 0.11 
14.38 -0.27 -1.75 0.11 
14.38 -0.54 -1.75 0.11 
14.36 -0.82 -1.75 0.11 
14.34 -1.09 -1.75 0.11 
14.32 -1.36 -1.75 0.11 
14.29 -1.63 -1.75 0.11 
14.26 -1.90 -1.75 0.11 
14.22 -2.17 -1.75 0.11 
14.17 -2.44 -1.75 0.11 
14.12 -2.71 -1.74 0.11 
14.07 -2.97 -1.74 0.11 
14.01 -3.24 -1.74 0.11 
13.94 -3.50 -1.74 0.11 
13.87 -3.76 -1.74 0.11 
13.80 -4.03 -1.74 0.11 
13.72 -4.29 -1.74 0.11 
13.63 -4.54 -1.74 0.11 
13.54 -4.80 -1.74 0.11 
13.44 -5.05 -1.74 0.11 
13.34 -5.31 -1.74 0.11 
13.24 -5.56 -1.74 0.11 
13.13 -5.80 -1.74 0.11 
13.01 -6.05 -1.74 0.11 
12.89 -6.29 -1.74 0.11 
12.77 -6.53 -1.74 0.11 
12.64 -6.77 -1.74 0.11 
12.50 -7.01 -1.74 0.11 
12.36 -7.24 -1.74 0.11 
4.87 -2.98 -0.69 0.37 
12.07 -7.70 -1.74 0.11 
4.75 -3.16 -0.69 0.53 
4.56 -3.16 -0.67 0.53 
4.39 -3.16 -0.66 0.55 
4.22 -3.17 -0.64 0.57 
4.08 -3.18 -0.63 0.64 
3.94 -3.20 -0.62 0.68 
3.81 -3.21 -0.61 0.75 
3.70 -3.24 -0.60 0.72 
3.61 -3.29 -0.59 0.81 
3.56 -3.37 -0.59 0.85 
3.54 -3.48 -0.60 0.57 
3.53 -3.60 -0.61 0.56 
3.51 -3.72 -0.62 0.55 
3.51 -3.86 -0.63 0.43 
8.52 -9.73 -1.57 0.11 
8.33 -9.88 -1.57 0.11 
8.14 -10.03 -1.57 0.11 
7.94 -10.18 -1.57 0.11 
7.74 -10.32 -1.57 0.11 
7.54 -10.46 -1.56 0.11 
7.34 -10.60 -1.56 0.11 
7.13 -10.73 -1.56 0.11 
6.92 -10.85 -1.56 0.11 
6.71 -10.98 -1.56 0.11 
6.50 -11.10 -1.56 0.11 
6.28 -11.21 -1.56 0.11 
6.07 -11.32 -1.56 0.11 
5.85 -11.43 -1.56 0.11 
5.63 -11.53 -1.56 0.11 
5.41 -11.62 -1.56 0.11 
5.18 -11.72 -1.55 0.11 
4.96 -11.80 -1.55 0.11 
4.73 -11.89 -1.55 0.11 
4.50 -11.97 -1.55 0.11 
4.27 -12.04 -1.55 0.11 
4.04 -12.11 -1.55 0.11 
3.80 -12.18 -1.55 0.11 
3.57 -12.24 -1.55 0.11 
3.34 -12.30 -1.55 0.11 
3.10 -12.35 -1.54 0.11 
2.87 -12.40 -1.54 0.11 
2.63 -12.44 -1.54 0.11 
2.39 -12.48 -1.54 0.11 
2.15 -12.51 -1.54 0.11 
1.91 -12.54 -1.54 0.11 
1.67 -12.57 -1.54 0.11 
1.44 -12.59 -1.54 0.11 
1.20 -12.60 -1.54 0.11 
0.96 -12.62 -1.54 0.11 
0.72 -12.62 -1.53 0.11 
0.48 -12.63 -1.53 0.11 
0.24 -12.62 -1.53 0.11 
-0.00 -12.62 -1.53 0.11 
-0.24 -12.60 -1.53 0.11 
-0.48 -12.59 -1.53 0.11 
-0.71 -12.57 -1.53 0.11 
-0.95 -12.54 -1.53 0.11 
-1.19 -12.51 -1.53 0.11 
-1.42 -12.48 -1.52 0.11 
-1.66 -12.44 -1.52 0.11 
-1.89 -12.40 -1.52 0.11 
-2.12 -12.35 -1.52 0.11 
-2.36 -12.30 -1.52 0.12 
-2.59 -12.25 -1.52 0.12 
-2.82 -12.19 -1.52 0.12 
-3.04 -12.12 -1.52 0.12 
-3.27 -12.05 -1.52 0.12 
-3.50 -11.98 -1.51 0.12 
-3.72 -11.91 -1.51 0.12 
-3.94 -11.83 -1.51 0.12 
-4.16 -11.74 -1.51 0.12 
-4.38 -11.65 -1.51 0.12 
-4.60 -11.56 -1.51 0.12 
-4.81 -11.46 -1.51 0.12 
-5.02 -11.36 -1.51 0.12 
-5.23 -11.26 -1.51 0.12 
-5.44 -11.15 -1.51 0.12 
-5.65 -11.04 -1.50 0.12 
-5.85 -10.92 -1.50 0.12 
-6.06 -10.80 -1.50 0.12 
-6.25 -10.68 -1.50 0.12 
-6.45 -10.55 -1.50 0.12 
-6.65 -10.42 -1.50 0.12 
-6.84 -10.29 -1.50 0.12 
-7.03 -10.15 -1.50 0.12 
-7.21 -10.01 -1.50 0.12 
-7.40 -9.86 -1.50 0.12 
-7.58 -9.72 -1.49 0.12 
-7.76 -9.56 -1.49 0.12 
-7.93 -9.41 -1.49 0.12 
-8.10 -9.25 -1.49 0.12 
-8.27 -9.09 -1.49 0.12 
-8.12 -8.59 -1.43 0.66 
-8.39 -8.55 -1.45 0.67 
-8.76 -8.60 -1.49 0.12 
-8.92 -8.42 -1.49 0.12 
-9.07 -8.25 -1.49 0.12 
-9.22 -8.07 -1.49 0.12 
-9.37 -7.89 -1.49 0.12 
-9.67 -7.84 -1.51 0.60 
-10.04 -7.83 -1.55 0.59 
-10.44 -7.83 -1.58 0.58 
-10.85 -7.82 -1.62 0.56 
-11.02 -7.63 -1.63 0.13 
-11.18 -7.43 -1.63 0.13 
-11.32 -7.22 -1.63 0.12 
-11.45 -7.00 -1.63 0.12 
-11.58 -6.78 -1.63 0.12 
-11.70 -6.56 -1.63 0.12 
-11.82 -6.33 -1.63 0.12 
-11.93 -6.11 -1.63 0.12 
-12.04 -5.88 -1.63 0.12 
-12.14 -5.65 -1.62 0.12 
-12.24 -5.41 -1.62 0.12 
-12.34 -5.18 -1.62 0.12 
-12.43 -4.94 -1.62 0.12 
-12.52 -4.71 -1.62 0.12 
-12.60 -4.47 -1.62 0.12 
-12.68 -4.23 -1.62 0.12 
-12.76 -3.99 -1.62 0.12 
-12.83 -3.74 -1.62 0.12 
-12.89 -3.50 -1.62 0.12 
-12.95 -3.25 -1.62 0.12 
-13.01 -3.01 -1.62 0.12 
-13.06 -2.76 -1.62 0.12 
-13.11 -2.51 -1.62 0.12 
-13.15 -2.26 -1.62 0.12 
-6.80 -1.04 -0.83 0.41 
-6.74 -0.90 -0.83 0.88 
-6.71 -0.77 -0.82 0.89 
-6.68 -0.63 -0.81 0.90 
-6.66 -0.51 -0.81 0.94 
-6.65 -0.38 -0.81 0.94 
-6.64 -0.25 -0.81 0.94 
-6.63 -0.13 -0.80 0.94 
-6.63 -0.00 -0.81 0.95 
-6.65 0.13 -0.81 0.94 
-6.66 0.25 -0.82 0.94 
-6.67 0.38 -0.82 0.91 
-6.71 0.51 -0.82 0.90 
-6.74 0.64 -0.83 0.89 
-6.77 0.77 -0.83 0.89 
-13.09 1.74 -1.62 0.12 
-13.06 1.99 -1.62 0.12 
-13.02 2.24 -1.62 0.12 
-12.97 2.48 -1.62 0.12 
-12.92 2.73 -1.62 0.12 
-12.87 2.97 -1.62 0.12 
-9.51 2.39 -1.20 0.24 
-8.81 2.39 -1.12 0.83 
-8.31 2.42 -1.06 0.27 
-7.77 2.43 -1.00 0.29 
-7.29 2.43 -0.94 0.31 
-6.86 2.43 -0.89 0.33 
-6.47 2.43 -0.85 0.29 
-6.12 2.43 -0.81 0.49 
-5.90 2.48 -0.78 0.59 
-5.76 2.55 -0.77 0.89 
-5.67 2.64 -0.77 0.87 
-5.64 2.75 -0.77 0.86 
-5.63 2.88 -0.78 0.85 
-5.63 3.02 -0.78 0.84 
-5.63 3.15 -0.79 0.83 
-5.62 3.29 -0.80 0.82 
-5.61 3.43 -0.81 0.81 
-5.61 3.58 -0.82 0.76 
-5.61 3.73 -0.83 0.79 
-5.61 3.89 -0.84 0.78 
-5.61 4.04 -0.85 0.77 
-5.61 4.21 -0.86 0.76 
-7.60 5.93 -1.18 0.58 
-7.33 5.95 -1.16 0.65 
-7.10 5.98 -1.14 0.64 
-6.84 5.99 -1.11 0.62 
-6.57 5.98 -1.09 0.62 
-6.38 6.02 -1.07 0.89 
-6.22 6.10 -1.07 0.95 
-6.09 6.20 -1.06 0.96 
-5.96 6.31 -1.06 0.85 
-5.90 6.49 -1.07 0.83 
-5.86 6.70 -1.09 0.67 
-5.86 6.95 -1.11 0.60 
-5.86 7.23 -1.14 0.59 
-8.22 10.54 -1.64 0.12 
-8.02 10.69 -1.64 0.13 
-7.81 10.83 -1.64 0.13 
-7.59 10.97 -1.63 0.13 
-7.37 11.09 -1.63 0.79 
-7.07 11.09 -1.61 0.80 
-6.79 11.10 -1.59 0.81 
-6.50 11.10 -1.58 0.82 
-6.23 11.10 -1.56 0.83 
-5.95 11.11 -1.54 0.84 
-5.69 11.11 -1.53 0.85 
-5.43 11.11 -1.52 0.86 
-5.17 11.12 -1.50 0.69 
-4.95 11.20 -1.50 0.12 
-4.74 11.30 -1.50 0.12 
-4.53 11.39 -1.50 0.12 
-4.32 11.48 -1.50 0.12 
-4.10 11.57 -1.50 0.12 
-3.88 11.65 -1.50 0.12 
-3.66 11.73 -1.51 0.12 
-3.44 11.81 -1.51 0.12 
-3.22 11.88 -1.51 0.12 
-3.00 11.94 -1.51 0.12 
-2.77 12.01 -1.51 0.12 
-2.55 12.06 -1.51 0.12 
-2.32 12.12 -1.51 0.12 
-2.09 12.17 -1.51 0.12 
-1.86 12.21 -1.51 0.12 
-1.63 12.26 -1.52 0.12 
-1.40 12.29 -1.52 0.12 
-1.17 12.33 -1.52 0.12 
-0.94 12.35 -1.52 0.12 
-0.70 12.38 -1.52 0.12 
-0.47 12.40 -1.52 0.12 
-0.23 12.41 -1.52 0.12 
-0.00 12.43 -1.52 0.12 
0.24 12.43 -1.52 0.12 
0.47 12.43 -1.52 0.12 
0.71 12.43 -1.53 0.12 
0.94 12.42 -1.53 0.12 
1.18 12.41 -1.53 0.12 
1.41 12.40 -1.53 0.12 
1.65 12.38 -1.53 0.12 
1.88 12.35 -1.53 0.12 
2.12 12.32 -1.53 0.12 
2.35 12.29 -1.53 0.12 
2.59 12.25 -1.53 0.12 
2.82 12.21 -1.54 0.11 
3.05 12.16 -1.54 0.11 
3.29 12.11 -1.54 0.11 
3.52 12.06 -1.54 0.11 
3.75 12.00 -1.54 0.11 
3.98 11.93 -1.54 0.11 
1.25 3.53 -0.46 0.28 
1.27 3.39 -0.44 0.34 
1.29 3.25 -0.43 0.33 
1.32 3.14 -0.42 0.43 
1.35 3.06 -0.41 0.64 
1.40 3.01 -0.41 0.69 
1.45 2.97 -0.40 0.92 
1.52 2.96 -0.41 0.79 
1.59 2.96 -0.41 0.77 
1.66 2.96 -0.42 0.75 
1.73 2.96 -0.42 0.81 
1.81 2.96 -0.43 0.80 
1.89 2.96 -0.43 0.78 
1.97 2.97 -0.44 0.77 
2.06 2.97 -0.44 0.63 
2.16 2.99 -0.45 0.45 
2.27 3.03 -0.46 0.42 
5.57 7.14 -1.11 0.54 
5.56 6.86 -1.08 0.63 
5.59 6.63 -1.06 0.67 
5.63 6.43 -1.05 0.79 
5.69 6.26 -1.04 0.80 
5.73 6.07 -1.02 0.77 
5.81 5.92 -1.02 0.94 
5.96 5.84 -1.02 0.82 
6.17 5.83 -1.04 0.66 
6.41 5.83 -1.06 0.64 
6.70 5.86 -1.09 0.63 
6.95 5.86 -1.11 0.61 
7.23 5.86 -1.14 0.59 
7.52 5.87 -1.17 0.57 
7.83 5.88 -1.20 0.55 
8.16 5.88 -1.23 0.54 
8.50 5.89 -1.27 0.54 
8.87 5.90 -1.31 0.52 
9.17 5.85 -1.33 0.77 
9.54 5.83 -1.37 0.49 
9.96 5.84 -1.41 0.48 
12.34 6.92 -1.73 0.11 
12.47 6.69 -1.73 0.11 
12.60 6.45 -1.73 0.11 
12.73 6.21 -1.74 0.11 
12.85 5.97 -1.74 0.11 
12.96 5.73 -1.74 0.11 
13.07 5.49 -1.74 0.11 
13.18 5.24 -1.74 0.11 
13.28 4.99 -1.74 0.11 
13.38 4.74 -1.74 0.11 
13.47 4.49 -1.74 0.11 
13.55 4.23 -1.74 0.11 
13.63 3.98 -1.74 0.11 
13.71 3.72 -1.74 0.11 
13.78 3.46 -1.74 0.11 
13.85 3.20 -1.74 0.11 
13.91 2.94 -1.74 0.11 
13.97 2.67 -1.74 0.11 
14.02 2.41 -1.74 0.11 
14.06 2.15 -1.74 0.11 
14.10 1.88 -1.74 0.11 
14.14 1.61 -1.74 0.11 
14.17 1.34 -1.74 0.11 
14.19 1.08 -1.74 0.11 
14.21 0.81 -1.74 0.11 
14.22 0.54 -1.74 0.11 
14.23 0.27 -1.74 0.11 
14.24 0.00 -1.74 0.11 
14.23 -0.27 -1.74 0.11 
14.23 -0.54 -1.74 0.11 
14.21 -0.81 -1.74 0.11 
14.20 -1.08 -1.74 0.11 
14.17 -1.35 -1.74 0.11 
14.15 -1.61 -1.74 0.11 
14.11 -1.88 -1.74 0.11 
14.07 -2.15 -1.74 0.11 
14.03 -2.41 -1.74 0.11 
13.98 -2.68 -1.74 0.11 
13.93 -2.94 -1.74 0.11 
13.87 -3.20 -1.74 0.11 
13.80 -3.47 -1.74 0.11 
13.73 -3.73 -1.74 0.11 
13.66 -3.98 -1.74 0.11 
13.58 -4.24 -1.74 0.11 
13.49 -4.50 -1.74 0.11 
13.40 -4.75 -1.74 0.11 
13.31 -5.00 -1.74 0.11 
13.21 -5.25 -1.74 0.11 
13.10 -5.50 -1.74 0.11 
12.99 -5.74 -1.74 0.11 
12.88 -5.99 -1.74 0.11 
12.76 -6.23 -1.74 0.11 
12.63 -6.47 -1.74 0.11 
12.51 -6.70 -1.74 0.11 
12.37 -6.94 -1.74 0.11 
12.24 -7.17 -1.74 0.11 
4.86 -2.97 -0.70 0.37 
4.74 -3.02 -0.69 0.56 
4.74 -3.15 -0.70 0.50 
4.56 -3.16 -0.68 0.54 
4.39 -3.16 -0.66 0.55 
4.22 -3.17 -0.65 0.61 
4.08 -3.18 -0.63 0.64 
3.94 -3.19 -0.62 0.68 
3.81 -3.21 -0.61 0.75 
3.70 -3.24 -0.60 0.72 
3.61 -3.28 -0.60 0.81 
3.56 -3.36 -0.60 0.74 
3.54 -3.47 -0.61 0.62 
3.52 -3.59 -0.62 0.56 
3.51 -3.71 -0.63 0.56 
3.50 -3.85 -0.64 0.43 
8.43 -9.63 -1.57 0.11 
8.24 -9.78 -1.57 0.11 
8.05 -9.93 -1.57 0.11 
7.86 -10.08 -1.57 0.11 
7.66 -10.22 -1.57 0.11 
7.46 -10.36 -1.56 0.11 
7.26 -10.49 -1.56 0.11 
7.06 -10.62 -1.56 0.11 
6.85 -10.74 -1.56 0.11 
6.64 -10.87 -1.56 0.11 
6.43 -10.98 -1.56 0.11 
6.22 -11.10 -1.56 0.11 
6.01 -11.20 -1.56 0.11 
5.79 -11.31 -1.56 0.11 
5.57 -11.41 -1.56 0.11 
5.35 -11.51 -1.55 0.11 
5.13 -11.60 -1.55 0.11 
4.91 -11.69 -1.55 0.11 
4.68 -11.77 -1.55 0.11 
4.45 -11.85 -1.55 0.11 
4.23 -11.92 -1.55 0.11 
4.00 -11.99 -1.55 0.11 
3.77 -12.06 -1.55 0.11 
3.54 -12.12 -1.55 0.11 
3.30 -12.17 -1.55 0.11 
3.07 -12.23 -1.54 0.11 
2.84 -12.27 -1.54 0.11 
2.60 -12.32 -1.54 0.11 
2.37 -12.35 -1.54 0.11 
2.13 -12.39 -1.54 0.11 
1.89 -12.42 -1.54 0.11 
1.66 -12.44 -1.54 0.11 
1.42 -12.46 -1.54 0.11 
1.18 -12.48 -1.54 0.11 
0.95 -12.49 -1.53 0.12 
0.71 -12.50 -1.53 0.12 
0.47 -12.50 -1.53 0.12 
0.24 -12.50 -1.53 0.12 
0.00 -12.49 -1.53 0.12 
-0.24 -12.48 -1.53 0.12 
-0.47 -12.46 -1.53 0.12 
-0.71 -12.44 -1.53 0.12 
-0.94 -12.42 -1.53 0.12 
-1.18 -12.39 -1.53 0.12 
-1.41 -12.36 -1.52 0.12 
-1.64 -12.32 -1.52 0.12 
-1.87 -12.28 -1.52 0.12 
-2.10 -12.23 -1.52 0.12 
-2.33 -12.18 -1.52 0.12 
-2.56 -12.13 -1.52 0.12 
