VERSION 0.7
FIELDS x y z intensity
SIZE 4 4 4 8
TYPE F F F F
COUNT 1 1 1 1
WIDTH 1984
HEIGHT 1
VIEWPOINT 0.0 0.0 0.0 1.0 0.0 0.0 0.0
POINTS 1984
DATA ascii
25.64 10.76 -1.66 0.05 
25.86 10.28 -1.67 0.05 
26.07 9.80 -1.67 0.05 
26.27 9.31 -1.67 0.05 
26.46 8.82 -1.67 0.05 
26.64 8.32 -1.67 0.05 
26.81 7.82 -1.67 0.05 
26.97 7.32 -1.67 0.05 
27.12 6.81 -1.67 0.05 
27.32 6.31 -1.68 0.42 
28.10 5.94 -1.72 0.53 
28.91 5.54 -1.76 0.53 
29.73 5.11 -1.81 0.53 
30.37 4.63 -1.84 0.06 
30.56 4.07 -1.85 0.05 
30.64 3.49 -1.85 0.05 
30.71 2.91 -1.85 0.05 
30.77 2.33 -1.85 0.05 
30.81 1.75 -1.85 0.05 
30.85 1.17 -1.85 0.05 
30.87 0.58 -1.85 0.05 
30.88 -0.00 -1.85 0.05 
30.87 -0.58 -1.85 0.05 
30.86 -1.17 -1.85 0.05 
30.83 -1.75 -1.85 0.05 
30.79 -2.34 -1.85 0.05 
30.74 -2.92 -1.85 0.05 
30.67 -3.50 -1.85 0.05 
30.60 -4.08 -1.85 0.05 
30.51 -4.65 -1.85 0.05 
30.41 -5.23 -1.85 0.05 
30.29 -5.80 -1.85 0.05 
30.17 -6.37 -1.85 0.05 
30.03 -6.94 -1.84 0.05 
29.89 -7.51 -1.84 0.05 
29.73 -8.07 -1.84 0.05 
29.56 -8.62 -1.84 0.05 
29.37 -9.18 -1.84 0.05 
29.18 -9.73 -1.84 0.05 
28.98 -10.27 -1.84 0.05 
28.76 -10.81 -1.84 0.05 
28.53 -11.35 -1.84 0.05 
28.29 -11.88 -1.84 0.05 
28.05 -12.40 -1.84 0.05 
27.79 -12.92 -1.83 0.05 
27.52 -13.44 -1.83 0.05 
27.24 -13.94 -1.83 0.05 
26.95 -14.44 -1.83 0.05 
5.85 -3.28 -0.40 0.15 
5.60 -3.28 -0.39 0.42 
5.43 -3.32 -0.38 0.23 
5.31 -3.39 -0.38 0.23 
5.25 -3.49 -0.38 0.17 
5.22 -3.61 -0.38 0.16 
5.19 -3.74 -0.38 0.31 
5.21 -3.91 -0.39 0.06 
21.73 -16.95 -1.65 0.05 
21.38 -17.34 -1.65 0.05 
21.03 -17.72 -1.65 0.05 
20.66 -18.09 -1.64 0.05 
20.29 -18.46 -1.64 0.05 
19.92 -18.82 -1.64 0.05 
19.53 -19.17 -1.64 0.05 
19.14 -19.51 -1.64 0.05 
18.75 -19.84 -1.63 0.05 
18.34 -20.17 -1.63 0.05 
17.93 -20.48 -1.63 0.05 
17.52 -20.79 -1.63 0.05 
17.10 -21.09 -1.62 0.05 
8.53 -10.93 -0.83 0.94 
10.51 -14.02 -1.05 0.76 
10.12 -14.03 -1.04 0.78 
9.95 -14.38 -1.05 0.50 
9.98 -15.01 -1.08 0.49 
14.47 -22.69 -1.61 0.05 
14.02 -22.93 -1.61 0.05 
13.56 -23.16 -1.61 0.05 
13.10 -23.37 -1.60 0.05 
12.64 -23.58 -1.60 0.05 
12.17 -23.78 -1.60 0.05 
11.70 -23.96 -1.60 0.05 
11.23 -24.14 -1.59 0.05 
10.75 -24.31 -1.59 0.05 
10.27 -24.47 -1.59 0.05 
9.79 -24.62 -1.59 0.05 
9.31 -24.76 -1.58 0.05 
8.82 -24.89 -1.58 0.05 
8.34 -25.01 -1.58 0.05 
7.85 -25.12 -1.58 0.05 
7.36 -25.22 -1.57 0.05 
6.87 -25.32 -1.57 0.05 
6.38 -25.40 -1.57 0.05 
5.89 -25.47 -1.56 0.05 
5.39 -25.53 -1.56 0.05 
4.90 -25.59 -1.56 0.05 
4.41 -25.63 -1.56 0.05 
1.89 -12.38 -0.75 0.87 
3.42 -25.69 -1.55 0.05 
2.93 -25.71 -1.55 0.05 
2.44 -25.71 -1.55 0.05 
1.95 -25.71 -1.54 0.05 
1.46 -25.70 -1.54 0.05 
0.97 -25.67 -1.54 0.05 
0.49 -25.64 -1.53 0.05 
-0.00 -25.60 -1.53 0.05 
-0.48 -25.56 -1.53 0.05 
-0.97 -25.50 -1.53 0.05 
-1.45 -25.43 -1.52 0.05 
-1.92 -25.35 -1.52 0.05 
-2.40 -25.27 -1.52 0.05 
-2.87 -25.18 -1.52 0.05 
-3.34 -25.07 -1.51 0.05 
-3.81 -24.96 -1.51 0.05 
-4.27 -24.85 -1.51 0.05 
-4.73 -24.72 -1.51 0.05 
-5.19 -24.58 -1.50 0.05 
-5.65 -24.44 -1.50 0.05 
-6.10 -24.29 -1.50 0.05 
-6.55 -24.13 -1.50 0.06 
-6.99 -23.96 -1.49 0.06 
-7.43 -23.78 -1.49 0.06 
-7.87 -23.60 -1.49 0.06 
-8.30 -23.41 -1.49 0.06 
-4.79 -12.74 -0.81 0.74 
-5.02 -12.61 -0.81 0.48 
-9.57 -22.79 -1.48 0.06 
-9.98 -22.57 -1.48 0.06 
-10.39 -22.34 -1.47 0.06 
-10.79 -22.11 -1.47 0.06 
-11.19 -21.87 -1.47 0.06 
-11.59 -21.62 -1.47 0.06 
-11.98 -21.36 -1.47 0.06 
-12.36 -21.10 -1.46 0.06 
-12.74 -20.83 -1.46 0.06 
-13.11 -20.56 -1.46 0.06 
-13.48 -20.28 -1.46 0.06 
-13.84 -19.99 -1.46 0.06 
-14.20 -19.70 -1.45 0.06 
-14.55 -19.40 -1.45 0.06 
-14.89 -19.10 -1.45 0.06 
-15.23 -18.78 -1.45 0.06 
-15.56 -18.47 -1.45 0.06 
-15.89 -18.15 -1.44 0.06 
-16.21 -17.82 -1.44 0.06 
-16.52 -17.49 -1.44 0.06 
-16.83 -17.15 -1.44 0.06 
-17.13 -16.81 -1.44 0.06 
-17.43 -16.46 -1.43 0.06 
-17.71 -16.11 -1.43 0.06 
-18.00 -15.76 -1.43 0.06 
-18.27 -15.40 -1.43 0.06 
-18.54 -15.03 -1.43 0.06 
-18.80 -14.66 -1.43 0.06 
-19.05 -14.29 -1.43 0.06 
-18.96 -13.67 -1.40 0.53 
-19.54 -13.53 -1.42 0.06 
-19.78 -13.15 -1.42 0.06 
-20.00 -12.76 -1.42 0.06 
-20.22 -12.37 -1.42 0.06 
-20.43 -11.97 -1.42 0.06 
-20.64 -11.57 -1.42 0.06 
-20.84 -11.17 -1.41 0.06 
-21.03 -10.76 -1.41 0.06 
-21.21 -10.36 -1.41 0.06 
-19.55 -9.09 -1.29 0.36 
-23.71 -10.48 -1.55 0.06 
-23.89 -10.03 -1.55 0.06 
-24.06 -9.57 -1.55 0.06 
-24.22 -9.10 -1.55 0.06 
-24.37 -8.64 -1.55 0.06 
-24.51 -8.17 -1.55 0.06 
-12.76 -3.99 -0.80 0.80 
-12.78 -3.73 -0.80 0.86 
-13.22 -3.59 -0.82 0.35 
-25.01 -6.28 -1.54 0.06 
-25.11 -5.80 -1.54 0.06 
-25.21 -5.33 -1.54 0.06 
-25.30 -4.85 -1.54 0.06 
-25.37 -4.36 -1.54 0.06 
-7.99 -1.22 -0.48 0.13 
-7.74 -1.03 -0.47 0.70 
-7.65 -0.87 -0.46 0.71 
-7.58 -0.72 -0.46 0.91 
-7.57 -0.57 -0.45 0.91 
-7.55 -0.43 -0.45 0.92 
-7.54 -0.29 -0.45 0.35 
-7.55 -0.14 -0.45 0.92 
-7.57 -0.00 -0.46 0.92 
-7.59 0.14 -0.46 0.92 
-7.62 0.29 -0.47 0.72 
-7.70 0.44 -0.47 0.71 
-7.79 0.59 -0.48 0.71 
-25.12 2.38 -1.54 0.06 
-25.08 2.86 -1.54 0.06 
-25.02 3.33 -1.54 0.06 
-24.96 3.81 -1.54 0.06 
-12.57 2.16 -0.78 0.15 
-11.60 2.22 -0.72 0.21 
-10.76 2.27 -0.67 0.21 
-10.05 2.32 -0.63 0.52 
-9.78 2.46 -0.62 0.53 
-9.66 2.62 -0.61 0.80 
-9.65 2.82 -0.61 0.79 
-9.64 3.01 -0.62 0.79 
-9.63 3.21 -0.62 0.79 
-9.64 3.42 -0.62 0.87 
-9.66 3.63 -0.63 0.86 
-9.68 3.85 -0.64 0.85 
-23.39 9.82 -1.55 0.06 
-23.18 10.25 -1.55 0.07 
-22.76 10.58 -1.53 0.41 
-11.83 5.78 -0.80 0.27 
-11.25 5.76 -0.77 0.55 
-10.81 5.79 -0.75 0.47 
-10.36 5.81 -0.72 0.48 
-9.93 5.82 -0.70 0.50 
-9.53 5.83 -0.68 0.52 
-9.16 5.84 -0.66 0.51 
-8.82 5.87 -0.65 0.59 
-8.51 5.89 -0.63 0.63 
-8.25 5.95 -0.62 0.72 
-8.02 6.01 -0.61 0.89 
-7.85 6.12 -0.61 0.90 
-7.73 6.27 -0.61 0.89 
-7.67 6.46 -0.61 0.88 
-7.65 6.69 -0.62 0.77 
-7.66 6.96 -0.63 0.62 
-7.74 7.31 -0.65 0.41 
-16.73 16.42 -1.43 0.06 
-16.44 16.75 -1.43 0.06 
-16.14 17.09 -1.43 0.05 
-15.85 17.43 -1.44 0.05 
-14.98 17.11 -1.39 0.56 
-15.26 18.11 -1.45 0.05 
-14.95 18.44 -1.45 0.05 
-14.63 18.76 -1.45 0.05 
-14.31 19.08 -1.46 0.05 
-9.25 12.84 -0.97 0.94 
-9.00 12.99 -0.96 0.94 
-8.89 13.37 -0.98 0.50 
-12.95 20.31 -1.47 0.05 
-12.60 20.60 -1.47 0.05 
-9.79 16.72 -1.18 0.26 
-9.40 16.77 -1.17 0.47 
-11.49 21.43 -1.48 0.05 
-9.75 19.05 -1.31 0.82 
-10.72 21.96 -1.49 0.05 
-10.33 22.21 -1.50 0.05 
-9.93 22.45 -1.50 0.05 
-9.52 22.69 -1.50 0.05 
-9.11 22.92 -1.51 0.05 
-8.70 23.14 -1.51 0.05 
-6.38 17.99 -1.17 0.74 
-7.85 23.56 -1.52 0.05 
-5.03 16.09 -1.03 0.46 
-6.99 23.95 -1.52 0.05 
-4.54 16.72 -1.06 0.37 
-4.18 16.64 -1.05 0.75 
-3.89 16.81 -1.05 0.62 
-5.20 24.62 -1.54 0.05 
-4.74 24.77 -1.54 0.05 
-4.28 24.91 -1.54 0.05 
-3.82 25.03 -1.55 0.05 
-3.35 25.15 -1.55 0.05 
-2.88 25.26 -1.55 0.05 
-2.41 25.36 -1.56 0.05 
-1.93 25.45 -1.56 0.05 
-1.04 18.23 -1.11 0.64 
-0.97 25.61 -1.56 0.05 
-0.49 25.67 -1.57 0.05 
0.00 25.72 -1.57 0.05 
0.37 19.55 -1.19 0.42 
0.98 25.79 -1.58 0.05 
0.98 17.16 -1.05 0.13 
1.28 16.85 -1.03 0.72 
1.60 16.82 -1.03 0.73 
1.96 17.19 -1.06 0.17 
3.44 25.80 -1.59 0.05 
3.93 25.77 -1.59 0.05 
4.43 25.73 -1.59 0.05 
4.92 25.68 -1.60 0.05 
5.41 25.62 -1.60 0.05 
5.90 25.54 -1.60 0.05 
6.39 25.47 -1.60 0.05 
3.63 13.37 -0.85 0.91 
3.86 13.22 -0.84 0.91 
4.14 13.27 -0.85 0.66 
8.35 25.05 -1.61 0.05 
8.83 24.92 -1.61 0.05 
9.31 24.77 -1.62 0.05 
6.91 17.37 -1.14 0.36 
7.10 16.92 -1.12 0.75 
3.18 7.20 -0.48 0.17 
3.22 6.92 -0.47 0.23 
3.27 6.69 -0.45 0.22 
3.35 6.54 -0.45 0.36 
3.43 6.40 -0.44 0.35 
3.51 6.26 -0.44 0.35 
3.66 6.25 -0.44 0.69 
3.82 6.24 -0.45 0.75 
3.97 6.23 -0.45 0.74 
4.14 6.23 -0.46 0.70 
4.32 6.24 -0.46 0.61 
4.51 6.25 -0.47 0.66 
4.69 6.25 -0.48 0.67 
4.87 6.25 -0.48 0.64 
5.07 6.25 -0.49 0.63 
5.27 6.25 -0.50 0.62 
5.46 6.24 -0.51 0.62 
5.68 6.25 -0.52 0.57 
5.92 6.26 -0.53 0.38 
6.23 6.35 -0.54 0.21 
19.23 18.87 -1.64 0.05 
19.59 18.51 -1.64 0.05 
19.94 18.14 -1.65 0.05 
20.29 17.76 -1.65 0.05 
18.43 15.53 -1.47 0.70 
18.95 15.36 -1.49 0.80 
21.27 16.59 -1.65 0.05 
21.59 16.19 -1.65 0.05 
21.89 15.78 -1.65 0.05 
22.18 15.36 -1.65 0.05 
22.47 14.94 -1.65 0.05 
22.75 14.51 -1.65 0.05 
23.05 14.09 -1.65 0.05 
23.34 13.67 -1.65 0.05 
23.61 13.24 -1.65 0.05 
23.88 12.80 -1.65 0.05 
19.37 9.91 -1.33 0.70 
24.39 11.91 -1.66 0.05 
24.64 11.46 -1.66 0.05 
23.06 10.20 -1.54 0.88 
25.09 10.53 -1.66 0.05 
25.31 10.06 -1.66 0.05 
25.51 9.59 -1.66 0.05 
25.71 9.11 -1.66 0.05 
25.89 8.63 -1.67 0.05 
26.07 8.14 -1.67 0.05 
26.23 7.65 -1.67 0.05 
26.39 7.16 -1.67 0.05 
26.53 6.66 -1.67 0.05 
27.30 6.31 -1.71 0.55 
28.09 5.93 -1.75 0.53 
28.90 5.54 -1.80 0.53 
29.60 5.09 -1.83 0.06 
29.81 4.55 -1.84 0.05 
29.90 3.98 -1.84 0.05 
29.98 3.42 -1.84 0.05 
30.05 2.85 -1.84 0.05 
30.11 2.28 -1.84 0.05 
30.15 1.71 -1.84 0.05 
30.18 1.14 -1.84 0.05 
30.20 0.57 -1.84 0.05 
30.21 -0.00 -1.84 0.05 
30.21 -0.57 -1.84 0.05 
30.19 -1.14 -1.84 0.05 
30.16 -1.71 -1.84 0.05 
30.12 -2.28 -1.84 0.05 
30.07 -2.85 -1.84 0.05 
30.01 -3.42 -1.84 0.05 
29.94 -3.99 -1.84 0.05 
29.85 -4.55 -1.84 0.05 
29.75 -5.12 -1.84 0.05 
29.64 -5.68 -1.84 0.05 
29.52 -6.24 -1.84 0.05 
29.39 -6.79 -1.84 0.05 
29.24 -7.34 -1.84 0.05 
29.09 -7.89 -1.84 0.05 
28.92 -8.44 -1.84 0.05 
28.74 -8.98 -1.84 0.05 
28.55 -9.52 -1.84 0.05 
28.35 -10.05 -1.84 0.05 
28.14 -10.58 -1.84 0.05 
27.92 -11.10 -1.83 0.05 
27.69 -11.62 -1.83 0.05 
27.44 -12.14 -1.83 0.05 
27.19 -12.64 -1.83 0.05 
26.93 -13.15 -1.83 0.05 
26.65 -13.64 -1.83 0.05 
26.37 -14.13 -1.83 0.05 
5.83 -3.27 -0.41 0.42 
5.59 -3.28 -0.40 0.42 
5.40 -3.30 -0.39 0.23 
5.29 -3.37 -0.38 0.23 
5.22 -3.47 -0.38 0.17 
5.19 -3.59 -0.39 0.33 
5.17 -3.73 -0.39 0.31 
5.17 -3.88 -0.39 0.23 
21.27 -16.59 -1.65 0.05 
20.93 -16.97 -1.64 0.05 
20.58 -17.34 -1.64 0.05 
20.23 -17.71 -1.64 0.05 
19.87 -18.07 -1.64 0.05 
19.50 -18.42 -1.64 0.05 
19.12 -18.76 -1.64 0.05 
18.74 -19.10 -1.63 0.05 
18.35 -19.42 -1.63 0.05 
17.96 -19.74 -1.63 0.05 
17.56 -20.05 -1.63 0.05 
17.15 -20.36 -1.62 0.05 
16.74 -20.65 -1.62 0.05 
8.53 -10.93 -0.85 0.94 
10.51 -14.02 -1.07 0.76 
10.12 -14.03 -1.06 0.78 
9.95 -14.38 -1.07 0.50 
9.98 -15.01 -1.10 0.49 
14.17 -22.22 -1.61 0.05 
13.73 -22.45 -1.61 0.05 
13.28 -22.68 -1.60 0.05 
12.83 -22.89 -1.60 0.05 
12.38 -23.09 -1.60 0.05 
11.92 -23.29 -1.60 0.05 
11.46 -23.47 -1.59 0.05 
11.00 -23.65 -1.59 0.05 
10.53 -23.81 -1.59 0.05 
10.06 -23.97 -1.59 0.05 
9.59 -24.12 -1.58 0.05 
9.12 -24.26 -1.58 0.05 
8.64 -24.38 -1.58 0.05 
8.17 -24.50 -1.58 0.05 
7.69 -24.61 -1.57 0.05 
7.21 -24.71 -1.57 0.05 
6.73 -24.80 -1.57 0.05 
6.25 -24.89 -1.57 0.05 
5.77 -24.96 -1.56 0.05 
5.29 -25.02 -1.56 0.05 
4.80 -25.07 -1.56 0.05 
4.32 -25.12 -1.56 0.05 
1.89 -12.37 -0.76 0.90 
3.36 -25.18 -1.55 0.05 
2.87 -25.19 -1.55 0.05 
2.39 -25.20 -1.55 0.05 
1.91 -25.20 -1.54 0.05 
1.43 -25.19 -1.54 0.05 
0.95 -25.17 -1.54 0.05 
0.48 -25.14 -1.53 0.05 
-0.00 -25.10 -1.53 0.05 
-0.47 -25.05 -1.53 0.05 
-0.95 -25.00 -1.53 0.06 
-1.42 -24.93 -1.52 0.06 
-1.89 -24.86 -1.52 0.06 
-2.35 -24.78 -1.52 0.06 
-2.82 -24.68 -1.52 0.06 
-3.28 -24.59 -1.51 0.06 
-3.73 -24.48 -1.51 0.06 
-4.19 -24.36 -1.51 0.06 
-4.64 -24.24 -1.51 0.06 
-5.09 -24.11 -1.50 0.06 
-5.54 -23.97 -1.50 0.06 
-5.98 -23.82 -1.50 0.06 
-6.42 -23.66 -1.50 0.06 
-6.86 -23.50 -1.49 0.06 
-7.29 -23.33 -1.49 0.06 
-7.72 -23.15 -1.49 0.06 
-8.14 -22.96 -1.49 0.06 
-4.78 -12.73 -0.83 0.80 
-5.02 -12.61 -0.83 0.48 
-9.38 -22.36 -1.48 0.06 
-9.79 -22.14 -1.48 0.06 
-10.19 -21.92 -1.48 0.06 
-10.59 -21.69 -1.47 0.06 
-10.98 -21.45 -1.47 0.06 
-11.37 -21.21 -1.47 0.06 
-11.75 -20.96 -1.47 0.06 
-12.13 -20.70 -1.46 0.06 
-12.50 -20.44 -1.46 0.06 
-12.87 -20.17 -1.46 0.06 
-13.23 -19.90 -1.46 0.06 
-13.58 -19.62 -1.46 0.06 
-13.93 -19.33 -1.45 0.06 
-14.28 -19.04 -1.45 0.06 
-14.61 -18.74 -1.45 0.06 
-14.95 -18.43 -1.45 0.06 
-15.27 -18.12 -1.45 0.06 
-15.59 -17.81 -1.45 0.06 
-15.91 -17.49 -1.44 0.06 
-16.22 -17.16 -1.44 0.06 
-16.52 -16.83 -1.44 0.06 
-16.81 -16.50 -1.44 0.06 
-9.50 -8.97 -0.80 0.71 
-9.63 -8.76 -0.79 0.06 
-17.66 -15.47 -1.43 0.06 
-17.93 -15.11 -1.43 0.06 
-18.20 -14.75 -1.43 0.06 
-18.45 -14.39 -1.43 0.06 
-18.70 -14.03 -1.43 0.06 
-18.95 -13.66 -1.43 0.06 
-19.18 -13.28 -1.42 0.06 
-19.41 -12.91 -1.42 0.06 
-19.64 -12.52 -1.42 0.06 
-19.85 -12.14 -1.42 0.06 
-20.06 -11.75 -1.42 0.06 
-20.26 -11.36 -1.42 0.06 
-20.46 -10.97 -1.42 0.06 
-20.64 -10.57 -1.42 0.06 
-20.82 -10.17 -1.41 0.06 
-19.55 -9.09 -1.32 0.36 
-21.16 -9.36 -1.41 0.06 
-23.45 -9.84 -1.55 0.06 
-23.62 -9.39 -1.55 0.06 
-23.78 -8.94 -1.55 0.06 
-23.93 -8.48 -1.55 0.06 
-24.07 -8.02 -1.55 0.06 
-12.75 -3.98 -0.82 0.80 
-12.77 -3.73 -0.81 0.86 
-12.98 -3.52 -0.82 0.92 
-24.56 -6.17 -1.55 0.06 
-24.66 -5.70 -1.54 0.06 
-24.75 -5.23 -1.54 0.06 
-24.84 -4.76 -1.54 0.06 
-24.92 -4.29 -1.54 0.06 
-7.96 -1.21 -0.49 0.15 
-7.73 -1.03 -0.48 0.70 
-7.65 -0.87 -0.47 0.71 
-7.58 -0.72 -0.46 0.91 
-7.56 -0.57 -0.46 0.91 
-7.55 -0.43 -0.46 0.92 
-7.54 -0.29 -0.46 0.92 
-7.54 -0.14 -0.46 0.92 
-7.56 -0.00 -0.47 0.92 
-7.58 0.14 -0.47 0.92 
-7.61 0.29 -0.47 0.72 
-7.70 0.44 -0.48 0.72 
-7.79 0.59 -0.49 0.71 
-8.17 0.78 -0.51 0.16 
-24.63 2.81 -1.54 0.06 
-24.58 3.28 -1.54 0.06 
-24.52 3.74 -1.54 0.06 
-12.56 2.16 -0.79 0.15 
-11.57 2.22 -0.73 0.21 
-10.73 2.27 -0.68 0.21 
-10.04 2.32 -0.64 0.52 
-9.77 2.45 -0.63 0.53 
-9.65 2.62 -0.62 0.80 
-9.64 2.81 -0.63 0.79 
-9.63 3.01 -0.63 0.92 
-9.63 3.21 -0.63 0.92 
-9.64 3.42 -0.64 0.87 
-9.66 3.63 -0.64 0.86 
-9.68 3.85 -0.65 0.85 
-22.97 9.64 -1.55 0.06 
-22.80 10.08 -1.55 0.06 
-22.54 10.48 -1.55 0.07 
-11.81 5.77 -0.82 0.27 
-11.24 5.76 -0.79 0.55 
-10.81 5.79 -0.76 0.47 
-10.35 5.81 -0.74 0.48 
-9.93 5.82 -0.72 0.50 
-9.53 5.83 -0.70 0.52 
-9.16 5.84 -0.68 0.51 
-8.82 5.86 -0.66 0.59 
-8.51 5.89 -0.64 0.63 
-8.25 5.95 -0.63 0.77 
-8.02 6.01 -0.62 0.89 
-7.85 6.12 -0.62 0.90 
-7.73 6.27 -0.62 0.89 
-7.67 6.46 -0.62 0.88 
-7.64 6.69 -0.63 0.77 
-7.65 6.96 -0.64 0.62 
-7.74 7.31 -0.66 0.41 
-16.43 16.12 -1.43 0.06 
-16.14 16.45 -1.43 0.06 
-15.84 16.77 -1.44 0.06 
-15.55 17.09 -1.44 0.06 
-15.00 17.13 -1.42 0.56 
-14.96 17.75 -1.44 0.06 
-14.66 18.08 -1.45 0.06 
-14.35 18.39 -1.45 0.06 
-14.03 18.71 -1.46 0.06 
-9.25 12.84 -0.98 0.94 
-9.00 12.99 -0.98 0.94 
-8.89 13.37 -1.00 0.50 
-12.69 19.90 -1.47 0.05 
-12.34 20.19 -1.47 0.05 
-9.83 16.78 -1.21 0.26 
-9.42 16.80 -1.20 0.47 
-11.26 21.00 -1.48 0.05 
-9.75 19.05 -1.33 0.79 
-10.50 21.51 -1.49 0.05 
-10.12 21.76 -1.49 0.05 
-9.73 22.00 -1.50 0.05 
-9.33 22.23 -1.50 0.05 
-8.93 22.45 -1.50 0.05 
-8.52 22.67 -1.51 0.05 
-6.38 17.99 -1.19 0.78 
-7.69 23.08 -1.51 0.05 
-5.02 16.07 -1.05 0.56 
-6.84 23.45 -1.52 0.05 
-4.54 16.75 -1.08 0.37 
-4.18 16.65 -1.07 0.75 
-3.89 16.83 -1.08 0.62 
-5.09 24.11 -1.53 0.05 
-4.65 24.25 -1.54 0.05 
-4.19 24.39 -1.54 0.05 
-3.74 24.51 -1.54 0.05 
-3.28 24.63 -1.55 0.05 
-2.82 24.73 -1.55 0.05 
-2.36 24.83 -1.55 0.05 
-1.89 24.92 -1.56 0.05 
-1.04 18.22 -1.14 0.58 
-0.95 25.06 -1.56 0.05 
-0.48 25.12 -1.56 0.05 
0.00 25.17 -1.57 0.05 
0.37 19.54 -1.22 0.42 
0.96 25.24 -1.57 0.05 
0.98 17.24 -1.07 0.13 
1.28 16.86 -1.05 0.72 
1.60 16.84 -1.05 0.73 
1.97 17.25 -1.08 0.17 
3.36 25.24 -1.59 0.05 
3.85 25.21 -1.59 0.05 
4.33 25.18 -1.59 0.05 
4.81 25.13 -1.59 0.05 
5.29 25.06 -1.59 0.05 
5.78 24.99 -1.60 0.05 
6.26 24.91 -1.60 0.05 
3.63 13.37 -0.86 0.91 
3.86 13.22 -0.86 0.91 
4.14 13.27 -0.87 0.66 
8.17 24.50 -1.61 0.05 
8.64 24.37 -1.61 0.05 
9.11 24.23 -1.61 0.05 
7.53 18.94 -1.27 0.89 
3.23 7.70 -0.52 0.05 
3.16 7.15 -0.49 0.17 
3.20 6.89 -0.47 0.23 
3.25 6.66 -0.46 0.36 
3.34 6.52 -0.46 0.36 
3.42 6.38 -0.45 0.35 
3.50 6.25 -0.45 0.73 
3.66 6.24 -0.45 0.69 
3.81 6.24 -0.45 0.75 
3.97 6.23 -0.46 0.74 
4.14 6.22 -0.47 0.70 
4.31 6.23 -0.47 0.61 
4.50 6.24 -0.48 0.66 
4.68 6.24 -0.49 0.67 
4.87 6.24 -0.49 0.64 
5.06 6.24 -0.50 0.63 
5.26 6.24 -0.51 0.62 
5.46 6.23 -0.52 0.62 
5.67 6.24 -0.52 0.58 
5.90 6.25 -0.54 0.38 
6.21 6.33 -0.55 0.21 
18.80 18.45 -1.64 0.05 
19.15 18.09 -1.64 0.05 
19.50 17.73 -1.64 0.05 
19.83 17.37 -1.64 0.05 
18.42 15.52 -1.50 0.81 
18.95 15.36 -1.52 0.80 
20.80 16.22 -1.64 0.05 
21.10 15.83 -1.64 0.05 
21.40 15.42 -1.64 0.05 
21.69 15.02 -1.64 0.05 
21.99 14.62 -1.64 0.05 
22.28 14.21 -1.64 0.05 
22.57 13.80 -1.65 0.05 
22.85 13.39 -1.65 0.05 
23.12 12.96 -1.65 0.05 
23.38 12.53 -1.65 0.05 
19.36 9.91 -1.35 0.70 
23.88 11.66 -1.65 0.05 
24.12 11.22 -1.66 0.05 
23.06 10.20 -1.57 0.88 
24.57 10.31 -1.66 0.05 
24.78 9.85 -1.66 0.05 
24.98 9.39 -1.66 0.05 
25.17 8.92 -1.66 0.05 
25.35 8.45 -1.66 0.05 
25.52 7.97 -1.66 0.05 
25.68 7.49 -1.67 0.05 
25.86 7.02 -1.67 0.07 
26.52 6.66 -1.70 0.55 
27.29 6.31 -1.74 0.55 
28.08 5.93 -1.79 0.53 
28.85 5.53 -1.83 0.06 
29.07 5.00 -1.84 0.06 
29.18 4.45 -1.84 0.05 
29.27 3.90 -1.84 0.05 
29.35 3.35 -1.84 0.05 
29.41 2.79 -1.84 0.05 
29.47 2.24 -1.84 0.05 
29.51 1.68 -1.84 0.05 
29.54 1.12 -1.84 0.05 
29.56 0.56 -1.84 0.05 
29.57 -0.00 -1.84 0.05 
29.57 -0.56 -1.84 0.05 
29.55 -1.12 -1.84 0.05 
29.53 -1.68 -1.84 0.05 
29.49 -2.24 -1.84 0.05 
29.44 -2.79 -1.84 0.05 
29.38 -3.35 -1.84 0.05 
29.30 -3.90 -1.84 0.05 
29.22 -4.46 -1.84 0.05 
29.12 -5.01 -1.84 0.05 
29.02 -5.56 -1.84 0.05 
28.90 -6.10 -1.84 0.05 
28.77 -6.65 -1.84 0.05 
28.63 -7.19 -1.84 0.05 
28.47 -7.73 -1.84 0.05 
28.31 -8.26 -1.84 0.05 
28.14 -8.79 -1.83 0.05 
27.95 -9.32 -1.83 0.05 
27.76 -9.84 -1.83 0.05 
27.55 -10.36 -1.83 0.05 
27.33 -10.87 -1.83 0.05 
27.11 -11.38 -1.83 0.05 
26.87 -11.88 -1.83 0.05 
26.62 -12.38 -1.83 0.05 
26.36 -12.87 -1.83 0.05 
26.09 -13.36 -1.82 0.05 
25.82 -13.84 -1.82 0.05 
5.83 -3.27 -0.42 0.42 
5.58 -3.27 -0.40 0.42 
5.38 -3.29 -0.39 0.46 
5.26 -3.36 -0.39 0.23 
5.20 -3.46 -0.39 0.34 
5.17 -3.58 -0.39 0.33 
5.15 -3.71 -0.40 0.32 
5.15 -3.86 -0.40 0.22 
20.83 -16.24 -1.64 0.05 
20.50 -16.62 -1.64 0.05 
20.16 -16.98 -1.64 0.05 
19.81 -17.34 -1.64 0.05 
19.45 -17.70 -1.64 0.05 
19.09 -18.04 -1.63 0.05 
18.73 -18.38 -1.63 0.05 
18.35 -18.70 -1.63 0.05 
17.97 -19.03 -1.63 0.05 
17.59 -19.34 -1.63 0.05 
17.20 -19.64 -1.62 0.05 
16.80 -19.94 -1.62 0.05 
16.40 -20.23 -1.62 0.05 
8.53 -10.93 -0.86 0.94 
10.51 -14.02 -1.09 0.76 
10.12 -14.03 -1.08 0.77 
9.95 -14.38 -1.09 0.50 
9.98 -15.01 -1.12 0.49 
13.89 -21.77 -1.61 0.05 
13.45 -22.00 -1.61 0.05 
13.02 -22.22 -1.60 0.05 
12.57 -22.43 -1.60 0.05 
12.13 -22.63 -1.60 0.05 
11.68 -22.82 -1.60 0.05 
11.23 -23.00 -1.59 0.05 
10.78 -23.17 -1.59 0.05 
10.32 -23.34 -1.59 0.05 
9.86 -23.49 -1.59 0.05 
9.40 -23.64 -1.58 0.05 
8.94 -23.77 -1.58 0.05 
8.47 -23.90 -1.58 0.05 
8.00 -24.02 -1.58 0.05 
7.54 -24.12 -1.57 0.05 
7.07 -24.22 -1.57 0.05 
6.60 -24.31 -1.57 0.05 
6.13 -24.39 -1.57 0.05 
5.65 -24.47 -1.56 0.05 
5.18 -24.53 -1.56 0.05 
4.71 -24.58 -1.56 0.06 
4.24 -24.62 -1.56 0.06 
1.89 -12.37 -0.78 0.91 
3.29 -24.68 -1.55 0.06 
2.82 -24.70 -1.55 0.06 
2.35 -24.71 -1.54 0.06 
1.87 -24.71 -1.54 0.06 
1.40 -24.70 -1.54 0.06 
0.93 -24.68 -1.54 0.06 
0.47 -24.65 -1.53 0.06 
0.00 -24.61 -1.53 0.06 
-0.47 -24.57 -1.53 0.06 
-0.93 -24.51 -1.53 0.06 
-1.39 -24.45 -1.52 0.06 
-1.85 -24.38 -1.52 0.06 
-2.31 -24.30 -1.52 0.06 
-2.76 -24.21 -1.52 0.06 
-3.21 -24.12 -1.51 0.06 
-3.66 -24.01 -1.51 0.06 
-4.11 -23.90 -1.51 0.06 
-4.55 -23.78 -1.51 0.06 
-5.00 -23.65 -1.50 0.06 
-5.43 -23.51 -1.50 0.06 
-5.87 -23.37 -1.50 0.06 
-6.30 -23.21 -1.50 0.06 
-6.73 -23.05 -1.49 0.06 
-7.15 -22.89 -1.49 0.06 
-7.57 -22.71 -1.49 0.06 
-7.99 -22.53 -1.49 0.06 
-4.78 -12.72 -0.85 0.85 
-5.02 -12.62 -0.85 0.48 
-9.21 -21.94 -1.48 0.06 
-9.61 -21.73 -1.48 0.06 
-10.00 -21.51 -1.48 0.06 
-10.39 -21.28 -1.47 0.06 
-10.78 -21.05 -1.47 0.06 
-11.16 -20.82 -1.47 0.06 
-11.53 -20.57 -1.47 0.06 
-11.90 -20.32 -1.47 0.06 
-12.27 -20.06 -1.46 0.06 
-12.63 -19.80 -1.46 0.06 
-12.98 -19.53 -1.46 0.06 
-13.33 -19.26 -1.46 0.06 
-13.68 -18.97 -1.46 0.06 
-14.01 -18.69 -1.45 0.06 
-14.35 -18.39 -1.45 0.06 
-14.67 -18.10 -1.45 0.06 
-14.99 -17.79 -1.45 0.06 
-15.31 -17.48 -1.45 0.06 
-15.62 -17.17 -1.44 0.06 
-15.92 -16.85 -1.44 0.06 
-16.22 -16.53 -1.44 0.06 
-16.51 -16.20 -1.44 0.06 
-9.50 -8.97 -0.81 0.71 
-9.62 -8.75 -0.81 0.61 
-17.34 -15.19 -1.43 0.06 
-17.61 -14.84 -1.43 0.06 
-17.87 -14.49 -1.43 0.06 
-18.12 -14.13 -1.43 0.06 
-18.37 -13.77 -1.43 0.06 
-18.61 -13.41 -1.43 0.06 
-18.84 -13.04 -1.43 0.06 
-19.06 -12.67 -1.42 0.06 
-19.28 -12.30 -1.42 0.06 
-19.50 -11.92 -1.42 0.06 
-19.70 -11.54 -1.42 0.06 
-19.90 -11.16 -1.42 0.06 
-20.09 -10.77 -1.42 0.06 
-20.27 -10.38 -1.42 0.06 
-20.45 -9.99 -1.42 0.06 
-19.55 -9.09 -1.34 0.36 
-20.79 -9.19 -1.41 0.06 
-23.03 -9.67 -1.55 0.06 
-23.20 -9.22 -1.55 0.06 
-23.35 -8.78 -1.55 0.06 
-23.50 -8.33 -1.55 0.06 
-23.64 -7.88 -1.55 0.06 
-12.74 -3.98 -0.83 0.80 
-12.76 -3.72 -0.83 0.86 
-12.98 -3.52 -0.84 0.92 
-24.12 -6.06 -1.55 0.06 
-24.22 -5.60 -1.55 0.06 
-24.31 -5.14 -1.55 0.06 
-24.40 -4.67 -1.55 0.06 
-24.47 -4.21 -1.55 0.06 
-7.93 -1.21 -0.50 0.15 
-7.72 -1.03 -0.48 0.70 
-7.64 -0.87 -0.48 0.71 
-7.58 -0.72 -0.47 0.91 
-7.56 -0.57 -0.47 0.91 
-7.55 -0.43 -0.47 0.92 
-7.53 -0.29 -0.47 0.92 
-7.54 -0.14 -0.47 0.92 
-7.56 -0.00 -0.48 0.92 
-7.58 0.14 -0.48 0.92 
-7.61 0.29 -0.48 0.89 
-7.69 0.44 -0.49 0.72 
-7.78 0.59 -0.49 0.71 
-8.15 0.77 -0.52 0.16 
-24.20 2.76 -1.55 0.06 
-24.15 3.22 -1.55 0.06 
-24.09 3.68 -1.55 0.06 
-12.56 2.16 -0.81 0.15 
-11.54 2.21 -0.75 0.21 
-10.70 2.26 -0.69 0.22 
-10.03 2.32 -0.65 0.52 
-9.75 2.45 -0.64 0.53 
-9.65 2.62 -0.63 0.80 
-9.64 2.81 -0.64 0.93 
-9.63 3.01 -0.64 0.92 
-9.63 3.21 -0.64 0.92 
-9.64 3.42 -0.65 0.87 
-9.66 3.63 -0.65 0.86 
-9.68 3.85 -0.66 0.85 
-9.71 4.08 -0.67 0.32 
-22.40 9.90 -1.55 0.06 
-22.18 10.31 -1.55 0.07 
-11.80 5.76 -0.83 0.27 
-11.24 5.75 -0.80 0.55 
-10.80 5.79 -0.78 0.47 
-10.35 5.80 -0.75 0.48 
-9.93 5.81 -0.73 0.50 
-9.53 5.83 -0.71 0.52 
-9.16 5.84 -0.69 0.51 
-8.81 5.86 -0.67 0.59 
-8.50 5.89 -0.66 0.63 
-8.25 5.94 -0.64 0.77 
-8.01 6.01 -0.64 0.89 
-7.85 6.12 -0.63 0.90 
-7.73 6.27 -0.63 0.89 
-7.66 6.46 -0.64 0.88 
-7.64 6.69 -0.64 0.77 
-7.65 6.96 -0.66 0.62 
-7.73 7.31 -0.67 0.41 
-16.14 15.83 -1.43 0.06 
-15.85 16.15 -1.44 0.06 
-15.56 16.47 -1.44 0.06 
-15.26 16.78 -1.44 0.06 
-14.96 17.09 -1.44 0.06 
-14.67 17.41 -1.44 0.06 
-14.37 17.73 -1.45 0.06 
-14.07 18.04 -1.45 0.06 
-13.76 18.34 -1.45 0.06 
-9.25 12.83 -1.00 0.94 
-9.00 12.99 -1.00 0.94 
-8.89 13.37 -1.02 0.50 
-12.45 19.51 -1.47 0.06 
-12.10 19.79 -1.47 0.06 
-11.75 20.06 -1.48 0.06 
-9.44 16.83 -1.22 0.47 
-11.04 20.59 -1.48 0.06 
-9.75 19.04 -1.36 0.79 
-10.30 21.09 -1.49 0.06 
-9.92 21.33 -1.49 0.05 
-9.53 21.56 -1.50 0.05 
-9.14 21.78 -1.50 0.05 
-8.75 22.00 -1.50 0.05 
-8.35 22.21 -1.51 0.05 
-6.37 17.97 -1.21 0.25 
-7.54 22.61 -1.51 0.05 
-5.02 16.06 -1.07 0.63 
-6.70 22.98 -1.52 0.05 
-4.55 16.77 -1.10 0.37 
-4.19 16.67 -1.09 0.75 
-3.89 16.85 -1.10 0.62 
-4.99 23.62 -1.53 0.05 
-4.55 23.76 -1.53 0.05 
-4.11 23.89 -1.54 0.05 
-3.66 24.01 -1.54 0.05 
-3.21 24.12 -1.54 0.05 
-2.76 24.22 -1.55 0.05 
-2.31 24.32 -1.55 0.05 
-1.85 24.40 -1.55 0.05 
-1.04 18.21 -1.16 0.48 
-0.93 24.55 -1.56 0.05 
-0.47 24.60 -1.56 0.05 
0.00 24.65 -1.56 0.05 
0.37 19.54 -1.24 0.42 
0.94 24.72 -1.57 0.05 
0.98 17.32 -1.10 0.13 
1.28 16.88 -1.07 0.72 
1.60 16.85 -1.07 0.73 
2.82 24.73 -1.58 0.05 
3.29 24.71 -1.58 0.05 
3.77 24.68 -1.58 0.05 
4.24 24.64 -1.59 0.05 
4.71 24.60 -1.59 0.05 
5.18 24.53 -1.59 0.05 
5.65 24.46 -1.59 0.05 
6.12 24.39 -1.60 0.05 
3.63 13.36 -0.88 0.91 
3.86 13.22 -0.87 0.91 
4.14 13.27 -0.88 0.66 
7.99 23.98 -1.60 0.05 
8.46 23.85 -1.61 0.05 
8.92 23.72 -1.61 0.05 
7.53 18.94 -1.29 0.88 
3.17 7.55 -0.52 0.06 
3.14 7.10 -0.49 0.17 
3.19 6.86 -0.48 0.23 
3.24 6.64 -0.47 0.36 
3.33 6.50 -0.46 0.35 
3.41 6.36 -0.46 0.35 
3.50 6.24 -0.45 0.73 
3.65 6.24 -0.46 0.70 
3.69 6.04 -0.45 0.14 
3.97 6.22 -0.47 0.74 
4.13 6.22 -0.47 0.70 
4.31 6.22 -0.48 0.61 
4.50 6.24 -0.49 0.66 
4.68 6.24 -0.49 0.67 
4.86 6.23 -0.50 0.64 
5.05 6.23 -0.51 0.63 
5.25 6.23 -0.52 0.62 
5.45 6.22 -0.52 0.62 
5.67 6.23 -0.53 0.58 
5.89 6.24 -0.54 0.38 
6.18 6.30 -0.56 0.21 
18.39 18.05 -1.63 0.05 
18.73 17.70 -1.64 0.05 
19.07 17.35 -1.64 0.05 
19.40 16.99 -1.64 0.05 
18.42 15.52 -1.53 0.81 
18.95 15.36 -1.55 0.80 
20.34 15.87 -1.64 0.05 
20.64 15.48 -1.64 0.05 
20.94 15.09 -1.64 0.05 
21.24 14.71 -1.64 0.05 
21.54 14.32 -1.64 0.05 
21.83 13.92 -1.64 0.05 
22.11 13.52 -1.64 0.05 
22.38 13.11 -1.65 0.05 
22.65 12.70 -1.65 0.05 
22.91 12.28 -1.65 0.05 
19.36 9.91 -1.38 0.70 
23.40 11.42 -1.65 0.05 
23.63 10.99 -1.65 0.05 
23.06 10.20 -1.60 0.88 
24.06 10.10 -1.66 0.05 
24.27 9.65 -1.66 0.05 
24.46 9.20 -1.66 0.05 
24.65 8.74 -1.66 0.05 
24.83 8.28 -1.66 0.05 
24.99 7.81 -1.66 0.05 
25.15 7.34 -1.66 0.05 
25.75 6.99 -1.69 0.55 
26.51 6.66 -1.73 0.55 
27.28 6.30 -1.78 0.55 
28.07 5.93 -1.82 0.53 
28.34 5.43 -1.83 0.06 
28.48 4.90 -1.83 0.05 
28.58 4.36 -1.83 0.05 
28.67 3.82 -1.83 0.05 
28.74 3.28 -1.84 0.05 
28.81 2.73 -1.84 0.05 
28.86 2.19 -1.84 0.05 
28.90 1.64 -1.84 0.05 
28.93 1.10 -1.84 0.05 
28.95 0.55 -1.84 0.05 
28.96 -0.00 -1.84 0.05 
28.96 -0.55 -1.84 0.05 
28.94 -1.10 -1.84 0.05 
28.91 -1.64 -1.84 0.05 
28.88 -2.19 -1.84 0.05 
28.83 -2.74 -1.84 0.05 
28.77 -3.28 -1.84 0.05 
28.70 -3.82 -1.84 0.05 
28.61 -4.37 -1.84 0.05 
28.52 -4.91 -1.84 0.05 
28.42 -5.44 -1.84 0.05 
28.30 -5.98 -1.84 0.05 
28.17 -6.51 -1.83 0.05 
28.03 -7.04 -1.83 0.05 
27.89 -7.57 -1.83 0.05 
27.73 -8.09 -1.83 0.05 
27.56 -8.61 -1.83 0.05 
27.38 -9.12 -1.83 0.05 
27.18 -9.64 -1.83 0.05 
26.98 -10.14 -1.83 0.05 
26.77 -10.65 -1.83 0.05 
26.55 -11.14 -1.83 0.05 
26.32 -11.64 -1.83 0.05 
26.07 -12.12 -1.82 0.05 
25.82 -12.61 -1.82 0.05 
25.56 -13.08 -1.82 0.05 
25.29 -13.56 -1.82 0.05 
5.82 -3.26 -0.42 0.42 
5.57 -3.26 -0.41 0.42 
5.37 -3.28 -0.40 0.46 
5.24 -3.34 -0.39 0.23 
5.18 -3.44 -0.39 0.34 
5.15 -3.57 -0.40 0.33 
5.13 -3.70 -0.40 0.32 
5.12 -3.84 -0.41 0.28 
20.40 -15.91 -1.64 0.05 
20.08 -16.28 -1.64 0.05 
19.75 -16.64 -1.64 0.05 
19.41 -16.99 -1.64 0.05 
19.06 -17.34 -1.63 0.05 
18.71 -17.67 -1.63 0.05 
18.35 -18.00 -1.63 0.05 
17.98 -18.33 -1.63 0.05 
17.61 -18.64 -1.63 0.05 
17.24 -18.95 -1.62 0.05 
16.85 -19.25 -1.62 0.05 
16.46 -19.54 -1.62 0.05 
16.07 -19.82 -1.62 0.05 
8.53 -10.93 -0.88 0.94 
10.51 -14.02 -1.11 0.76 
10.12 -14.03 -1.10 0.77 
9.95 -14.38 -1.11 0.50 
9.98 -15.01 -1.14 0.49 
13.61 -21.34 -1.61 0.05 
13.19 -21.56 -1.60 0.05 
12.76 -21.78 -1.60 0.05 
12.32 -21.98 -1.60 0.05 
11.89 -22.18 -1.60 0.05 
11.45 -22.37 -1.59 0.05 
11.01 -22.55 -1.59 0.05 
10.56 -22.72 -1.59 0.05 
10.12 -22.88 -1.59 0.06 
9.67 -23.03 -1.58 0.06 
9.22 -23.17 -1.58 0.06 
8.76 -23.31 -1.58 0.06 
8.31 -23.43 -1.58 0.06 
7.85 -23.55 -1.57 0.06 
7.39 -23.65 -1.57 0.06 
6.93 -23.75 -1.57 0.06 
6.47 -23.84 -1.57 0.06 
6.01 -23.92 -1.56 0.06 
5.54 -23.99 -1.56 0.06 
5.08 -24.05 -1.56 0.06 
4.62 -24.11 -1.56 0.06 
4.15 -24.15 -1.55 0.06 
1.89 -12.36 -0.79 0.89 
3.23 -24.21 -1.55 0.06 
2.76 -24.23 -1.55 0.06 
2.30 -24.24 -1.54 0.06 
1.84 -24.24 -1.54 0.06 
1.38 -24.23 -1.54 0.06 
0.92 -24.21 -1.54 0.06 
0.46 -24.18 -1.53 0.06 
0.00 -24.15 -1.53 0.06 
-0.46 -24.10 -1.53 0.06 
-0.91 -24.05 -1.53 0.06 
-1.36 -23.99 -1.52 0.06 
-1.81 -23.92 -1.52 0.06 
-2.26 -23.84 -1.52 0.06 
-2.71 -23.76 -1.52 0.06 
-3.15 -23.66 -1.51 0.06 
-3.59 -23.56 -1.51 0.06 
-4.03 -23.45 -1.51 0.06 
-4.47 -23.33 -1.51 0.06 
-4.90 -23.21 -1.50 0.06 
-5.33 -23.07 -1.50 0.06 
-5.76 -22.93 -1.50 0.06 
-6.18 -22.78 -1.50 0.06 
-6.60 -22.63 -1.50 0.06 
-7.02 -22.46 -1.49 0.06 
-7.43 -22.29 -1.49 0.06 
-7.84 -22.11 -1.49 0.06 
-4.78 -12.72 -0.86 0.89 
-5.02 -12.62 -0.86 0.48 
-9.04 -21.54 -1.48 0.06 
-9.43 -21.33 -1.48 0.06 
-9.82 -21.12 -1.48 0.06 
-10.20 -20.90 -1.48 0.06 
-10.58 -20.67 -1.47 0.06 
-10.95 -20.44 -1.47 0.06 
-11.32 -20.20 -1.47 0.06 
-11.69 -19.95 -1.47 0.06 
-12.05 -19.70 -1.46 0.06 
-12.40 -19.44 -1.46 0.06 
-12.75 -19.18 -1.46 0.06 
-13.09 -18.91 -1.46 0.06 
-13.43 -18.63 -1.46 0.06 
-13.76 -18.35 -1.46 0.06 
-14.09 -18.06 -1.45 0.06 
-14.41 -17.77 -1.45 0.06 
-14.72 -17.47 -1.45 0.06 
-15.03 -17.17 -1.45 0.06 
-15.34 -16.86 -1.45 0.06 
-15.64 -16.55 -1.44 0.06 
-15.93 -16.23 -1.44 0.06 
-16.21 -15.91 -1.44 0.06 
-9.50 -8.97 -0.83 0.71 
-9.62 -8.75 -0.82 0.61 
-17.03 -14.92 -1.44 0.06 
-17.30 -14.58 -1.43 0.06 
-17.55 -14.23 -1.43 0.06 
-17.80 -13.88 -1.43 0.06 
-18.04 -13.53 -1.43 0.06 
-18.28 -13.17 -1.43 0.06 
-18.50 -12.81 -1.43 0.06 
-18.73 -12.45 -1.43 0.06 
-18.94 -12.08 -1.43 0.06 
-19.15 -11.71 -1.42 0.06 
-19.35 -11.34 -1.42 0.06 
-19.55 -10.96 -1.42 0.06 
-19.74 -10.58 -1.42 0.06 
-19.92 -10.20 -1.42 0.06 
-20.09 -9.81 -1.42 0.06 
-19.55 -9.09 -1.37 0.36 
-20.42 -9.03 -1.42 0.06 
-22.63 -9.50 -1.56 0.06 
-22.79 -9.06 -1.56 0.06 
-22.94 -8.63 -1.56 0.06 
-23.09 -8.18 -1.55 0.06 
-23.23 -7.74 -1.55 0.06 
-12.73 -3.98 -0.85 0.84 
-12.76 -3.72 -0.84 0.86 
-12.98 -3.52 -0.85 0.92 
-23.70 -5.95 -1.55 0.06 
-23.80 -5.50 -1.55 0.06 
-23.89 -5.05 -1.55 0.06 
-23.97 -4.59 -1.55 0.06 
-24.05 -4.14 -1.55 0.06 
-7.91 -1.21 -0.51 0.15 
-7.72 -1.03 -0.49 0.70 
-7.64 -0.87 -0.49 0.71 
-7.57 -0.72 -0.48 0.91 
-7.56 -0.57 -0.48 0.92 
-7.54 -0.43 -0.48 0.92 
-7.53 -0.29 -0.48 0.92 
-7.54 -0.14 -0.48 0.92 
-7.56 -0.00 -0.49 0.92 
-7.58 0.14 -0.49 0.92 
-7.60 0.29 -0.49 0.89 
-7.68 0.44 -0.50 0.72 
-7.77 0.59 -0.50 0.71 
-8.12 0.77 -0.53 0.16 
-23.79 2.71 -1.55 0.06 
-23.74 3.16 -1.55 0.06 
-23.68 3.61 -1.55 0.06 
-12.56 2.16 -0.82 0.15 
-11.51 2.20 -0.76 0.21 
-10.67 2.25 -0.70 0.22 
-10.02 2.32 -0.66 0.52 
-9.74 2.45 -0.65 0.53 
-9.64 2.62 -0.65 0.93 
-9.64 2.81 -0.65 0.93 
-9.63 3.01 -0.65 0.92 
-9.63 3.21 -0.66 0.92 
-9.64 3.42 -0.66 0.87 
-9.66 3.63 -0.67 0.86 
-9.68 3.85 -0.67 0.85 
-9.70 4.07 -0.68 0.32 
-22.01 9.73 -1.56 0.06 
-21.84 10.15 -1.56 0.07 
-11.78 5.75 -0.85 0.27 
-11.24 5.75 -0.82 0.55 
-10.80 5.79 -0.79 0.47 
-10.35 5.80 -0.77 0.48 
-9.92 5.81 -0.74 0.51 
-9.52 5.82 -0.72 0.52 
-9.16 5.84 -0.70 0.51 
-8.81 5.86 -0.68 0.59 
-8.49 5.88 -0.67 0.63 
-8.24 5.94 -0.66 0.77 
-8.01 6.01 -0.65 0.89 
-7.84 6.12 -0.64 0.90 
-7.73 6.26 -0.64 0.89 
-7.66 6.46 -0.65 0.88 
-7.64 6.69 -0.66 0.77 
-7.65 6.96 -0.67 0.62 
-7.73 7.30 -0.69 0.41 
-15.85 15.56 -1.44 0.06 
-15.57 15.87 -1.44 0.06 
-15.29 16.18 -1.44 0.06 
-14.99 16.48 -1.44 0.06 
-14.69 16.78 -1.44 0.06 
-14.40 17.08 -1.44 0.06 
-14.10 17.39 -1.45 0.06 
-13.80 17.70 -1.45 0.06 
-13.50 18.00 -1.45 0.06 
-9.25 12.83 -1.02 0.94 
-9.00 12.99 -1.02 0.94 
-8.89 13.37 -1.04 0.50 
-12.21 19.14 -1.47 0.06 
-11.87 19.41 -1.47 0.06 
-9.97 17.02 -1.28 0.21 
-9.45 16.86 -1.25 0.47 
-10.82 20.19 -1.48 0.06 
-9.74 19.03 -1.38 0.79 
-10.10 20.68 -1.49 0.06 
-9.72 20.91 -1.49 0.06 
-9.35 21.14 -1.49 0.06 
-8.97 21.36 -1.50 0.06 
-8.58 21.57 -1.50 0.06 
-8.19 21.78 -1.50 0.06 
-6.36 17.94 -1.23 0.62 
-7.39 22.17 -1.51 0.06 
-5.01 16.04 -1.09 0.69 
-6.57 22.53 -1.52 0.06 
-4.56 16.80 -1.13 0.37 
-4.19 16.68 -1.11 0.75 
-3.90 16.86 -1.12 0.62 
-4.89 23.15 -1.53 0.05 
-4.46 23.28 -1.53 0.05 
-4.03 23.41 -1.54 0.05 
-3.59 23.53 -1.54 0.05 
-3.15 23.63 -1.54 0.05 
-2.71 23.73 -1.54 0.05 
-2.26 23.83 -1.55 0.05 
-1.81 23.91 -1.55 0.05 
-1.04 18.21 -1.18 0.32 
-0.91 24.05 -1.56 0.05 
-0.46 24.10 -1.56 0.05 
0.00 24.15 -1.56 0.05 
0.37 19.53 -1.26 0.42 
0.92 24.21 -1.57 0.05 
1.38 24.23 -1.57 0.05 
1.28 16.89 -1.10 0.72 
1.60 16.87 -1.10 0.73 
2.76 24.22 -1.58 0.05 
3.23 24.20 -1.58 0.05 
3.69 24.17 -1.58 0.05 
4.15 24.14 -1.58 0.05 
4.61 24.09 -1.59 0.05 
5.08 24.03 -1.59 0.05 
5.54 23.96 -1.59 0.05 
6.00 23.88 -1.59 0.05 
3.63 13.36 -0.90 0.91 
3.86 13.22 -0.89 0.91 
4.14 13.26 -0.90 0.66 
7.83 23.48 -1.60 0.05 
8.28 23.35 -1.60 0.05 
8.73 23.22 -1.60 0.05 
7.53 18.94 -1.32 0.88 
3.06 7.29 -0.51 0.12 
3.12 7.06 -0.50 0.12 
3.17 6.82 -0.49 0.23 
3.23 6.62 -0.48 0.36 
3.32 6.48 -0.47 0.35 
3.40 6.34 -0.47 0.35 
3.50 6.24 -0.46 0.73 
3.65 6.23 -0.47 0.70 
3.66 5.99 -0.45 0.14 
3.96 6.22 -0.48 0.74 
4.13 6.21 -0.48 0.70 
4.30 6.22 -0.49 0.61 
4.49 6.23 -0.50 0.67 
4.67 6.23 -0.50 0.67 
4.86 6.23 -0.51 0.65 
5.05 6.23 -0.52 0.63 
5.25 6.23 -0.53 0.62 
5.44 6.22 -0.53 0.63 
5.66 6.22 -0.54 0.58 
5.88 6.22 -0.55 0.38 
6.16 6.28 -0.57 0.35 
18.00 17.66 -1.63 0.05 
18.33 17.32 -1.63 0.05 
18.66 16.98 -1.63 0.05 
18.99 16.62 -1.63 0.05 
18.42 15.52 -1.56 0.81 
18.96 15.37 -1.58 0.19 
19.91 15.53 -1.63 0.05 
20.22 15.16 -1.63 0.05 
20.52 14.79 -1.64 0.05 
20.82 14.42 -1.64 0.05 
21.11 14.03 -1.64 0.05 
21.39 13.64 -1.64 0.05 
21.67 13.25 -1.64 0.05 
21.94 12.85 -1.64 0.05 
22.20 12.44 -1.64 0.05 
22.45 12.03 -1.65 0.05 
19.36 9.91 -1.41 0.70 
22.93 11.19 -1.65 0.05 
23.15 10.77 -1.65 0.05 
23.06 10.20 -1.63 0.88 
23.58 9.90 -1.65 0.05 
23.78 9.46 -1.65 0.05 
23.97 9.01 -1.66 0.05 
24.15 8.56 -1.66 0.05 
24.33 8.11 -1.66 0.05 
24.49 7.65 -1.66 0.05 
25.00 7.30 -1.68 0.55 
25.74 6.98 -1.72 0.55 
26.50 6.65 -1.77 0.55 
27.27 6.30 -1.81 0.55 
27.63 5.84 -1.83 0.06 
27.80 5.32 -1.83 0.05 
27.91 4.80 -1.83 0.05 
28.00 4.27 -1.83 0.05 
28.09 3.74 -1.83 0.05 
28.16 3.21 -1.83 0.05 
28.22 2.68 -1.83 0.05 
28.27 2.14 -1.83 0.05 
28.32 1.61 -1.83 0.05 
28.35 1.07 -1.83 0.05 
28.36 0.54 -1.83 0.05 
28.37 -0.00 -1.83 0.05 
28.37 -0.54 -1.83 0.05 
28.35 -1.07 -1.83 0.05 
28.33 -1.61 -1.83 0.05 
28.29 -2.15 -1.83 0.05 
28.24 -2.68 -1.83 0.05 
28.18 -3.21 -1.83 0.05 
28.11 -3.75 -1.83 0.05 
28.03 -4.28 -1.83 0.05 
27.94 -4.81 -1.83 0.05 
27.84 -5.33 -1.83 0.05 
27.73 -5.86 -1.83 0.05 
27.60 -6.38 -1.83 0.05 
27.47 -6.90 -1.83 0.05 
27.32 -7.41 -1.83 0.05 
27.17 -7.93 -1.83 0.05 
27.00 -8.43 -1.83 0.05 
26.82 -8.94 -1.83 0.05 
26.63 -9.44 -1.83 0.05 
26.44 -9.94 -1.83 0.05 
26.23 -10.43 -1.82 0.05 
26.01 -10.92 -1.82 0.05 
25.78 -11.40 -1.82 0.05 
25.55 -11.88 -1.82 0.05 
25.30 -12.35 -1.82 0.05 
25.04 -12.82 -1.82 0.05 
24.78 -13.28 -1.82 0.05 
5.81 -3.26 -0.43 0.42 
5.56 -3.26 -0.42 0.42 
5.36 -3.28 -0.41 0.46 
5.22 -3.33 -0.40 0.40 
5.16 -3.43 -0.40 0.34 
5.14 -3.56 -0.40 0.33 
5.12 -3.69 -0.41 0.32 
5.10 -3.83 -0.41 0.28 
20.00 -15.60 -1.64 0.05 
19.68 -15.96 -1.64 0.05 
19.35 -16.31 -1.64 0.05 
19.02 -16.65 -1.63 0.05 
18.68 -16.99 -1.63 0.05 
18.34 -17.32 -1.63 0.05 
17.99 -17.65 -1.63 0.05 
17.63 -17.96 -1.63 0.05 
17.26 -18.27 -1.62 0.05 
16.89 -18.57 -1.62 0.05 
16.52 -18.87 -1.62 0.05 
16.14 -19.15 -1.62 0.05 
15.75 -19.43 -1.62 0.06 
8.53 -10.93 -0.90 0.94 
10.51 -14.02 -1.13 0.76 
10.12 -14.03 -1.12 0.77 
9.95 -14.38 -1.13 0.50 
9.98 -15.01 -1.16 0.49 
13.34 -20.92 -1.60 0.06 
12.93 -21.14 -1.60 0.06 
12.51 -21.35 -1.60 0.06 
12.08 -21.56 -1.60 0.06 
11.66 -21.75 -1.60 0.06 
11.23 -21.93 -1.59 0.06 
10.80 -22.11 -1.59 0.06 
10.36 -22.28 -1.59 0.06 
9.92 -22.44 -1.59 0.06 
9.48 -22.59 -1.58 0.06 
9.04 -22.73 -1.58 0.06 
8.59 -22.86 -1.58 0.06 
8.15 -22.98 -1.58 0.06 
7.70 -23.10 -1.57 0.06 
7.25 -23.20 -1.57 0.06 
6.80 -23.30 -1.57 0.06 
6.35 -23.39 -1.57 0.06 
5.89 -23.47 -1.56 0.06 
5.44 -23.54 -1.56 0.06 
4.98 -23.60 -1.56 0.06 
4.53 -23.65 -1.56 0.06 
4.08 -23.69 -1.55 0.06 
1.89 -12.36 -0.81 0.86 
3.17 -23.75 -1.55 0.06 
2.71 -23.77 -1.55 0.06 
2.26 -23.78 -1.54 0.06 
1.80 -23.78 -1.54 0.06 
1.35 -23.77 -1.54 0.06 
0.90 -23.76 -1.54 0.06 
0.45 -23.73 -1.53 0.06 
-0.00 -23.70 -1.53 0.06 
-0.45 -23.65 -1.53 0.06 
-0.89 -23.60 -1.53 0.06 
-1.34 -23.54 -1.52 0.06 
-1.78 -23.48 -1.52 0.06 
-2.22 -23.40 -1.52 0.06 
-2.66 -23.32 -1.52 0.06 
-3.10 -23.23 -1.51 0.06 
-3.53 -23.13 -1.51 0.06 
-3.96 -23.02 -1.51 0.06 
-4.39 -22.91 -1.51 0.06 
-4.81 -22.78 -1.51 0.06 
-5.23 -22.65 -1.50 0.06 
-5.65 -22.51 -1.50 0.06 
-6.07 -22.37 -1.50 0.06 
-6.48 -22.22 -1.50 0.06 
-6.89 -22.06 -1.49 0.06 
-7.30 -21.89 -1.49 0.06 
-7.70 -21.71 -1.49 0.06 
-4.78 -12.72 -0.88 0.90 
-5.02 -12.62 -0.88 0.48 
-8.88 -21.15 -1.48 0.06 
-9.26 -20.94 -1.48 0.06 
-9.64 -20.74 -1.48 0.06 
-10.02 -20.52 -1.48 0.06 
-10.39 -20.30 -1.47 0.06 
-10.76 -20.07 -1.47 0.06 
-11.12 -19.84 -1.47 0.06 
-11.48 -19.59 -1.47 0.06 
-11.83 -19.35 -1.47 0.06 
-12.18 -19.09 -1.46 0.06 
-12.52 -18.84 -1.46 0.06 
-12.86 -18.57 -1.46 0.06 
-13.19 -18.30 -1.46 0.06 
-13.52 -18.03 -1.46 0.06 
-13.84 -17.74 -1.45 0.06 
-14.15 -17.46 -1.45 0.06 
-14.47 -17.17 -1.45 0.06 
-14.77 -16.87 -1.45 0.06 
-15.07 -16.57 -1.45 0.06 
-15.36 -16.26 -1.45 0.06 
-15.65 -15.95 -1.44 0.06 
-15.93 -15.63 -1.44 0.06 
-9.50 -8.97 -0.84 0.71 
-9.62 -8.75 -0.84 0.61 
-16.74 -14.65 -1.44 0.06 
-16.99 -14.32 -1.44 0.06 
-17.24 -13.98 -1.44 0.06 
-17.49 -13.64 -1.43 0.06 
-17.73 -13.29 -1.43 0.06 
-17.96 -12.94 -1.43 0.06 
-18.18 -12.59 -1.43 0.06 
-18.40 -12.23 -1.43 0.06 
-18.61 -11.87 -1.43 0.06 
-18.82 -11.51 -1.43 0.06 
-19.02 -11.14 -1.42 0.06 
-19.21 -10.77 -1.42 0.06 
-19.39 -10.40 -1.42 0.06 
-19.57 -10.02 -1.42 0.06 
-19.75 -9.64 -1.42 0.06 
-19.54 -9.09 -1.39 0.36 
-20.07 -8.87 -1.42 0.06 
-22.24 -9.34 -1.56 0.06 
-22.40 -8.91 -1.56 0.06 
-22.55 -8.48 -1.56 0.06 
-22.69 -8.04 -1.56 0.06 
-22.83 -7.61 -1.56 0.06 
-12.79 -4.00 -0.87 0.22 
-12.78 -3.73 -0.86 0.22 
-13.22 -3.59 -0.89 0.35 
-23.29 -5.85 -1.55 0.06 
-23.39 -5.41 -1.55 0.06 
-23.48 -4.96 -1.55 0.06 
-23.56 -4.51 -1.55 0.06 
-23.63 -4.07 -1.55 0.06 
-7.88 -1.20 -0.52 0.15 
-7.71 -1.03 -0.50 0.70 
-7.63 -0.87 -0.50 0.71 
-7.57 -0.72 -0.49 0.91 
-7.55 -0.57 -0.49 0.92 
-7.54 -0.43 -0.49 0.92 
-7.53 -0.28 -0.49 0.92 
-7.53 -0.14 -0.49 0.92 
-7.55 -0.00 -0.50 0.92 
-7.57 0.14 -0.50 0.92 
-7.60 0.29 -0.50 0.89 
-7.68 0.44 -0.51 0.72 
-7.77 0.59 -0.51 0.71 
-8.10 0.77 -0.54 0.16 
-23.39 2.67 -1.55 0.06 
-23.34 3.11 -1.55 0.06 
-23.28 3.55 -1.55 0.06 
-12.56 2.16 -0.84 0.15 
-11.48 2.20 -0.77 0.22 
-10.64 2.25 -0.72 0.22 
-10.01 2.31 -0.68 0.52 
-9.73 2.44 -0.66 0.48 
-9.64 2.62 -0.66 0.93 
-9.64 2.81 -0.66 0.93 
-9.63 3.01 -0.66 0.92 
-9.63 3.21 -0.67 0.92 
-9.64 3.42 -0.67 0.87 
-9.66 3.63 -0.68 0.86 
-9.67 3.85 -0.69 0.85 
-9.69 4.07 -0.69 0.32 
-21.64 9.57 -1.56 0.06 
-21.47 9.98 -1.56 0.06 
-11.76 5.74 -0.86 0.21 
-11.23 5.75 -0.83 0.55 
-10.80 5.79 -0.81 0.47 
-10.35 5.80 -0.78 0.48 
-9.92 5.81 -0.76 0.51 
-9.52 5.82 -0.74 0.52 
-9.15 5.84 -0.71 0.51 
-8.80 5.85 -0.70 0.59 
-8.49 5.88 -0.68 0.63 
-8.24 5.94 -0.67 0.77 
-8.01 6.01 -0.66 0.89 
-7.84 6.12 -0.65 0.90 
-7.72 6.26 -0.65 0.89 
-7.66 6.46 -0.66 0.88 
-7.64 6.69 -0.67 0.77 
-7.65 6.96 -0.68 0.62 
-7.73 7.30 -0.70 0.41 
-15.58 15.29 -1.44 0.06 
-15.31 15.60 -1.44 0.06 
-15.02 15.90 -1.44 0.06 
-14.73 16.20 -1.44 0.06 
-14.44 16.49 -1.44 0.06 
-14.14 16.78 -1.45 0.06 
-13.84 17.07 -1.45 0.06 
-13.55 17.37 -1.45 0.06 
-13.24 17.66 -1.45 0.06 
-9.25 12.83 -1.04 0.94 
-8.99 12.99 -1.04 0.94 
-8.89 13.37 -1.06 0.50 
-11.98 18.78 -1.47 0.06 
-11.65 19.05 -1.47 0.06 
-9.96 17.01 -1.30 0.69 
-9.47 16.90 -1.28 0.47 
-10.62 19.81 -1.48 0.06 
-9.73 19.02 -1.41 0.79 
-9.90 20.28 -1.49 0.06 
-9.54 20.51 -1.49 0.06 
-9.17 20.73 -1.49 0.06 
-8.79 20.95 -1.50 0.06 
-8.41 21.16 -1.50 0.06 
-8.03 21.36 -1.50 0.06 
-6.36 17.93 -1.25 0.69 
-7.25 21.74 -1.51 0.06 
-5.01 16.03 -1.11 0.73 
-6.44 22.09 -1.51 0.06 
-4.57 16.83 -1.15 0.37 
-4.19 16.69 -1.13 0.75 
-3.90 16.88 -1.14 0.62 
-4.79 22.69 -1.53 0.06 
-4.37 22.83 -1.53 0.06 
-3.95 22.95 -1.53 0.06 
-3.52 23.06 -1.54 0.06 
-3.09 23.17 -1.54 0.06 
-2.65 23.27 -1.54 0.06 
-2.22 23.35 -1.54 0.06 
-1.78 23.44 -1.55 0.05 
-1.34 23.51 -1.55 0.05 
-0.89 23.57 -1.55 0.05 
-0.45 23.62 -1.56 0.05 
0.00 23.67 -1.56 0.05 
0.37 19.52 -1.29 0.42 
0.90 23.73 -1.56 0.05 
1.35 23.74 -1.57 0.05 
1.28 16.90 -1.12 0.72 
1.60 16.88 -1.12 0.73 
2.71 23.74 -1.57 0.05 
3.16 23.72 -1.58 0.05 
3.61 23.69 -1.58 0.05 
4.07 23.65 -1.58 0.05 
4.52 23.60 -1.58 0.05 
4.97 23.54 -1.58 0.05 
5.42 23.47 -1.59 0.05 
5.87 23.39 -1.59 0.05 
3.63 13.36 -0.91 0.91 
3.86 13.22 -0.91 0.91 
4.14 13.26 -0.91 0.66 
7.66 23.00 -1.60 0.05 
8.11 22.87 -1.60 0.05 
8.55 22.74 -1.60 0.05 
7.53 18.95 -1.34 0.87 
3.03 7.22 -0.52 0.12 
3.09 6.99 -0.50 0.15 
3.16 6.79 -0.49 0.23 
3.22 6.60 -0.48 0.35 
3.31 6.46 -0.48 0.35 
3.39 6.32 -0.47 0.35 
3.49 6.23 -0.47 0.73 
3.58 6.10 -0.47 0.14 
3.63 5.94 -0.46 0.82 
3.96 6.21 -0.49 0.74 
4.13 6.21 -0.49 0.70 
4.30 6.21 -0.50 0.69 
4.49 6.23 -0.51 0.67 
4.67 6.22 -0.51 0.67 
4.85 6.22 -0.52 0.65 
5.04 6.22 -0.53 0.64 
5.24 6.22 -0.54 0.62 
5.44 6.21 -0.54 0.63 
5.65 6.21 -0.55 0.58 
5.87 6.21 -0.56 0.38 
6.15 6.26 -0.58 0.35 
17.62 17.29 -1.63 0.05 
17.95 16.96 -1.63 0.05 
18.27 16.62 -1.63 0.05 
18.59 16.28 -1.63 0.05 
18.43 15.53 -1.59 0.64 
19.20 15.57 -1.63 0.06 
19.52 15.22 -1.63 0.06 
19.82 14.86 -1.63 0.06 
20.12 14.50 -1.63 0.06 
20.41 14.13 -1.63 0.06 
20.70 13.76 -1.64 0.06 
20.97 13.38 -1.64 0.06 
21.24 12.99 -1.64 0.06 
21.51 12.60 -1.64 0.06 
21.76 12.20 -1.64 0.06 
22.01 11.80 -1.64 0.06 
19.36 9.91 -1.43 0.70 
22.47 10.97 -1.65 0.06 
22.70 10.55 -1.65 0.05 
22.91 10.13 -1.65 0.05 
23.11 9.70 -1.65 0.05 
23.31 9.27 -1.65 0.05 
23.50 8.83 -1.65 0.05 
23.68 8.39 -1.65 0.05 
23.85 7.95 -1.65 0.05 
24.27 7.58 -1.67 0.56 
25.00 7.29 -1.71 0.55 
25.73 6.98 -1.76 0.55 
26.49 6.65 -1.80 0.55 
26.94 6.23 -1.82 0.06 
27.13 5.73 -1.83 0.05 
27.25 5.22 -1.83 0.05 
27.35 4.70 -1.83 0.05 
27.44 4.19 -1.83 0.05 
27.53 3.67 -1.83 0.05 
27.60 3.15 -1.83 0.05 
27.66 2.63 -1.83 0.05 
27.71 2.10 -1.83 0.05 
27.75 1.58 -1.83 0.05 
27.78 1.05 -1.83 0.05 
27.80 0.53 -1.83 0.05 
27.81 -0.00 -1.83 0.05 
27.80 -0.53 -1.83 0.05 
27.79 -1.05 -1.83 0.05 
27.76 -1.58 -1.83 0.05 
27.73 -2.10 -1.83 0.05 
27.68 -2.63 -1.83 0.05 
27.62 -3.15 -1.83 0.05 
27.56 -3.67 -1.83 0.05 
27.48 -4.19 -1.83 0.05 
27.39 -4.71 -1.83 0.05 
27.29 -5.23 -1.83 0.05 
27.18 -5.74 -1.83 0.05 
27.05 -6.25 -1.83 0.05 
26.92 -6.76 -1.83 0.05 
26.78 -7.27 -1.83 0.05 
26.63 -7.77 -1.83 0.05 
26.46 -8.27 -1.83 0.05 
26.29 -8.76 -1.82 0.05 
26.11 -9.25 -1.82 0.05 
25.91 -9.74 -1.82 0.05 
25.71 -10.22 -1.82 0.05 
25.50 -10.70 -1.82 0.05 
25.28 -11.18 -1.82 0.05 
25.04 -11.65 -1.82 0.05 
24.80 -12.11 -1.82 0.05 
24.55 -12.57 -1.82 0.05 
24.29 -13.02 -1.81 0.05 
5.80 -3.25 -0.44 0.38 
5.55 -3.25 -0.42 0.42 
5.35 -3.27 -0.41 0.46 
5.20 -3.32 -0.41 0.40 
5.15 -3.42 -0.41 0.34 
5.12 -3.55 -0.41 0.33 
5.10 -3.68 -0.41 0.32 
5.08 -3.81 -0.42 0.28 
19.61 -15.29 -1.64 0.06 
19.29 -15.64 -1.64 0.06 
10.51 -8.86 -0.90 0.06 
18.65 -16.33 -1.63 0.06 
18.32 -16.66 -1.63 0.06 
17.98 -16.99 -1.63 0.06 
17.64 -17.30 -1.63 0.06 
17.29 -17.62 -1.62 0.06 
16.93 -17.92 -1.62 0.06 
16.57 -18.21 -1.62 0.06 
16.20 -18.50 -1.62 0.06 
15.83 -18.78 -1.62 0.06 
15.45 -19.06 -1.62 0.06 
8.53 -10.94 -0.91 0.94 
10.51 -14.02 -1.15 0.76 
10.12 -14.03 -1.14 0.77 
9.95 -14.38 -1.15 0.50 
9.98 -15.01 -1.19 0.49 
13.09 -20.52 -1.60 0.06 
12.68 -20.74 -1.60 0.06 
12.27 -20.95 -1.60 0.06 
11.85 -21.14 -1.60 0.06 
11.44 -21.33 -1.59 0.06 
11.01 -21.52 -1.59 0.06 
10.59 -21.69 -1.59 0.06 
10.16 -21.85 -1.59 0.06 
9.73 -22.01 -1.58 0.06 
9.30 -22.16 -1.58 0.06 
8.87 -22.30 -1.58 0.06 
8.43 -22.43 -1.58 0.06 
7.99 -22.55 -1.58 0.06 
7.55 -22.66 -1.57 0.06 
7.11 -22.77 -1.57 0.06 
6.67 -22.86 -1.57 0.06 
6.23 -22.95 -1.57 0.06 
5.78 -23.03 -1.56 0.06 
5.34 -23.10 -1.56 0.06 
4.89 -23.16 -1.56 0.06 
4.45 -23.21 -1.56 0.06 
4.00 -23.25 -1.55 0.06 
1.89 -12.36 -0.82 0.80 
3.11 -23.31 -1.55 0.06 
2.66 -23.33 -1.55 0.06 
2.22 -23.34 -1.54 0.06 
1.77 -23.34 -1.54 0.06 
1.33 -23.34 -1.54 0.06 
0.88 -23.32 -1.54 0.06 
0.44 -23.29 -1.53 0.06 
-0.00 -23.26 -1.53 0.06 
-0.44 -23.22 -1.53 0.06 
-0.88 -23.17 -1.53 0.06 
-1.31 -23.12 -1.52 0.06 
-1.75 -23.05 -1.52 0.06 
-2.18 -22.98 -1.52 0.06 
-2.61 -22.90 -1.52 0.06 
-3.04 -22.81 -1.51 0.06 
-3.46 -22.71 -1.51 0.06 
-3.89 -22.60 -1.51 0.06 
-4.31 -22.49 -1.51 0.06 
-4.73 -22.37 -1.51 0.06 
-5.14 -22.25 -1.50 0.06 
-5.55 -22.11 -1.50 0.06 
-5.96 -21.97 -1.50 0.06 
-6.37 -21.82 -1.50 0.06 
-6.77 -21.66 -1.49 0.06 
-7.17 -21.50 -1.49 0.06 
-7.56 -21.33 -1.49 0.06 
-4.78 -12.72 -0.89 0.88 
-5.02 -12.62 -0.89 0.49 
-8.72 -20.77 -1.48 0.06 
-9.10 -20.57 -1.48 0.06 
-9.47 -20.37 -1.48 0.06 
-9.84 -20.16 -1.48 0.06 
-10.21 -19.94 -1.48 0.06 
-10.57 -19.72 -1.47 0.06 
-10.93 -19.49 -1.47 0.06 
-11.28 -19.25 -1.47 0.06 
-11.62 -19.01 -1.47 0.06 
-11.97 -18.76 -1.47 0.06 
-12.30 -18.51 -1.46 0.06 
-12.63 -18.25 -1.46 0.06 
-12.96 -17.98 -1.46 0.06 
-13.28 -17.71 -1.46 0.06 
-13.60 -17.44 -1.46 0.06 
-13.91 -17.15 -1.45 0.06 
-14.21 -16.87 -1.45 0.06 
-14.51 -16.58 -1.45 0.06 
-14.81 -16.28 -1.45 0.06 
-15.10 -15.98 -1.45 0.06 
-15.38 -15.67 -1.45 0.06 
-15.65 -15.36 -1.44 0.06 
-9.50 -8.97 -0.86 0.71 
-9.62 -8.75 -0.86 0.61 
-16.45 -14.40 -1.44 0.06 
-16.70 -14.07 -1.44 0.06 
-16.95 -13.74 -1.44 0.06 
-17.19 -13.41 -1.44 0.06 
-17.42 -13.07 -1.43 0.06 
-17.65 -12.72 -1.43 0.06 
-17.87 -12.37 -1.43 0.06 
-18.09 -12.02 -1.43 0.06 
-18.30 -11.67 -1.43 0.06 
-18.50 -11.31 -1.43 0.06 
-18.69 -10.95 -1.43 0.06 
-18.88 -10.59 -1.43 0.06 
-19.06 -10.22 -1.42 0.06 
-19.24 -9.85 -1.42 0.06 
-19.41 -9.48 -1.42 0.06 
-19.54 -9.09 -1.42 0.36 
-19.73 -8.72 -1.42 0.06 
-21.86 -9.18 -1.56 0.06 
-22.02 -8.76 -1.56 0.06 
-22.17 -8.33 -1.56 0.06 
-22.31 -7.91 -1.56 0.06 
-22.44 -7.48 -1.56 0.06 
-12.82 -4.00 -0.88 0.46 
-12.82 -3.74 -0.88 0.46 
-13.21 -3.58 -0.90 0.35 
-22.90 -5.75 -1.55 0.06 
-23.00 -5.31 -1.55 0.06 
-23.08 -4.88 -1.55 0.06 
-23.16 -4.44 -1.55 0.06 
-23.24 -4.00 -1.55 0.06 
-7.86 -1.20 -0.52 0.15 
-7.70 -1.03 -0.51 0.70 
-7.62 -0.87 -0.51 0.71 
-7.57 -0.72 -0.50 0.91 
-7.55 -0.57 -0.50 0.92 
-7.54 -0.43 -0.50 0.92 
-7.52 -0.28 -0.50 0.92 
-7.53 -0.14 -0.50 0.92 
-7.55 -0.00 -0.51 0.92 
-7.57 0.14 -0.51 0.92 
-7.60 0.29 -0.51 0.89 
-7.67 0.44 -0.52 0.72 
-7.76 0.59 -0.52 0.71 
-8.07 0.77 -0.54 0.16 
-23.00 2.62 -1.55 0.07 
-22.95 3.06 -1.55 0.07 
-22.89 3.49 -1.55 0.07 
-12.56 2.16 -0.85 0.15 
-11.45 2.19 -0.78 0.21 
-10.61 2.24 -0.73 0.22 
-10.00 2.31 -0.69 0.52 
-9.72 2.44 -0.67 0.48 
-9.64 2.62 -0.67 0.90 
-9.64 2.81 -0.67 0.93 
-9.63 3.01 -0.68 0.92 
-9.63 3.21 -0.68 0.92 
-9.64 3.42 -0.69 0.87 
-9.66 3.63 -0.69 0.86 
-9.67 3.85 -0.70 0.86 
-9.68 4.06 -0.70 0.32 
-21.28 9.41 -1.56 0.07 
-21.11 9.82 -1.56 0.07 
-11.75 5.73 -0.88 0.40 
-11.23 5.75 -0.85 0.55 
-10.80 5.79 -0.82 0.48 
-10.35 5.80 -0.80 0.48 
-9.92 5.81 -0.77 0.51 
-9.52 5.82 -0.75 0.52 
-9.15 5.84 -0.73 0.51 
-8.80 5.85 -0.71 0.59 
-8.48 5.87 -0.69 0.63 
-8.24 5.94 -0.68 0.77 
-8.01 6.01 -0.67 0.89 
-7.84 6.11 -0.67 0.90 
-7.72 6.26 -0.67 0.89 
-7.66 6.45 -0.67 0.88 
-7.64 6.69 -0.68 0.77 
-7.64 6.95 -0.69 0.62 
-7.72 7.30 -0.71 0.41 
-15.32 15.03 -1.44 0.07 
-15.05 15.33 -1.44 0.07 
-14.77 15.63 -1.44 0.06 
-14.49 15.93 -1.44 0.06 
-14.20 16.21 -1.44 0.06 
-13.90 16.50 -1.45 0.06 
-13.60 16.78 -1.45 0.06 
-13.30 17.05 -1.45 0.06 
-13.00 17.34 -1.45 0.06 
-9.25 12.83 -1.06 0.94 
-8.99 12.99 -1.06 0.94 
-8.89 13.37 -1.08 0.50 
-11.76 18.43 -1.47 0.06 
-11.43 18.69 -1.47 0.06 
-9.95 16.99 -1.32 0.69 
-10.76 19.20 -1.48 0.06 
-10.42 19.44 -1.48 0.06 
-9.71 18.97 -1.43 0.83 
-9.72 19.91 -1.49 0.06 
-9.36 20.13 -1.49 0.06 
-9.00 20.35 -1.49 0.06 
-8.63 20.56 -1.49 0.06 
-8.26 20.76 -1.50 0.06 
-7.88 20.96 -1.50 0.06 
-6.35 17.92 -1.27 0.72 
-7.11 21.33 -1.51 0.06 
-5.00 16.01 -1.12 0.77 
-6.32 21.67 -1.51 0.06 
-4.57 16.86 -1.17 0.37 
-4.20 16.71 -1.15 0.75 
-3.90 16.90 -1.16 0.62 
-4.70 22.26 -1.53 0.06 
-4.29 22.39 -1.53 0.06 
-3.87 22.51 -1.53 0.06 
-3.45 22.62 -1.53 0.06 
-3.03 22.72 -1.54 0.06 
-2.60 22.82 -1.54 0.06 
-2.17 22.90 -1.54 0.06 
-1.74 22.98 -1.55 0.06 
-1.31 23.05 -1.55 0.06 
-0.88 23.11 -1.55 0.06 
-0.44 23.16 -1.55 0.06 
0.00 23.20 -1.56 0.06 
0.37 19.51 -1.31 0.42 
0.88 23.26 -1.56 0.06 
1.32 23.28 -1.56 0.06 
1.28 16.92 -1.14 0.72 
1.60 16.90 -1.14 0.73 
2.65 23.27 -1.57 0.06 
3.10 23.25 -1.57 0.06 
3.54 23.22 -1.57 0.06 
3.99 23.18 -1.58 0.05 
4.43 23.13 -1.58 0.05 
4.87 23.07 -1.58 0.05 
5.32 23.00 -1.58 0.05 
5.76 22.93 -1.58 0.05 
3.63 13.36 -0.93 0.91 
3.86 13.22 -0.92 0.91 
4.14 13.26 -0.93 0.66 
7.51 22.54 -1.59 0.05 
7.95 22.42 -1.59 0.05 
8.38 22.29 -1.60 0.05 
3.11 7.83 -0.56 0.03 
3.00 7.15 -0.52 0.12 
3.07 6.94 -0.51 0.15 
3.14 6.75 -0.50 0.15 
3.21 6.58 -0.49 0.35 
3.30 6.44 -0.49 0.35 
3.38 6.30 -0.48 0.36 
3.49 6.22 -0.48 0.73 
3.55 6.05 -0.47 0.14 
3.63 5.94 -0.47 0.82 
3.96 6.21 -0.49 0.74 
4.12 6.20 -0.50 0.70 
4.30 6.20 -0.51 0.69 
4.48 6.22 -0.51 0.67 
4.66 6.22 -0.52 0.66 
4.85 6.21 -0.53 0.65 
5.04 6.21 -0.54 0.64 
5.24 6.21 -0.54 0.62 
5.43 6.20 -0.55 0.63 
5.64 6.20 -0.56 0.58 
5.85 6.20 -0.57 0.38 
6.13 6.25 -0.59 0.35 
17.26 16.94 -1.62 0.05 
17.58 16.61 -1.62 0.05 
17.90 16.28 -1.62 0.05 
18.21 15.94 -1.62 0.05 
18.45 15.55 -1.62 0.64 
18.84 15.27 -1.63 0.06 
19.14 14.93 -1.63 0.06 
19.44 14.58 -1.63 0.06 
19.74 14.22 -1.63 0.06 
20.02 13.86 -1.63 0.06 
20.30 13.49 -1.63 0.06 
20.57 13.12 -1.64 0.06 
