VERSION 0.7
FIELDS x y z intensity
SIZE 4 4 4 8
TYPE F F F F
COUNT 1 1 1 1
WIDTH 1985
HEIGHT 1
VIEWPOINT 0.0 0.0 0.0 1.0 0.0 0.0 0.0
POINTS 1985
DATA ascii
9.21 -21.94 -1.57 0.06 
8.78 -22.08 -1.56 0.06 
8.35 -22.22 -1.56 0.06 
7.92 -22.34 -1.56 0.06 
7.48 -22.46 -1.56 0.06 
7.05 -22.56 -1.56 0.06 
6.61 -22.66 -1.55 0.06 
6.17 -22.76 -1.55 0.06 
5.74 -22.84 -1.55 0.06 
5.29 -22.91 -1.55 0.06 
4.85 -22.98 -1.55 0.06 
4.41 -23.03 -1.54 0.06 
3.97 -23.08 -1.54 0.06 
3.53 -23.12 -1.54 0.06 
3.09 -23.15 -1.54 0.06 
2.64 -23.18 -1.54 0.06 
1.17 -12.36 -0.82 0.90 
1.76 -23.20 -1.53 0.06 
1.32 -23.20 -1.53 0.06 
0.88 -23.19 -1.53 0.06 
0.44 -23.17 -1.53 0.06 
-0.00 -23.14 -1.52 0.06 
-0.44 -23.11 -1.52 0.06 
-0.87 -23.06 -1.52 0.06 
-1.31 -23.01 -1.52 0.06 
-1.74 -22.95 -1.52 0.06 
-2.17 -22.89 -1.51 0.06 
-2.60 -22.81 -1.51 0.06 
-3.03 -22.73 -1.51 0.06 
-3.45 -22.64 -1.51 0.06 
-3.88 -22.54 -1.51 0.06 
-4.30 -22.43 -1.50 0.06 
-4.71 -22.32 -1.50 0.06 
-5.13 -22.20 -1.50 0.06 
-5.54 -22.07 -1.50 0.06 
-5.95 -21.93 -1.50 0.06 
-6.36 -21.79 -1.49 0.06 
-6.76 -21.64 -1.49 0.06 
-7.16 -21.48 -1.49 0.06 
-7.55 -21.31 -1.49 0.06 
-7.95 -21.14 -1.49 0.06 
-8.34 -20.96 -1.49 0.06 
-8.72 -20.78 -1.48 0.06 
-9.10 -20.58 -1.48 0.06 
-5.85 -12.58 -0.91 0.46 
-9.85 -20.18 -1.48 0.06 
-10.22 -19.96 -1.48 0.06 
-10.58 -19.74 -1.48 0.06 
-10.94 -19.52 -1.47 0.06 
-11.30 -19.29 -1.47 0.06 
-11.65 -19.05 -1.47 0.06 
-11.99 -18.81 -1.47 0.06 
-12.33 -18.56 -1.47 0.06 
-12.67 -18.30 -1.47 0.06 
-13.00 -18.04 -1.46 0.06 
-13.33 -17.77 -1.46 0.06 
-13.65 -17.50 -1.46 0.06 
-13.96 -17.22 -1.46 0.06 
-14.27 -16.94 -1.46 0.06 
-14.58 -16.65 -1.46 0.06 
-14.87 -16.35 -1.46 0.06 
-15.17 -16.05 -1.45 0.06 
-15.46 -15.75 -1.45 0.06 
-15.74 -15.44 -1.45 0.06 
-16.01 -15.13 -1.45 0.06 
-16.28 -14.81 -1.45 0.06 
-16.55 -14.49 -1.45 0.06 
-10.47 -8.83 -0.90 0.75 
-17.06 -13.83 -1.45 0.06 
-17.30 -13.49 -1.44 0.06 
-17.54 -13.15 -1.44 0.06 
-17.77 -12.81 -1.44 0.06 
-18.00 -12.46 -1.44 0.06 
-18.22 -12.11 -1.44 0.06 
-18.43 -11.76 -1.44 0.06 
-18.64 -11.40 -1.44 0.06 
-18.84 -11.04 -1.44 0.06 
-19.04 -10.67 -1.44 0.06 
-19.22 -10.31 -1.44 0.06 
-19.41 -9.93 -1.44 0.06 
-19.58 -9.56 -1.43 0.06 
-19.75 -9.18 -1.43 0.06 
-19.91 -8.80 -1.43 0.06 
-21.98 -9.23 -1.57 0.06 
-22.23 -8.84 -1.57 0.06 
-22.38 -8.41 -1.57 0.06 
-22.53 -7.98 -1.57 0.06 
-22.66 -7.55 -1.57 0.06 
-13.29 -4.15 -0.92 0.44 
-13.29 -3.88 -0.91 0.46 
-13.44 -3.65 -0.92 0.35 
-14.70 -3.69 -1.00 0.85 
-23.24 -5.37 -1.57 0.06 
-23.33 -4.93 -1.57 0.06 
-23.42 -4.49 -1.57 0.06 
-23.49 -4.04 -1.57 0.06 
-23.56 -3.59 -1.57 0.06 
-8.43 -1.12 -0.56 0.70 
-8.35 -0.95 -0.55 0.71 
-8.29 -0.79 -0.55 0.88 
-8.27 -0.63 -0.55 0.91 
-8.25 -0.47 -0.54 0.91 
-8.24 -0.31 -0.54 0.93 
-8.25 -0.16 -0.54 0.93 
-8.27 -0.00 -0.55 0.91 
-8.29 0.16 -0.56 0.91 
-8.33 0.32 -0.56 0.88 
-8.41 0.48 -0.56 0.71 
-8.51 0.65 -0.57 0.70 
-23.33 2.21 -1.57 0.07 
-23.29 2.66 -1.57 0.07 
-15.15 2.02 -1.02 0.16 
-13.77 2.10 -0.93 0.18 
-12.49 2.15 -0.85 0.20 
-11.70 2.24 -0.80 0.78 
-11.54 2.44 -0.79 0.89 
-11.54 2.67 -0.79 0.88 
-11.55 2.90 -0.80 0.88 
-11.55 3.13 -0.80 0.85 
-11.56 3.37 -0.81 0.83 
-11.57 3.61 -0.81 0.86 
-11.58 3.86 -0.82 0.85 
-11.77 4.17 -0.84 0.32 
-22.03 8.28 -1.58 0.06 
-21.88 8.70 -1.58 0.06 
-21.72 9.12 -1.58 0.06 
-12.87 5.69 -0.94 0.76 
-12.24 5.69 -0.91 0.52 
-11.75 5.74 -0.88 0.45 
-11.24 5.76 -0.85 0.45 
-10.77 5.77 -0.82 0.47 
-10.32 5.79 -0.79 0.47 
-9.89 5.79 -0.77 0.54 
-9.52 5.82 -0.75 0.62 
-9.24 5.90 -0.74 0.74 
-9.00 5.99 -0.72 0.87 
-8.83 6.11 -0.72 0.91 
-8.73 6.30 -0.72 0.91 
-8.68 6.51 -0.73 0.80 
-8.67 6.76 -0.74 0.76 
-8.70 7.05 -0.75 0.65 
-16.56 13.95 -1.45 0.06 
-15.17 13.29 -1.35 0.91 
-16.05 14.60 -1.45 0.06 
-15.78 14.91 -1.46 0.06 
-15.51 15.22 -1.46 0.06 
-15.23 15.52 -1.46 0.06 
-14.95 15.82 -1.46 0.06 
-14.66 16.12 -1.46 0.06 
-2.96 3.38 -0.30 0.02 
-2.87 3.41 -0.30 0.08 
-2.84 3.50 -0.30 0.08 
-2.84 3.65 -0.31 0.05 
-9.96 13.28 -1.11 0.54 
-12.86 17.84 -1.47 0.06 
-12.55 18.12 -1.48 0.06 
-12.23 18.39 -1.48 0.06 
-10.62 16.64 -1.32 0.67 
-10.49 17.15 -1.35 0.90 
-11.23 19.18 -1.49 0.06 
-10.61 18.93 -1.46 0.82 
-10.54 19.67 -1.50 0.06 
-10.19 19.90 -1.50 0.06 
-9.83 20.13 -1.50 0.06 
-9.47 20.36 -1.50 0.06 
-9.10 20.57 -1.51 0.06 
-7.70 18.34 -1.33 0.60 
-6.55 16.46 -1.19 0.86 
-7.96 21.18 -1.52 0.06 
-7.57 21.36 -1.52 0.06 
-5.59 16.79 -1.19 0.20 
-5.22 16.72 -1.17 0.75 
-4.96 17.00 -1.19 0.21 
-5.98 22.04 -1.53 0.06 
-5.57 22.18 -1.53 0.06 
-5.16 22.33 -1.54 0.06 
-4.74 22.46 -1.54 0.06 
-4.33 22.58 -1.54 0.06 
-3.90 22.70 -1.54 0.06 
-3.48 22.80 -1.55 0.06 
-3.05 22.90 -1.55 0.06 
-2.62 22.99 -1.55 0.06 
-2.19 23.07 -1.55 0.06 
-1.76 23.15 -1.56 0.06 
-1.32 23.21 -1.56 0.06 
-0.74 19.50 -1.31 0.46 
-0.44 23.31 -1.56 0.06 
0.00 17.09 -1.15 0.46 
0.32 16.87 -1.13 0.70 
0.64 16.98 -1.14 0.56 
1.33 23.40 -1.57 0.06 
1.78 23.40 -1.57 0.06 
2.22 23.40 -1.58 0.06 
2.67 23.38 -1.58 0.05 
3.11 23.35 -1.58 0.05 
3.56 23.32 -1.58 0.05 
4.00 23.27 -1.58 0.05 
2.56 13.38 -0.91 0.89 
2.80 13.23 -0.91 0.89 
1.66 7.18 -0.49 0.09 
1.74 6.91 -0.48 0.18 
1.81 6.66 -0.46 0.31 
1.90 6.52 -0.46 0.30 
1.99 6.37 -0.45 0.31 
2.08 6.25 -0.44 0.78 
2.22 6.25 -0.44 0.76 
2.35 6.25 -0.45 0.81 
2.48 6.24 -0.45 0.81 
2.62 6.24 -0.45 0.80 
2.76 6.24 -0.46 0.77 
2.91 6.25 -0.46 0.69 
3.06 6.27 -0.47 0.74 
3.21 6.27 -0.47 0.73 
3.36 6.27 -0.48 0.72 
3.51 6.27 -0.48 0.71 
3.67 6.27 -0.49 0.70 
3.84 6.27 -0.49 0.69 
4.00 6.27 -0.50 0.69 
4.17 6.27 -0.50 0.60 
4.34 6.27 -0.51 0.63 
4.55 6.31 -0.52 0.46 
4.78 6.38 -0.53 0.29 
14.79 18.96 -1.61 0.05 
15.15 18.68 -1.61 0.05 
15.50 18.40 -1.61 0.05 
15.85 18.11 -1.61 0.05 
16.19 17.80 -1.61 0.05 
13.72 14.52 -1.34 0.90 
14.28 14.56 -1.37 0.90 
17.18 16.86 -1.61 0.05 
17.50 16.53 -1.61 0.05 
17.31 15.75 -1.57 0.28 
17.78 15.57 -1.58 0.68 
18.42 15.52 -1.61 0.06 
18.72 15.18 -1.62 0.06 
19.02 14.84 -1.62 0.06 
19.31 14.48 -1.62 0.06 
19.60 14.13 -1.62 0.06 
19.88 13.76 -1.62 0.06 
20.15 13.40 -1.62 0.06 
20.42 13.02 -1.62 0.06 
20.67 12.64 -1.62 0.06 
20.92 12.26 -1.63 0.06 
21.17 11.87 -1.63 0.06 
18.29 9.80 -1.39 0.60 
21.63 11.07 -1.63 0.06 
21.84 10.67 -1.63 0.06 
22.04 10.25 -1.63 0.88 
22.26 9.84 -1.63 0.06 
22.45 9.42 -1.63 0.06 
22.64 9.00 -1.63 0.06 
22.81 8.58 -1.63 0.06 
22.98 8.15 -1.63 0.06 
23.17 7.72 -1.64 0.45 
23.85 7.45 -1.68 0.56 
24.55 7.16 -1.71 0.56 
25.27 6.86 -1.76 0.56 
25.95 6.52 -1.79 0.07 
26.16 6.05 -1.80 0.07 
26.30 5.56 -1.80 0.06 
26.41 5.06 -1.80 0.06 
26.50 4.56 -1.80 0.06 
26.59 4.06 -1.80 0.06 
26.67 3.55 -1.80 0.06 
26.73 3.05 -1.80 0.06 
26.79 2.54 -1.80 0.06 
26.83 2.04 -1.80 0.06 
26.87 1.53 -1.80 0.06 
26.89 1.02 -1.80 0.06 
26.91 0.51 -1.80 0.06 
26.91 -0.00 -1.80 0.06 
26.91 -0.51 -1.80 0.06 
26.89 -1.02 -1.80 0.06 
26.86 -1.53 -1.80 0.06 
26.82 -2.03 -1.80 0.06 
26.78 -2.54 -1.80 0.06 
26.72 -3.05 -1.80 0.06 
26.65 -3.55 -1.80 0.06 
26.57 -4.05 -1.80 0.06 
26.48 -4.56 -1.80 0.06 
26.39 -5.05 -1.80 0.06 
26.28 -5.55 -1.80 0.06 
26.16 -6.04 -1.80 0.06 
26.03 -6.54 -1.80 0.06 
25.89 -7.03 -1.80 0.06 
25.74 -7.51 -1.80 0.06 
25.58 -7.99 -1.80 0.06 
25.42 -8.47 -1.80 0.06 
25.24 -8.95 -1.80 0.06 
25.05 -9.42 -1.79 0.06 
24.86 -9.88 -1.79 0.06 
24.65 -10.35 -1.79 0.06 
24.44 -10.81 -1.79 0.06 
24.21 -11.26 -1.79 0.06 
23.98 -11.71 -1.79 0.06 
23.74 -12.15 -1.79 0.06 
23.49 -12.59 -1.79 0.06 
5.83 -3.27 -0.45 0.46 
5.58 -3.27 -0.43 0.42 
5.38 -3.29 -0.42 0.46 
5.25 -3.35 -0.42 0.40 
5.19 -3.45 -0.42 0.35 
5.17 -3.58 -0.42 0.34 
5.15 -3.71 -0.43 0.32 
5.13 -3.85 -0.43 0.29 
18.97 -14.80 -1.61 0.06 
18.67 -15.14 -1.61 0.06 
18.36 -15.48 -1.61 0.06 
18.05 -15.81 -1.61 0.06 
17.73 -16.13 -1.61 0.06 
17.41 -16.45 -1.61 0.06 
17.08 -16.76 -1.60 0.06 
16.74 -17.06 -1.60 0.06 
16.40 -17.35 -1.60 0.06 
16.05 -17.64 -1.60 0.06 
15.69 -17.93 -1.60 0.06 
15.34 -18.20 -1.60 0.06 
14.97 -18.47 -1.59 0.06 
14.60 -18.73 -1.59 0.06 
14.23 -18.98 -1.59 0.06 
13.85 -19.22 -1.59 0.06 
7.66 -11.06 -0.90 0.54 
9.29 -13.98 -1.13 0.80 
9.00 -14.11 -1.12 0.47 
9.03 -14.76 -1.16 0.45 
11.91 -20.33 -1.58 0.06 
11.51 -20.52 -1.58 0.06 
11.10 -20.71 -1.58 0.06 
10.70 -20.89 -1.57 0.06 
10.29 -21.07 -1.57 0.06 
9.87 -21.23 -1.57 0.06 
9.46 -21.39 -1.57 0.06 
9.04 -21.54 -1.57 0.06 
8.62 -21.68 -1.56 0.06 
8.20 -21.81 -1.56 0.06 
7.77 -21.93 -1.56 0.06 
7.35 -22.05 -1.56 0.06 
6.92 -22.15 -1.56 0.06 
6.49 -22.25 -1.55 0.06 
6.06 -22.34 -1.55 0.06 
5.63 -22.42 -1.55 0.06 
5.20 -22.50 -1.55 0.06 
4.77 -22.56 -1.55 0.06 
4.33 -22.62 -1.54 0.06 
3.90 -22.67 -1.54 0.06 
3.46 -22.71 -1.54 0.06 
3.03 -22.74 -1.54 0.06 
2.60 -22.76 -1.54 0.06 
1.17 -12.36 -0.83 0.86 
1.73 -22.78 -1.53 0.06 
1.29 -22.78 -1.53 0.06 
0.86 -22.77 -1.53 0.06 
0.43 -22.75 -1.53 0.06 
-0.00 -22.73 -1.52 0.06 
-0.43 -22.69 -1.52 0.06 
-0.86 -22.65 -1.52 0.06 
-1.28 -22.60 -1.52 0.06 
-1.71 -22.55 -1.52 0.06 
-2.13 -22.48 -1.51 0.06 
-2.56 -22.41 -1.51 0.06 
-2.98 -22.33 -1.51 0.06 
-3.39 -22.24 -1.51 0.06 
-3.81 -22.14 -1.51 0.06 
-4.22 -22.04 -1.50 0.06 
-4.63 -21.93 -1.50 0.06 
-5.04 -21.81 -1.50 0.06 
-5.44 -21.68 -1.50 0.06 
-5.85 -21.55 -1.50 0.06 
-6.25 -21.41 -1.50 0.06 
-6.64 -21.26 -1.49 0.06 
-7.03 -21.10 -1.49 0.06 
-7.42 -20.94 -1.49 0.06 
-7.81 -20.77 -1.49 0.06 
-8.19 -20.60 -1.49 0.06 
-8.57 -20.41 -1.48 0.06 
-8.94 -20.22 -1.48 0.06 
-5.85 -12.58 -0.93 0.46 
-9.68 -19.83 -1.48 0.06 
-10.04 -19.62 -1.48 0.06 
-10.40 -19.40 -1.48 0.06 
-10.75 -19.18 -1.47 0.06 
-11.10 -18.95 -1.47 0.06 
-11.45 -18.72 -1.47 0.06 
-11.79 -18.48 -1.47 0.06 
-12.12 -18.24 -1.47 0.06 
-12.45 -17.98 -1.47 0.06 
-12.78 -17.73 -1.47 0.06 
-13.10 -17.47 -1.46 0.06 
-13.41 -17.20 -1.46 0.06 
-13.72 -16.92 -1.46 0.06 
-14.03 -16.65 -1.46 0.06 
-14.33 -16.36 -1.46 0.06 
-14.62 -16.07 -1.46 0.06 
-14.91 -15.78 -1.46 0.06 
-15.19 -15.48 -1.45 0.06 
-15.47 -15.18 -1.45 0.06 
-15.74 -14.87 -1.45 0.06 
-16.01 -14.56 -1.45 0.06 
-16.26 -14.24 -1.45 0.06 
-10.47 -8.83 -0.92 0.75 
-16.77 -13.59 -1.45 0.06 
-17.01 -13.27 -1.45 0.06 
-17.24 -12.93 -1.45 0.06 
-17.47 -12.59 -1.44 0.06 
-17.70 -12.25 -1.44 0.06 
-17.91 -11.91 -1.44 0.06 
-18.12 -11.56 -1.44 0.07 
-18.33 -11.21 -1.44 0.07 
-18.52 -10.85 -1.44 0.07 
-18.72 -10.49 -1.44 0.07 
-18.90 -10.13 -1.44 0.07 
-19.08 -9.77 -1.44 0.07 
-19.25 -9.40 -1.44 0.07 
-19.41 -9.03 -1.44 0.07 
-19.57 -8.66 -1.43 0.07 
-21.61 -9.07 -1.57 0.06 
-21.85 -8.69 -1.58 0.06 
-22.00 -8.27 -1.58 0.06 
-22.15 -7.85 -1.58 0.06 
-22.28 -7.43 -1.57 0.06 
-13.32 -4.16 -0.94 0.44 
-13.32 -3.88 -0.93 0.46 
-13.44 -3.65 -0.93 0.35 
-22.75 -5.71 -1.57 0.06 
-22.85 -5.28 -1.57 0.06 
-22.94 -4.85 -1.57 0.07 
-23.02 -4.41 -1.57 0.07 
-23.10 -3.97 -1.57 0.07 
-23.17 -3.53 -1.57 0.07 
-8.43 -1.12 -0.57 0.70 
-8.34 -0.95 -0.56 0.71 
-8.29 -0.79 -0.56 0.88 
-8.26 -0.63 -0.56 0.91 
-8.25 -0.47 -0.55 0.91 
-8.24 -0.31 -0.55 0.93 
-8.25 -0.16 -0.55 0.93 
-8.27 -0.00 -0.56 0.91 
-8.29 0.16 -0.57 0.91 
-8.33 0.32 -0.57 0.88 
-8.40 0.48 -0.57 0.71 
-8.50 0.64 -0.58 0.70 
-22.95 2.18 -1.57 0.07 
-22.90 2.61 -1.57 0.07 
-15.15 2.02 -1.04 0.16 
-13.77 2.10 -0.95 0.18 
-12.49 2.15 -0.87 0.20 
-11.69 2.24 -0.81 0.74 
-11.53 2.44 -0.80 0.89 
-11.54 2.67 -0.81 0.88 
-11.54 2.90 -0.81 0.88 
-11.54 3.13 -0.82 0.85 
-11.55 3.37 -0.82 0.83 
-11.56 3.61 -0.83 0.86 
-11.57 3.86 -0.83 0.85 
-11.75 4.17 -0.85 0.32 
-21.67 8.15 -1.58 0.07 
-21.52 8.56 -1.58 0.07 
-21.36 8.97 -1.58 0.07 
-12.87 5.69 -0.96 0.76 
-12.35 5.74 -0.93 0.52 
-11.75 5.74 -0.89 0.45 
-11.24 5.75 -0.86 0.45 
-10.76 5.77 -0.83 0.47 
-10.32 5.79 -0.81 0.47 
-9.88 5.79 -0.78 0.54 
-9.51 5.82 -0.76 0.62 
-9.24 5.89 -0.75 0.74 
-9.00 5.98 -0.74 0.87 
-8.83 6.11 -0.73 0.91 
-8.73 6.29 -0.73 0.91 
-8.68 6.51 -0.74 0.80 
-8.67 6.76 -0.75 0.76 
-8.70 7.05 -0.76 0.65 
-16.28 13.72 -1.45 0.07 
-15.17 13.29 -1.38 0.91 
-15.78 14.35 -1.46 0.07 
-15.52 14.66 -1.46 0.07 
-15.25 14.96 -1.46 0.07 
-14.98 15.26 -1.46 0.07 
-14.70 15.56 -1.46 0.07 
-14.42 15.85 -1.46 0.07 
-2.89 3.30 -0.30 0.11 
-2.83 3.36 -0.30 0.11 
-2.79 3.45 -0.30 0.08 
-2.77 3.56 -0.31 0.05 
-9.96 13.28 -1.13 0.54 
-12.63 17.52 -1.47 0.06 
-12.32 17.79 -1.48 0.06 
-12.00 18.06 -1.48 0.06 
-10.61 16.63 -1.35 0.77 
-10.49 17.15 -1.37 0.90 
-11.03 18.82 -1.49 0.06 
-10.61 18.93 -1.48 0.82 
-10.35 19.30 -1.49 0.06 
-10.00 19.53 -1.50 0.06 
-9.65 19.76 -1.50 0.06 
-9.29 19.98 -1.50 0.06 
-8.93 20.19 -1.51 0.06 
-7.70 18.34 -1.36 0.59 
-6.55 16.47 -1.21 0.84 
-7.81 20.78 -1.51 0.06 
-7.43 20.96 -1.52 0.06 
-5.62 16.86 -1.21 0.20 
-5.23 16.74 -1.20 0.48 
-4.98 17.08 -1.21 0.21 
-5.87 21.62 -1.53 0.06 
-5.47 21.76 -1.53 0.06 
-5.06 21.90 -1.53 0.06 
-4.65 22.03 -1.54 0.06 
-4.24 22.15 -1.54 0.06 
-3.83 22.26 -1.54 0.06 
-3.41 22.37 -1.54 0.06 
-2.99 22.47 -1.55 0.06 
-2.57 22.55 -1.55 0.06 
-2.15 22.63 -1.55 0.06 
-1.72 22.70 -1.55 0.06 
-1.29 22.76 -1.56 0.06 
-0.74 19.49 -1.33 0.46 
-0.43 22.86 -1.56 0.06 
-0.00 17.12 -1.17 0.46 
0.32 16.89 -1.15 0.70 
0.64 16.99 -1.16 0.56 
1.30 22.95 -1.57 0.06 
1.74 22.95 -1.57 0.06 
2.18 22.94 -1.57 0.06 
2.61 22.92 -1.57 0.06 
3.05 22.90 -1.58 0.06 
3.49 22.86 -1.58 0.06 
3.92 22.82 -1.58 0.06 
2.56 13.37 -0.93 0.89 
1.56 7.36 -0.51 0.09 
1.64 7.10 -0.50 0.09 
1.72 6.87 -0.48 0.18 
1.80 6.64 -0.47 0.31 
1.89 6.49 -0.46 0.31 
1.98 6.35 -0.45 0.31 
2.08 6.25 -0.45 0.78 
2.21 6.25 -0.45 0.76 
2.27 6.05 -0.44 0.12 
2.48 6.24 -0.46 0.81 
2.62 6.23 -0.46 0.80 
2.76 6.24 -0.47 0.77 
2.90 6.24 -0.47 0.69 
3.06 6.26 -0.48 0.74 
3.20 6.26 -0.48 0.73 
3.36 6.26 -0.48 0.72 
3.51 6.26 -0.49 0.71 
3.67 6.26 -0.50 0.70 
3.83 6.27 -0.50 0.69 
3.99 6.26 -0.51 0.69 
4.17 6.27 -0.51 0.60 
4.34 6.26 -0.52 0.63 
4.54 6.30 -0.53 0.46 
4.77 6.36 -0.54 0.29 
14.49 18.58 -1.61 0.05 
14.85 18.31 -1.61 0.05 
15.19 18.03 -1.61 0.05 
15.54 17.74 -1.61 0.05 
15.87 17.45 -1.61 0.05 
13.72 14.52 -1.36 0.90 
14.28 14.56 -1.39 0.90 
16.84 16.52 -1.61 0.05 
17.15 16.20 -1.61 0.05 
17.45 15.87 -1.61 0.05 
17.77 15.56 -1.61 0.06 
18.07 15.23 -1.61 0.06 
18.37 14.90 -1.61 0.06 
18.67 14.56 -1.62 0.06 
18.95 14.21 -1.62 0.06 
19.23 13.86 -1.62 0.06 
19.51 13.51 -1.62 0.06 
19.77 13.15 -1.62 0.06 
20.03 12.78 -1.62 0.06 
20.29 12.41 -1.62 0.06 
20.53 12.03 -1.62 0.06 
20.77 11.64 -1.62 0.06 
18.28 9.80 -1.42 0.60 
21.22 10.86 -1.63 0.06 
21.43 10.47 -1.63 0.06 
21.64 10.06 -1.63 0.06 
21.84 9.66 -1.63 0.06 
22.03 9.25 -1.63 0.06 
22.21 8.83 -1.63 0.06 
22.38 8.41 -1.63 0.06 
22.55 7.99 -1.63 0.06 
23.16 7.72 -1.67 0.58 
23.84 7.45 -1.70 0.56 
24.54 7.16 -1.74 0.56 
25.26 6.85 -1.79 0.56 
25.53 6.41 -1.80 0.07 
25.69 5.94 -1.80 0.06 
25.80 5.45 -1.80 0.06 
25.91 4.96 -1.80 0.06 
26.00 4.47 -1.80 0.06 
26.09 3.98 -1.80 0.06 
26.16 3.49 -1.80 0.06 
26.23 2.99 -1.80 0.06 
26.28 2.49 -1.80 0.06 
26.33 2.00 -1.80 0.06 
26.36 1.50 -1.80 0.06 
26.39 1.00 -1.80 0.06 
26.40 0.50 -1.80 0.06 
26.40 -0.00 -1.80 0.06 
26.40 -0.50 -1.80 0.06 
26.38 -1.00 -1.80 0.06 
26.35 -1.50 -1.80 0.06 
26.32 -2.00 -1.80 0.06 
26.27 -2.49 -1.80 0.06 
26.22 -2.99 -1.80 0.06 
26.15 -3.48 -1.80 0.06 
26.07 -3.98 -1.80 0.06 
25.98 -4.47 -1.80 0.06 
25.89 -4.96 -1.80 0.06 
25.78 -5.45 -1.80 0.06 
25.67 -5.93 -1.80 0.06 
25.54 -6.41 -1.80 0.06 
25.40 -6.89 -1.80 0.06 
25.26 -7.37 -1.80 0.06 
25.10 -7.84 -1.79 0.06 
24.94 -8.31 -1.79 0.06 
24.76 -8.78 -1.79 0.06 
24.58 -9.24 -1.79 0.06 
24.39 -9.70 -1.79 0.06 
24.19 -10.15 -1.79 0.06 
23.98 -10.60 -1.79 0.06 
23.76 -11.05 -1.79 0.06 
23.53 -11.49 -1.79 0.06 
23.29 -11.92 -1.79 0.06 
23.05 -12.35 -1.78 0.06 
5.83 -3.27 -0.46 0.46 
5.57 -3.27 -0.44 0.46 
5.37 -3.29 -0.43 0.46 
5.24 -3.34 -0.42 0.40 
5.18 -3.44 -0.42 0.35 
5.15 -3.57 -0.43 0.34 
5.13 -3.70 -0.43 0.35 
5.11 -3.83 -0.44 0.29 
18.62 -14.52 -1.61 0.06 
18.32 -14.86 -1.61 0.06 
18.02 -15.19 -1.61 0.06 
17.72 -15.51 -1.61 0.06 
17.40 -15.83 -1.61 0.06 
17.08 -16.14 -1.60 0.06 
16.76 -16.45 -1.60 0.06 
16.43 -16.74 -1.60 0.06 
16.09 -17.03 -1.60 0.06 
15.75 -17.32 -1.60 0.06 
15.41 -17.60 -1.60 0.06 
15.05 -17.87 -1.59 0.06 
14.70 -18.13 -1.59 0.06 
14.34 -18.38 -1.59 0.06 
13.97 -18.63 -1.59 0.06 
13.60 -18.87 -1.59 0.06 
7.66 -11.06 -0.92 0.58 
9.29 -13.98 -1.15 0.80 
9.00 -14.11 -1.14 0.47 
9.03 -14.76 -1.18 0.45 
11.69 -19.96 -1.58 0.06 
11.30 -20.15 -1.58 0.06 
10.90 -20.34 -1.57 0.06 
10.50 -20.52 -1.57 0.06 
10.10 -20.69 -1.57 0.06 
9.69 -20.85 -1.57 0.06 
9.29 -21.00 -1.57 0.06 
8.88 -21.15 -1.57 0.06 
8.46 -21.29 -1.56 0.06 
8.05 -21.42 -1.56 0.06 
7.63 -21.54 -1.56 0.06 
7.22 -21.65 -1.56 0.06 
6.80 -21.76 -1.56 0.06 
6.38 -21.85 -1.55 0.06 
5.95 -21.94 -1.55 0.06 
5.53 -22.02 -1.55 0.06 
5.11 -22.09 -1.55 0.06 
4.68 -22.16 -1.55 0.06 
4.26 -22.22 -1.54 0.06 
3.83 -22.26 -1.54 0.06 
3.40 -22.30 -1.54 0.06 
2.98 -22.33 -1.54 0.06 
2.55 -22.36 -1.54 0.06 
1.17 -12.36 -0.85 0.80 
1.70 -22.38 -1.53 0.06 
1.27 -22.38 -1.53 0.06 
0.85 -22.37 -1.53 0.06 
0.42 -22.35 -1.53 0.06 
-0.00 -22.33 -1.52 0.06 
-0.42 -22.30 -1.52 0.06 
-0.84 -22.26 -1.52 0.06 
-1.26 -22.21 -1.52 0.06 
-1.68 -22.15 -1.52 0.06 
-2.10 -22.09 -1.51 0.06 
-2.51 -22.02 -1.51 0.06 
-2.92 -21.94 -1.51 0.06 
-3.33 -21.85 -1.51 0.06 
-3.74 -21.76 -1.51 0.06 
-4.15 -21.65 -1.50 0.06 
-4.55 -21.55 -1.50 0.06 
-4.95 -21.43 -1.50 0.06 
-5.35 -21.31 -1.50 0.06 
-5.75 -21.17 -1.50 0.06 
-6.14 -21.04 -1.50 0.06 
-6.53 -20.89 -1.49 0.06 
-6.91 -20.74 -1.49 0.06 
-7.30 -20.58 -1.49 0.06 
-7.67 -20.42 -1.49 0.06 
-8.05 -20.24 -1.49 0.06 
-8.42 -20.06 -1.49 0.06 
-8.79 -19.88 -1.48 0.06 
-5.85 -12.58 -0.95 0.47 
-9.52 -19.49 -1.48 0.06 
-9.87 -19.28 -1.48 0.06 
-10.22 -19.07 -1.48 0.06 
-10.57 -18.86 -1.48 0.06 
-10.91 -18.63 -1.47 0.06 
-11.25 -18.40 -1.47 0.06 
-11.59 -18.17 -1.47 0.06 
-11.92 -17.93 -1.47 0.06 
-12.24 -17.68 -1.47 0.06 
-12.56 -17.43 -1.47 0.07 
-12.88 -17.17 -1.46 0.07 
-13.19 -16.91 -1.46 0.07 
-13.49 -16.64 -1.46 0.07 
-13.79 -16.37 -1.46 0.07 
-14.09 -16.09 -1.46 0.07 
-14.38 -15.80 -1.46 0.07 
-14.66 -15.52 -1.46 0.07 
-14.94 -15.22 -1.46 0.07 
-15.21 -14.92 -1.45 0.07 
-15.48 -14.62 -1.45 0.07 
-15.74 -14.31 -1.45 0.07 
-15.99 -14.00 -1.45 0.07 
-10.47 -8.82 -0.93 0.75 
-16.49 -13.37 -1.45 0.07 
-16.72 -13.04 -1.45 0.07 
-16.96 -12.72 -1.45 0.07 
-17.18 -12.38 -1.45 0.07 
-17.40 -12.05 -1.44 0.07 
-17.61 -11.71 -1.44 0.07 
-17.82 -11.37 -1.44 0.07 
-18.02 -11.02 -1.44 0.07 
-18.22 -10.67 -1.44 0.07 
-18.41 -10.32 -1.44 0.07 
-18.59 -9.96 -1.44 0.07 
-18.76 -9.60 -1.44 0.07 
-18.93 -9.24 -1.44 0.07 
-19.09 -8.88 -1.44 0.07 
-19.25 -8.51 -1.44 0.07 
-21.25 -8.92 -1.57 0.07 
-21.49 -8.55 -1.58 0.07 
-21.64 -8.13 -1.58 0.07 
-21.78 -7.72 -1.58 0.07 
-21.92 -7.30 -1.58 0.07 
-13.35 -4.17 -0.95 0.43 
-13.26 -3.87 -0.94 0.32 
-13.43 -3.64 -0.95 0.35 
-22.38 -5.62 -1.57 0.07 
-22.47 -5.19 -1.57 0.07 
-22.56 -4.77 -1.57 0.07 
-22.65 -4.34 -1.57 0.07 
-22.72 -3.91 -1.57 0.07 
-22.79 -3.48 -1.57 0.07 
-8.42 -1.12 -0.58 0.70 
-8.33 -0.95 -0.57 0.71 
-8.28 -0.79 -0.57 0.88 
-8.26 -0.63 -0.57 0.91 
-8.25 -0.47 -0.56 0.91 
-8.23 -0.31 -0.56 0.93 
-8.24 -0.16 -0.56 0.93 
-8.26 -0.00 -0.57 0.91 
-8.29 0.16 -0.58 0.91 
-8.32 0.32 -0.58 0.88 
-8.39 0.48 -0.58 0.71 
-8.49 0.64 -0.59 0.70 
-22.57 2.14 -1.57 0.07 
-22.53 2.57 -1.58 0.07 
-15.15 2.02 -1.06 0.16 
-13.77 2.10 -0.97 0.18 
-12.49 2.15 -0.88 0.20 
-11.69 2.24 -0.83 0.74 
-11.53 2.44 -0.82 0.89 
-11.53 2.67 -0.82 0.88 
-11.54 2.90 -0.83 0.88 
-11.53 3.13 -0.83 0.85 
-11.54 3.37 -0.84 0.83 
-11.56 3.61 -0.84 0.86 
-11.57 3.86 -0.85 0.85 
-11.74 4.16 -0.86 0.32 
-21.32 8.01 -1.58 0.07 
-21.17 8.42 -1.58 0.07 
-21.02 8.82 -1.58 0.07 
-12.88 5.70 -0.98 0.76 
-12.33 5.73 -0.94 0.52 
-11.75 5.74 -0.91 0.45 
-11.24 5.75 -0.88 0.45 
-10.76 5.77 -0.85 0.47 
-10.32 5.78 -0.82 0.47 
-9.88 5.79 -0.80 0.54 
-9.50 5.81 -0.77 0.62 
-9.23 5.89 -0.76 0.74 
-9.00 5.98 -0.75 0.87 
-8.83 6.11 -0.75 0.91 
-8.73 6.29 -0.75 0.91 
-8.68 6.51 -0.75 0.80 
-8.67 6.76 -0.76 0.76 
-8.70 7.05 -0.78 0.65 
-16.01 13.49 -1.45 0.07 
-15.17 13.29 -1.40 0.91 
-15.52 14.11 -1.46 0.07 
-15.26 14.42 -1.46 0.07 
-15.00 14.72 -1.46 0.07 
-14.73 15.01 -1.46 0.07 
-14.46 15.30 -1.46 0.07 
-3.06 3.36 -0.32 0.02 
-2.85 3.26 -0.30 0.12 
-2.80 3.33 -0.30 0.11 
-2.75 3.40 -0.30 0.08 
-2.72 3.49 -0.31 0.08 
-2.73 3.64 -0.32 0.05 
-12.40 17.20 -1.47 0.06 
-12.10 17.47 -1.48 0.06 
-11.79 17.73 -1.48 0.06 
-10.61 16.63 -1.37 0.77 
-10.49 17.15 -1.40 0.90 
-10.83 18.48 -1.49 0.06 
-10.50 18.72 -1.49 0.06 
-10.16 18.95 -1.49 0.06 
-9.82 19.18 -1.50 0.06 
-9.47 19.40 -1.50 0.06 
-9.12 19.61 -1.50 0.06 
-8.76 19.82 -1.50 0.06 
-7.70 18.34 -1.38 0.53 
-6.55 16.48 -1.23 0.82 
-7.67 20.40 -1.51 0.06 
-7.29 20.58 -1.52 0.06 
-6.92 20.75 -1.52 0.06 
-5.24 16.78 -1.22 0.47 
-6.15 21.07 -1.52 0.06 
-5.76 21.22 -1.53 0.06 
-5.36 21.36 -1.53 0.06 
-4.97 21.49 -1.53 0.06 
-4.57 21.62 -1.53 0.06 
-4.16 21.74 -1.54 0.06 
-3.76 21.85 -1.54 0.06 
-3.35 21.95 -1.54 0.06 
-2.94 22.04 -1.54 0.06 
-2.52 22.13 -1.55 0.06 
-2.11 22.21 -1.55 0.06 
-1.69 22.28 -1.55 0.06 
-1.27 22.33 -1.55 0.06 
-0.74 19.48 -1.35 0.46 
-0.42 22.43 -1.56 0.06 
-0.00 17.14 -1.19 0.46 
0.32 16.90 -1.17 0.70 
0.64 17.01 -1.18 0.56 
1.28 22.51 -1.57 0.06 
1.71 22.51 -1.57 0.06 
2.14 22.50 -1.57 0.06 
2.56 22.49 -1.57 0.06 
2.99 22.46 -1.57 0.06 
3.42 22.42 -1.58 0.06 
3.85 22.38 -1.58 0.06 
2.56 13.37 -0.95 0.89 
1.54 7.27 -0.52 0.09 
1.62 7.00 -0.50 0.13 
1.71 6.81 -0.49 0.12 
1.79 6.61 -0.48 0.30 
1.89 6.47 -0.47 0.31 
1.98 6.33 -0.46 0.31 
2.08 6.24 -0.46 0.79 
2.21 6.24 -0.46 0.76 
2.25 5.99 -0.44 0.12 
2.48 6.23 -0.47 0.81 
2.61 6.23 -0.47 0.80 
2.76 6.23 -0.47 0.77 
2.90 6.24 -0.48 0.69 
3.05 6.25 -0.48 0.74 
3.20 6.25 -0.49 0.73 
3.35 6.25 -0.49 0.72 
3.51 6.26 -0.50 0.71 
3.67 6.26 -0.50 0.70 
3.83 6.26 -0.51 0.69 
3.99 6.25 -0.52 0.69 
4.16 6.26 -0.52 0.60 
4.33 6.26 -0.53 0.63 
4.53 6.29 -0.54 0.46 
4.76 6.34 -0.55 0.30 
14.21 18.22 -1.60 0.06 
14.56 17.95 -1.61 0.06 
14.90 17.68 -1.61 0.06 
15.23 17.40 -1.61 0.06 
15.56 17.11 -1.61 0.06 
13.72 14.52 -1.39 0.90 
14.29 14.56 -1.42 0.86 
16.51 16.20 -1.61 0.06 
16.82 15.89 -1.61 0.06 
17.14 15.59 -1.61 0.06 
17.44 15.27 -1.61 0.06 
17.74 14.95 -1.61 0.06 
18.04 14.63 -1.61 0.06 
18.33 14.29 -1.61 0.06 
18.61 13.95 -1.62 0.06 
18.88 13.61 -1.62 0.06 
19.15 13.26 -1.62 0.06 
19.41 12.90 -1.62 0.06 
19.67 12.54 -1.62 0.06 
19.91 12.18 -1.62 0.06 
20.15 11.81 -1.62 0.06 
20.39 11.43 -1.62 0.06 
18.28 9.80 -1.44 0.60 
20.83 10.66 -1.63 0.06 
21.04 10.27 -1.63 0.06 
21.24 9.88 -1.63 0.06 
21.44 9.48 -1.63 0.06 
21.62 9.08 -1.63 0.06 
21.80 8.67 -1.63 0.06 
21.97 8.26 -1.63 0.06 
22.48 7.97 -1.66 0.58 
23.15 7.72 -1.69 0.58 
23.84 7.45 -1.73 0.56 
24.53 7.16 -1.77 0.56 
24.91 6.76 -1.79 0.07 
25.09 6.30 -1.80 0.06 
25.21 5.83 -1.80 0.06 
25.33 5.35 -1.80 0.06 
25.43 4.87 -1.80 0.06 
25.52 4.39 -1.80 0.06 
25.60 3.91 -1.80 0.06 
25.68 3.42 -1.80 0.06 
25.74 2.94 -1.80 0.06 
25.80 2.45 -1.80 0.06 
25.84 1.96 -1.80 0.06 
25.87 1.47 -1.80 0.06 
25.90 0.98 -1.80 0.06 
25.91 0.49 -1.80 0.06 
25.91 -0.00 -1.80 0.06 
25.91 -0.49 -1.80 0.06 
25.89 -0.98 -1.80 0.06 
25.87 -1.47 -1.80 0.06 
25.83 -1.96 -1.80 0.06 
25.78 -2.45 -1.80 0.06 
25.73 -2.93 -1.80 0.06 
25.66 -3.42 -1.80 0.06 
25.59 -3.90 -1.80 0.06 
25.50 -4.39 -1.80 0.06 
25.41 -4.87 -1.80 0.06 
25.30 -5.35 -1.80 0.06 
25.19 -5.82 -1.80 0.06 
25.07 -6.29 -1.79 0.06 
24.93 -6.77 -1.79 0.06 
24.79 -7.23 -1.79 0.06 
24.64 -7.70 -1.79 0.06 
24.48 -8.16 -1.79 0.06 
24.31 -8.62 -1.79 0.06 
24.13 -9.07 -1.79 0.06 
23.94 -9.52 -1.79 0.06 
23.74 -9.97 -1.79 0.06 
23.54 -10.41 -1.79 0.06 
23.32 -10.85 -1.79 0.06 
23.10 -11.28 -1.78 0.06 
22.87 -11.71 -1.78 0.06 
22.63 -12.13 -1.78 0.06 
5.83 -3.27 -0.46 0.46 
5.57 -3.26 -0.45 0.46 
5.36 -3.28 -0.44 0.46 
5.22 -3.33 -0.43 0.40 
5.16 -3.43 -0.43 0.35 
5.14 -3.56 -0.43 0.34 
5.12 -3.69 -0.44 0.35 
5.09 -3.82 -0.44 0.33 
18.28 -14.26 -1.61 0.06 
17.99 -14.59 -1.61 0.06 
17.70 -14.91 -1.61 0.06 
17.39 -15.23 -1.61 0.06 
9.52 -8.66 -0.89 0.67 
9.29 -8.78 -0.89 0.06 
16.46 -16.15 -1.60 0.06 
16.13 -16.44 -1.60 0.06 
15.80 -16.73 -1.60 0.06 
15.47 -17.01 -1.60 0.06 
15.13 -17.28 -1.59 0.06 
14.78 -17.54 -1.59 0.06 
14.43 -17.80 -1.59 0.06 
14.08 -18.05 -1.59 0.06 
13.72 -18.30 -1.59 0.06 
13.36 -18.53 -1.59 0.06 
7.65 -11.05 -0.93 0.62 
9.29 -13.98 -1.17 0.80 
9.00 -14.11 -1.16 0.47 
9.03 -14.76 -1.20 0.45 
11.48 -19.60 -1.58 0.06 
11.10 -19.79 -1.58 0.06 
10.71 -19.97 -1.57 0.06 
10.32 -20.15 -1.57 0.06 
9.92 -20.32 -1.57 0.06 
9.52 -20.48 -1.57 0.06 
9.12 -20.63 -1.57 0.06 
8.72 -20.77 -1.56 0.06 
8.32 -20.91 -1.56 0.06 
7.91 -21.04 -1.56 0.06 
7.50 -21.16 -1.56 0.06 
7.09 -21.27 -1.56 0.06 
6.68 -21.37 -1.55 0.06 
6.26 -21.47 -1.55 0.06 
5.85 -21.56 -1.55 0.06 
5.43 -21.64 -1.55 0.06 
5.02 -21.71 -1.55 0.06 
4.60 -21.77 -1.55 0.06 
4.18 -21.83 -1.54 0.06 
3.76 -21.87 -1.54 0.06 
3.34 -21.91 -1.54 0.06 
2.92 -21.95 -1.54 0.06 
2.51 -21.97 -1.54 0.06 
1.17 -12.36 -0.86 0.50 
1.67 -21.99 -1.53 0.06 
1.25 -21.99 -1.53 0.06 
0.83 -21.98 -1.53 0.06 
0.42 -21.97 -1.53 0.06 
-0.00 -21.94 -1.52 0.06 
-0.41 -21.91 -1.52 0.06 
-0.83 -21.87 -1.52 0.06 
-1.24 -21.83 -1.52 0.06 
-1.65 -21.77 -1.52 0.06 
-2.06 -21.71 -1.51 0.06 
-2.47 -21.64 -1.51 0.06 
-2.87 -21.56 -1.51 0.06 
-3.28 -21.48 -1.51 0.06 
-3.68 -21.38 -1.51 0.06 
-4.08 -21.29 -1.51 0.06 
-4.47 -21.18 -1.50 0.06 
-4.87 -21.06 -1.50 0.06 
-5.26 -20.94 -1.50 0.06 
-5.65 -20.82 -1.50 0.06 
-6.03 -20.68 -1.50 0.06 
-6.42 -20.54 -1.49 0.06 
-6.80 -20.39 -1.49 0.07 
-7.17 -20.23 -1.49 0.07 
-7.55 -20.07 -1.49 0.07 
-7.91 -19.90 -1.49 0.07 
-8.28 -19.73 -1.49 0.07 
-8.64 -19.54 -1.48 0.07 
-5.85 -12.58 -0.96 0.47 
-9.36 -19.16 -1.48 0.07 
-9.71 -18.96 -1.48 0.07 
-10.05 -18.75 -1.48 0.07 
-10.39 -18.54 -1.48 0.07 
-10.73 -18.32 -1.47 0.07 
-11.07 -18.10 -1.47 0.07 
-11.39 -17.86 -1.47 0.07 
-11.72 -17.63 -1.47 0.07 
-12.04 -17.39 -1.47 0.07 
-12.35 -17.14 -1.47 0.07 
-12.66 -16.89 -1.47 0.07 
-12.97 -16.63 -1.46 0.07 
-13.27 -16.36 -1.46 0.07 
-13.56 -16.10 -1.46 0.07 
-13.85 -15.82 -1.46 0.07 
-14.14 -15.54 -1.46 0.07 
-14.42 -15.26 -1.46 0.07 
-14.69 -14.97 -1.46 0.07 
-14.96 -14.68 -1.46 0.07 
-15.22 -14.38 -1.45 0.07 
-15.48 -14.08 -1.45 0.07 
-15.73 -13.77 -1.45 0.07 
-10.47 -8.82 -0.95 0.75 
-16.22 -13.15 -1.45 0.07 
-16.45 -12.83 -1.45 0.07 
-16.68 -12.51 -1.45 0.07 
-16.90 -12.18 -1.45 0.07 
-17.12 -11.85 -1.45 0.07 
-17.33 -11.52 -1.44 0.07 
-17.53 -11.18 -1.44 0.07 
-17.73 -10.84 -1.44 0.07 
-17.92 -10.50 -1.44 0.07 
-18.10 -10.15 -1.44 0.07 
-18.28 -9.80 -1.44 0.07 
-18.46 -9.45 -1.44 0.07 
-18.62 -9.09 -1.44 0.07 
-18.78 -8.73 -1.44 0.07 
-18.95 -8.38 -1.44 0.23 
-20.90 -8.77 -1.57 0.07 
-21.14 -8.41 -1.58 0.07 
-21.29 -8.00 -1.58 0.07 
-21.43 -7.60 -1.58 0.07 
-21.56 -7.19 -1.58 0.07 
-13.38 -4.18 -0.97 0.43 
-13.22 -3.86 -0.96 0.32 
-13.42 -3.64 -0.97 0.35 
-22.01 -5.53 -1.58 0.07 
-22.11 -5.11 -1.58 0.07 
-22.20 -4.69 -1.58 0.07 
-22.28 -4.27 -1.58 0.07 
-22.35 -3.84 -1.58 0.07 
-22.42 -3.42 -1.57 0.07 
-8.41 -1.12 -0.59 0.70 
-8.33 -0.95 -0.58 0.71 
-8.28 -0.79 -0.58 0.88 
-8.26 -0.63 -0.58 0.91 
-8.24 -0.47 -0.57 0.92 
-8.23 -0.31 -0.57 0.93 
-8.24 -0.16 -0.57 0.93 
-8.26 -0.00 -0.58 0.92 
-8.28 0.16 -0.59 0.91 
-8.32 0.31 -0.59 0.88 
-8.39 0.48 -0.59 0.71 
-8.48 0.64 -0.60 0.70 
-22.21 2.11 -1.58 0.07 
-22.17 2.53 -1.58 0.07 
-15.15 2.02 -1.08 0.16 
-13.77 2.10 -0.98 0.18 
-12.49 2.15 -0.90 0.20 
-11.68 2.24 -0.84 0.74 
-11.52 2.43 -0.83 0.89 
-11.53 2.66 -0.84 0.88 
-11.53 2.90 -0.84 0.86 
-11.53 3.13 -0.84 0.85 
-11.54 3.37 -0.85 0.83 
-11.55 3.61 -0.86 0.86 
-11.56 3.85 -0.86 0.85 
-11.72 4.15 -0.88 0.32 
-20.97 7.88 -1.58 0.07 
-20.83 8.28 -1.58 0.07 
-20.68 8.68 -1.58 0.07 
-12.89 5.70 -1.00 0.76 
-12.30 5.72 -0.96 0.52 
-11.74 5.73 -0.92 0.45 
-11.24 5.75 -0.89 0.45 
-10.76 5.77 -0.86 0.47 
-10.31 5.78 -0.84 0.47 
-9.87 5.78 -0.81 0.55 
-9.50 5.81 -0.79 0.62 
-9.23 5.89 -0.77 0.74 
-9.00 5.98 -0.76 0.87 
-8.82 6.11 -0.76 0.91 
-8.73 6.29 -0.76 0.91 
-8.68 6.51 -0.77 0.80 
-8.67 6.76 -0.78 0.76 
-8.69 7.05 -0.79 0.65 
-15.75 13.28 -1.46 0.07 
-15.17 13.29 -1.42 0.56 
-15.27 13.89 -1.46 0.07 
-15.01 14.18 -1.46 0.07 
-14.75 14.48 -1.46 0.07 
-14.49 14.77 -1.46 0.07 
-14.22 15.05 -1.46 0.07 
-2.90 3.19 -0.30 0.05 
-2.83 3.23 -0.30 0.15 
-2.78 3.29 -0.30 0.12 
-2.72 3.36 -0.31 0.11 
-2.68 3.44 -0.31 0.08 
-2.66 3.55 -0.31 0.05 
-12.19 16.91 -1.47 0.07 
-11.88 17.16 -1.47 0.06 
-11.58 17.42 -1.48 0.06 
-10.61 16.63 -1.39 0.77 
-10.49 17.16 -1.42 0.71 
-10.63 18.15 -1.49 0.06 
-10.31 18.39 -1.49 0.06 
-9.98 18.62 -1.49 0.06 
-9.64 18.84 -1.50 0.06 
-9.30 19.05 -1.50 0.06 
-8.96 19.26 -1.50 0.06 
-8.61 19.46 -1.50 0.06 
-7.71 18.36 -1.41 0.41 
-6.55 16.48 -1.25 0.80 
-7.53 20.03 -1.51 0.06 
-7.16 20.20 -1.51 0.06 
-6.79 20.37 -1.52 0.06 
-5.25 16.81 -1.24 0.47 
-6.04 20.69 -1.52 0.06 
-5.65 20.83 -1.52 0.06 
-5.27 20.97 -1.53 0.06 
-4.88 21.10 -1.53 0.06 
-4.48 21.22 -1.53 0.06 
-4.09 21.34 -1.53 0.06 
-3.69 21.45 -1.54 0.06 
-3.29 21.55 -1.54 0.06 
-2.88 21.64 -1.54 0.06 
-2.48 21.72 -1.54 0.06 
-2.07 21.80 -1.55 0.06 
-1.66 21.86 -1.55 0.06 
-1.25 21.92 -1.55 0.06 
-0.74 19.47 -1.38 0.46 
-0.42 22.01 -1.56 0.06 
-0.00 17.17 -1.21 0.28 
0.32 16.92 -1.20 0.70 
0.64 17.03 -1.20 0.55 
1.26 22.09 -1.56 0.06 
1.68 22.09 -1.57 0.06 
2.10 22.08 -1.57 0.06 
1.37 12.01 -0.85 0.07 
2.94 22.04 -1.57 0.06 
3.36 22.00 -1.57 0.06 
3.78 21.96 -1.57 0.06 
2.56 13.37 -0.96 0.89 
1.52 7.18 -0.52 0.09 
1.60 6.94 -0.50 0.13 
1.70 6.75 -0.49 0.12 
1.79 6.59 -0.48 0.30 
1.88 6.45 -0.47 0.31 
1.97 6.31 -0.47 0.31 
2.08 6.24 -0.46 0.79 
2.16 6.09 -0.46 0.12 
2.24 5.95 -0.45 0.90 
2.48 6.23 -0.47 0.81 
2.61 6.22 -0.48 0.80 
2.75 6.23 -0.48 0.77 
2.90 6.23 -0.49 0.69 
3.05 6.25 -0.49 0.74 
3.20 6.25 -0.50 0.73 
3.35 6.25 -0.50 0.72 
3.50 6.25 -0.51 0.72 
3.66 6.25 -0.51 0.70 
3.82 6.25 -0.52 0.69 
3.99 6.25 -0.52 0.69 
4.16 6.25 -0.53 0.60 
4.33 6.25 -0.54 0.63 
4.53 6.28 -0.55 0.46 
4.74 6.32 -0.56 0.30 
13.94 17.87 -1.60 0.06 
14.28 17.61 -1.60 0.06 
14.61 17.34 -1.60 0.06 
14.94 17.06 -1.60 0.06 
15.26 16.78 -1.60 0.06 
13.72 14.52 -1.41 0.90 
14.29 14.57 -1.44 0.78 
16.21 15.91 -1.60 0.06 
16.52 15.61 -1.61 0.06 
16.83 15.31 -1.61 0.06 
17.13 15.00 -1.61 0.06 
17.42 14.68 -1.61 0.06 
17.71 14.36 -1.61 0.06 
18.00 14.04 -1.61 0.06 
18.27 13.70 -1.61 0.06 
18.54 13.37 -1.61 0.06 
18.81 13.02 -1.62 0.06 
19.06 12.67 -1.62 0.06 
19.31 12.32 -1.62 0.06 
19.56 11.96 -1.62 0.06 
19.79 11.59 -1.62 0.06 
20.02 11.22 -1.62 0.06 
18.28 9.80 -1.47 0.60 
20.45 10.47 -1.62 0.06 
20.66 10.09 -1.62 0.06 
20.86 9.70 -1.63 0.06 
21.05 9.31 -1.63 0.06 
21.23 8.91 -1.63 0.06 
21.41 8.51 -1.63 0.06 
21.83 8.21 -1.65 0.59 
22.48 7.97 -1.68 0.58 
23.14 7.71 -1.72 0.58 
23.83 7.44 -1.76 0.56 
24.30 7.09 -1.79 0.07 
24.51 6.65 -1.79 0.06 
24.64 6.19 -1.79 0.06 
24.76 5.72 -1.80 0.06 
24.87 5.25 -1.80 0.06 
24.97 4.78 -1.80 0.06 
25.06 4.31 -1.80 0.06 
25.14 3.84 -1.80 0.06 
25.21 3.36 -1.80 0.06 
25.27 2.88 -1.80 0.06 
25.33 2.40 -1.80 0.06 
25.37 1.92 -1.80 0.06 
25.40 1.44 -1.80 0.06 
25.43 0.96 -1.80 0.06 
25.44 0.48 -1.80 0.06 
25.44 -0.00 -1.80 0.06 
25.44 -0.48 -1.80 0.06 
25.42 -0.96 -1.80 0.06 
25.40 -1.44 -1.80 0.06 
25.36 -1.92 -1.80 0.06 
25.32 -2.40 -1.80 0.06 
25.26 -2.88 -1.80 0.06 
25.20 -3.36 -1.80 0.06 
25.12 -3.83 -1.80 0.06 
25.04 -4.31 -1.79 0.06 
24.95 -4.78 -1.79 0.06 
24.84 -5.25 -1.79 0.06 
24.73 -5.72 -1.79 0.06 
24.61 -6.18 -1.79 0.06 
24.48 -6.64 -1.79 0.06 
24.34 -7.10 -1.79 0.06 
24.19 -7.56 -1.79 0.06 
24.03 -8.01 -1.79 0.06 
23.87 -8.46 -1.79 0.06 
23.69 -8.91 -1.79 0.06 
23.51 -9.35 -1.79 0.06 
23.31 -9.79 -1.79 0.06 
23.11 -10.22 -1.79 0.06 
22.90 -10.65 -1.78 0.06 
22.68 -11.07 -1.78 0.06 
22.45 -11.49 -1.78 0.06 
22.22 -11.91 -1.78 0.06 
5.83 -3.27 -0.47 0.45 
5.56 -3.26 -0.46 0.48 
5.36 -3.27 -0.44 0.47 
5.21 -3.32 -0.44 0.61 
5.15 -3.42 -0.44 0.41 
5.12 -3.54 -0.44 0.34 
5.10 -3.68 -0.44 0.36 
5.08 -3.81 -0.45 0.33 
17.95 -14.00 -1.61 0.06 
17.67 -14.33 -1.61 0.06 
17.38 -14.65 -1.61 0.06 
17.08 -14.96 -1.60 0.06 
9.52 -8.66 -0.91 0.67 
9.29 -8.77 -0.90 0.66 
16.16 -15.86 -1.60 0.06 
15.85 -16.15 -1.60 0.06 
15.52 -16.43 -1.60 0.06 
15.19 -16.70 -1.60 0.06 
14.86 -16.97 -1.59 0.06 
14.52 -17.23 -1.59 0.06 
14.18 -17.49 -1.59 0.06 
13.83 -17.73 -1.59 0.06 
13.48 -17.97 -1.59 0.06 
13.12 -18.20 -1.59 0.06 
7.65 -11.05 -0.95 0.66 
9.29 -13.98 -1.19 0.80 
9.00 -14.11 -1.18 0.47 
9.03 -14.76 -1.22 0.45 
11.28 -19.26 -1.58 0.06 
10.90 -19.44 -1.57 0.06 
10.52 -19.62 -1.57 0.06 
10.13 -19.80 -1.57 0.06 
9.75 -19.96 -1.57 0.06 
9.36 -20.12 -1.57 0.06 
8.96 -20.27 -1.57 0.06 
8.57 -20.41 -1.56 0.06 
8.17 -20.55 -1.56 0.06 
7.77 -20.67 -1.56 0.06 
7.37 -20.79 -1.56 0.06 
6.97 -20.90 -1.56 0.06 
6.56 -21.00 -1.55 0.06 
6.16 -21.10 -1.55 0.06 
5.75 -21.18 -1.55 0.06 
5.34 -21.26 -1.55 0.06 
4.93 -21.33 -1.55 0.06 
4.52 -21.40 -1.54 0.06 
4.11 -21.45 -1.54 0.06 
3.70 -21.50 -1.54 0.06 
3.29 -21.54 -1.54 0.06 
2.87 -21.57 -1.54 0.06 
2.46 -21.59 -1.54 0.06 
1.17 -12.35 -0.88 0.57 
1.64 -21.62 -1.53 0.06 
1.23 -21.62 -1.53 0.06 
0.82 -21.61 -1.53 0.06 
0.41 -21.59 -1.53 0.06 
-0.00 -21.57 -1.52 0.06 
-0.41 -21.54 -1.52 0.06 
-0.81 -21.50 -1.52 0.06 
-1.22 -21.46 -1.52 0.07 
-1.62 -21.40 -1.52 0.07 
-2.03 -21.34 -1.51 0.07 
-2.43 -21.27 -1.51 0.07 
-2.82 -21.20 -1.51 0.07 
-3.22 -21.12 -1.51 0.07 
-3.62 -21.03 -1.51 0.07 
-4.01 -20.93 -1.51 0.07 
-4.40 -20.82 -1.50 0.07 
-4.79 -20.71 -1.50 0.07 
-5.17 -20.59 -1.50 0.07 
-5.55 -20.47 -1.50 0.07 
-5.93 -20.34 -1.50 0.07 
-6.31 -20.20 -1.49 0.07 
-6.68 -20.05 -1.49 0.07 
-7.05 -19.90 -1.49 0.07 
-7.42 -19.74 -1.49 0.07 
-7.78 -19.57 -1.49 0.07 
-8.14 -19.40 -1.49 0.07 
-8.50 -19.22 -1.48 0.07 
-5.85 -12.58 -0.98 0.46 
-9.20 -18.85 -1.48 0.07 
-9.55 -18.65 -1.48 0.07 
-9.89 -18.44 -1.48 0.07 
-10.22 -18.24 -1.48 0.07 
-10.56 -18.02 -1.48 0.07 
-10.88 -17.80 -1.47 0.07 
-11.21 -17.57 -1.47 0.07 
-11.53 -17.34 -1.47 0.07 
-11.84 -17.10 -1.47 0.07 
-12.15 -16.86 -1.47 0.07 
-12.46 -16.61 -1.47 0.07 
-12.76 -16.36 -1.47 0.07 
-13.05 -16.10 -1.46 0.07 
-13.34 -15.83 -1.46 0.07 
-13.63 -15.56 -1.46 0.07 
-13.91 -15.29 -1.46 0.07 
-14.18 -15.01 -1.46 0.07 
-14.45 -14.73 -1.46 0.07 
-14.72 -14.44 -1.46 0.07 
-14.97 -14.15 -1.46 0.07 
-15.23 -13.85 -1.45 0.07 
-15.48 -13.55 -1.45 0.07 
-10.47 -8.82 -0.97 0.75 
-15.95 -12.94 -1.45 0.07 
-16.18 -12.62 -1.45 0.07 
-16.41 -12.31 -1.45 0.07 
-16.63 -11.98 -1.45 0.07 
-16.84 -11.66 -1.45 0.07 
-17.05 -11.33 -1.45 0.07 
-17.25 -11.00 -1.45 0.07 
-17.44 -10.67 -1.44 0.07 
-17.63 -10.33 -1.44 0.07 
-17.81 -9.99 -1.44 0.07 
-17.99 -9.64 -1.44 0.07 
-18.16 -9.30 -1.44 0.07 
-18.32 -8.95 -1.44 0.07 
-18.48 -8.59 -1.44 0.07 
-18.92 -8.36 -1.46 0.27 
-20.57 -8.64 -1.58 0.07 
-20.80 -8.27 -1.58 0.07 
-20.95 -7.87 -1.58 0.07 
-21.08 -7.47 -1.58 0.07 
-21.21 -7.07 -1.58 0.07 
-21.34 -6.67 -1.58 0.07 
-13.18 -3.84 -0.97 0.32 
-13.42 -3.64 -0.98 0.35 
-21.66 -5.44 -1.58 0.07 
-21.76 -5.03 -1.58 0.07 
-21.84 -4.61 -1.58 0.07 
-21.92 -4.20 -1.58 0.07 
-21.99 -3.78 -1.58 0.07 
-22.06 -3.37 -1.58 0.07 
-8.41 -1.12 -0.60 0.70 
-8.32 -0.95 -0.59 0.71 
-8.27 -0.79 -0.59 0.89 
-8.25 -0.63 -0.58 0.91 
-8.24 -0.47 -0.58 0.92 
-8.23 -0.31 -0.58 0.93 
-8.24 -0.16 -0.58 0.93 
-8.25 -0.00 -0.59 0.92 
-8.28 0.16 -0.59 0.91 
-8.31 0.31 -0.60 0.88 
-8.38 0.48 -0.60 0.71 
-8.48 0.64 -0.61 0.70 
-21.86 2.08 -1.58 0.07 
-21.82 2.49 -1.58 0.07 
-15.15 2.02 -1.10 0.16 
-13.77 2.10 -1.00 0.18 
-12.49 2.15 -0.91 0.20 
-11.67 2.24 -0.85 0.74 
-11.52 2.43 -0.85 0.89 
-11.52 2.66 -0.85 0.89 
-11.52 2.89 -0.85 0.86 
-11.52 3.13 -0.86 0.85 
-11.53 3.36 -0.86 0.83 
-11.55 3.61 -0.87 0.82 
-11.56 3.85 -0.88 0.85 
-11.70 4.15 -0.89 0.32 
-20.64 7.76 -1.58 0.07 
-20.50 8.15 -1.59 0.07 
-20.35 8.54 -1.59 0.07 
-12.90 5.70 -1.01 0.76 
-12.28 5.71 -0.97 0.53 
-11.74 5.73 -0.94 0.45 
-11.23 5.75 -0.91 0.46 
-10.76 5.77 -0.88 0.47 
-10.31 5.78 -0.85 0.47 
-9.87 5.78 -0.82 0.55 
-9.49 5.81 -0.80 0.62 
-9.23 5.88 -0.79 0.74 
-8.99 5.98 -0.78 0.87 
-8.82 6.11 -0.77 0.91 
-8.73 6.29 -0.77 0.91 
-8.68 6.51 -0.78 0.80 
-8.67 6.76 -0.79 0.76 
-8.69 7.05 -0.80 0.65 
-15.50 13.06 -1.46 0.07 
-15.27 13.37 -1.46 0.07 
-15.02 13.66 -1.46 0.07 
-14.77 13.96 -1.46 0.07 
-14.52 14.25 -1.46 0.07 
-14.26 14.53 -1.46 0.07 
-3.08 3.26 -0.32 0.01 
-2.87 3.15 -0.31 0.15 
-2.81 3.21 -0.31 0.15 
-2.75 3.26 -0.31 0.12 
-2.70 3.33 -0.31 0.12 
-2.65 3.40 -0.31 0.14 
-2.63 3.51 -0.32 0.14 
-11.99 16.64 -1.47 0.07 
-11.69 16.88 -1.47 0.07 
-11.38 17.12 -1.48 0.06 
-10.61 16.63 -1.42 0.60 
-10.50 17.17 -1.45 0.71 
-10.45 17.84 -1.49 0.06 
-10.13 18.07 -1.49 0.06 
-9.80 18.29 -1.49 0.06 
-9.47 18.51 -1.49 0.06 
-9.14 18.72 -1.50 0.06 
-8.80 18.92 -1.50 0.06 
-8.45 19.12 -1.50 0.06 
-7.73 18.41 -1.43 0.06 
-6.56 16.49 -1.28 0.76 
-7.40 19.67 -1.51 0.06 
-7.03 19.85 -1.51 0.06 
-6.67 20.01 -1.52 0.06 
-5.26 16.84 -1.27 0.47 
-5.93 20.32 -1.52 0.06 
-5.55 20.46 -1.52 0.06 
-5.17 20.59 -1.53 0.06 
-4.79 20.72 -1.53 0.06 
-4.40 20.84 -1.53 0.06 
-4.01 20.96 -1.53 0.06 
-3.62 21.06 -1.54 0.06 
-3.23 21.16 -1.54 0.06 
-2.83 21.25 -1.54 0.06 
-2.43 21.33 -1.54 0.06 
-2.03 21.40 -1.54 0.06 
-1.63 21.47 -1.55 0.06 
-1.22 21.52 -1.55 0.06 
-0.74 19.45 -1.40 0.45 
-0.41 21.61 -1.55 0.06 
0.00 21.64 -1.55 0.06 
0.32 16.94 -1.22 0.44 
0.65 17.07 -1.23 0.34 
1.23 21.69 -1.56 0.06 
1.64 21.69 -1.56 0.06 
2.06 21.68 -1.56 0.06 
1.35 11.81 -0.85 0.07 
2.88 21.63 -1.57 0.06 
3.30 21.60 -1.57 0.06 
3.71 21.55 -1.57 0.06 
1.41 7.35 -0.54 0.09 
1.50 7.08 -0.52 0.08 
1.59 6.88 -0.51 0.12 
1.68 6.69 -0.50 0.12 
1.78 6.57 -0.49 0.30 
1.87 6.42 -0.48 0.31 
1.96 6.29 -0.47 0.31 
2.08 6.23 -0.47 0.79 
2.14 6.03 -0.46 0.12 
2.24 5.95 -0.46 0.90 
2.48 6.22 -0.48 0.81 
2.61 6.22 -0.48 0.81 
2.75 6.22 -0.49 0.77 
2.89 6.23 -0.49 0.69 
3.05 6.24 -0.50 0.74 
3.20 6.24 -0.50 0.73 
3.35 6.24 -0.51 0.72 
3.50 6.24 -0.51 0.72 
3.66 6.25 -0.52 0.70 
3.82 6.25 -0.53 0.70 
3.98 6.24 -0.53 0.69 
4.15 6.24 -0.54 0.60 
4.32 6.24 -0.55 0.63 
4.52 6.27 -0.56 0.46 
4.73 6.31 -0.57 0.42 
13.68 17.54 -1.60 0.06 
14.01 17.28 -1.60 0.06 
14.34 17.01 -1.60 0.06 
14.66 16.74 -1.60 0.06 
14.98 16.46 -1.60 0.06 
13.72 14.53 -1.44 0.90 
14.30 14.57 -1.47 0.62 
15.92 15.63 -1.60 0.06 
16.23 15.33 -1.60 0.06 
16.53 15.04 -1.61 0.06 
16.83 14.73 -1.61 0.06 
17.12 14.43 -1.61 0.06 
17.40 14.11 -1.61 0.06 
17.68 13.79 -1.61 0.06 
17.95 13.46 -1.61 0.06 
18.22 13.13 -1.61 0.06 
18.47 12.79 -1.61 0.06 
18.73 12.45 -1.62 0.06 
18.97 12.10 -1.62 0.06 
19.21 11.75 -1.62 0.06 
19.44 11.39 -1.62 0.06 
19.66 11.02 -1.62 0.06 
18.28 9.80 -1.49 0.60 
20.09 10.28 -1.62 0.06 
20.29 9.91 -1.62 0.06 
20.49 9.53 -1.62 0.06 
20.67 9.14 -1.62 0.06 
20.85 8.75 -1.62 0.06 
21.19 8.43 -1.64 0.59 
21.82 8.20 -1.68 0.59 
22.47 7.96 -1.71 0.58 
23.14 7.71 -1.75 0.58 
23.70 7.40 -1.78 0.07 
23.92 6.98 -1.79 0.07 
24.07 6.53 -1.79 0.06 
24.20 6.08 -1.79 0.06 
24.31 5.62 -1.79 0.06 
24.42 5.16 -1.79 0.06 
24.52 4.70 -1.79 0.06 
24.61 4.23 -1.79 0.06 
24.69 3.77 -1.79 0.06 
24.76 3.30 -1.79 0.06 
24.82 2.83 -1.79 0.06 
24.87 2.36 -1.80 0.06 
24.92 1.89 -1.80 0.06 
24.95 1.42 -1.80 0.06 
24.97 0.95 -1.80 0.06 
24.98 0.47 -1.80 0.06 
24.99 -0.00 -1.80 0.06 
24.98 -0.47 -1.80 0.06 
24.97 -0.95 -1.80 0.06 
24.94 -1.42 -1.79 0.06 
24.91 -1.89 -1.79 0.06 
24.86 -2.36 -1.79 0.06 
24.81 -2.83 -1.79 0.06 
24.75 -3.30 -1.79 0.06 
24.67 -3.76 -1.79 0.06 
24.59 -4.23 -1.79 0.06 
24.50 -4.69 -1.79 0.06 
24.40 -5.15 -1.79 0.06 
24.29 -5.61 -1.79 0.06 
24.17 -6.07 -1.79 0.06 
24.05 -6.52 -1.79 0.06 
23.91 -6.98 -1.79 0.06 
23.76 -7.42 -1.79 0.06 
23.61 -7.87 -1.79 0.06 
23.44 -8.31 -1.79 0.06 
23.27 -8.75 -1.79 0.06 
23.09 -9.18 -1.79 0.06 
22.90 -9.61 -1.78 0.06 
22.70 -10.04 -1.78 0.06 
22.49 -10.46 -1.78 0.06 
22.28 -10.88 -1.78 0.06 
22.06 -11.29 -1.78 0.06 
21.82 -11.70 -1.78 0.06 
5.82 -3.26 -0.48 0.40 
5.56 -3.26 -0.46 0.48 
5.35 -3.27 -0.45 0.47 
5.21 -3.32 -0.44 0.61 
5.13 -3.41 -0.44 0.41 
5.10 -3.53 -0.45 0.34 
5.08 -3.66 -0.45 0.36 
5.06 -3.79 -0.45 0.33 
17.64 -13.75 -1.61 0.06 
17.36 -14.07 -1.61 0.06 
17.07 -14.39 -1.60 0.06 
16.78 -14.70 -1.60 0.06 
9.52 -8.66 -0.92 0.67 
9.28 -8.77 -0.92 0.66 
15.88 -15.58 -1.60 0.06 
15.57 -15.87 -1.60 0.06 
15.25 -16.14 -1.60 0.06 
14.93 -16.41 -1.59 0.06 
14.60 -16.68 -1.59 0.06 
14.27 -16.93 -1.59 0.06 
13.93 -17.18 -1.59 0.06 
13.59 -17.42 -1.59 0.06 
13.24 -17.66 -1.59 0.06 
12.89 -17.89 -1.58 0.06 
7.65 -11.05 -0.97 0.69 
9.29 -13.98 -1.21 0.80 
9.00 -14.11 -1.20 0.47 
9.03 -14.76 -1.24 0.45 
11.09 -18.92 -1.58 0.06 
10.71 -19.11 -1.57 0.06 
10.34 -19.29 -1.57 0.06 
9.96 -19.46 -1.57 0.06 
9.58 -19.62 -1.57 0.06 
9.20 -19.77 -1.57 0.06 
8.81 -19.92 -1.57 0.06 
8.42 -20.06 -1.56 0.06 
8.03 -20.19 -1.56 0.06 
7.64 -20.32 -1.56 0.06 
7.24 -20.43 -1.56 0.06 
6.85 -20.54 -1.56 0.06 
6.45 -20.65 -1.55 0.06 
6.05 -20.74 -1.55 0.06 
5.65 -20.82 -1.55 0.06 
5.25 -20.90 -1.55 0.06 
4.85 -20.97 -1.55 0.06 
4.44 -21.03 -1.54 0.06 
4.04 -21.09 -1.54 0.07 
3.64 -21.14 -1.54 0.07 
3.23 -21.17 -1.54 0.07 
2.83 -21.21 -1.54 0.07 
2.42 -21.23 -1.54 0.07 
1.17 -12.35 -0.89 0.54 
1.61 -21.25 -1.53 0.07 
1.21 -21.25 -1.53 0.07 
0.80 -21.25 -1.53 0.07 
0.40 -21.23 -1.53 0.07 
0.00 -21.21 -1.52 0.07 
-0.40 -21.18 -1.52 0.07 
-0.80 -21.14 -1.52 0.07 
-1.20 -21.10 -1.52 0.07 
-1.60 -21.05 -1.52 0.07 
-1.99 -20.99 -1.51 0.07 
-2.39 -20.92 -1.51 0.07 
-2.78 -20.85 -1.51 0.07 
-3.17 -20.77 -1.51 0.07 
-3.56 -20.68 -1.51 0.07 
-3.94 -20.58 -1.51 0.07 
-4.33 -20.48 -1.50 0.07 
-4.71 -20.37 -1.50 0.07 
-5.09 -20.26 -1.50 0.07 
-5.46 -20.13 -1.50 0.07 
-5.84 -20.00 -1.50 0.07 
-6.21 -19.87 -1.50 0.07 
-6.57 -19.72 -1.49 0.07 
-6.94 -19.57 -1.49 0.07 
-7.30 -19.42 -1.49 0.07 
-7.66 -19.25 -1.49 0.07 
-8.01 -19.08 -1.49 0.07 
-8.36 -18.91 -1.49 0.07 
-5.86 -12.59 -1.00 0.36 
-9.05 -18.54 -1.48 0.07 
-9.39 -18.35 -1.48 0.07 
-9.73 -18.15 -1.48 0.07 
-10.06 -17.94 -1.48 0.07 
-10.39 -17.73 -1.48 0.07 
-10.71 -17.51 -1.47 0.07 
-11.03 -17.29 -1.47 0.07 
-11.34 -17.06 -1.47 0.07 
-11.65 -16.83 -1.47 0.07 
-11.96 -16.59 -1.47 0.07 
-12.26 -16.34 -1.47 0.07 
-12.55 -16.09 -1.47 0.07 
-12.84 -15.84 -1.47 0.07 
-13.13 -15.58 -1.46 0.07 
-13.41 -15.31 -1.46 0.07 
-13.68 -15.05 -1.46 0.07 
-13.96 -14.77 -1.46 0.07 
-14.22 -14.49 -1.46 0.07 
-14.48 -14.21 -1.46 0.07 
-14.74 -13.92 -1.46 0.07 
-14.99 -13.63 -1.46 0.07 
-15.23 -13.33 -1.45 0.07 
-10.47 -8.82 -0.98 0.75 
-15.70 -12.73 -1.45 0.07 
-15.93 -12.42 -1.45 0.07 
-16.15 -12.11 -1.45 0.07 
-16.36 -11.79 -1.45 0.07 
-16.57 -11.48 -1.45 0.07 
-16.78 -11.15 -1.45 0.07 
-16.97 -10.83 -1.45 0.07 
-17.17 -10.50 -1.45 0.07 
-17.35 -10.16 -1.44 0.07 
-17.53 -9.83 -1.44 0.07 
-17.71 -9.49 -1.44 0.07 
-17.87 -9.15 -1.44 0.07 
-18.03 -8.81 -1.44 0.07 
-18.19 -8.46 -1.44 0.07 
-18.90 -8.36 -1.48 0.27 
-20.26 -8.50 -1.58 0.07 
-20.47 -8.14 -1.58 0.07 
-20.62 -7.75 -1.58 0.07 
-20.75 -7.36 -1.58 0.07 
-20.88 -6.96 -1.58 0.07 
-21.00 -6.56 -1.58 0.07 
-13.15 -3.84 -0.98 0.91 
-13.43 -3.65 -1.00 0.45 
-21.32 -5.35 -1.58 0.07 
-21.41 -4.95 -1.58 0.07 
-21.50 -4.54 -1.58 0.07 
-21.58 -4.13 -1.58 0.07 
-21.65 -3.72 -1.58 0.07 
-21.71 -3.31 -1.58 0.07 
-8.40 -1.12 -0.61 0.70 
-8.31 -0.95 -0.60 0.71 
-8.27 -0.78 -0.60 0.89 
-8.25 -0.63 -0.59 0.91 
-8.24 -0.47 -0.59 0.92 
-8.22 -0.31 -0.59 0.93 
-8.23 -0.16 -0.59 0.93 
-8.25 -0.00 -0.60 0.92 
-8.28 0.16 -0.60 0.91 
-8.31 0.31 -0.61 0.88 
-8.37 0.48 -0.61 0.71 
-8.47 0.64 -0.62 0.70 
-21.53 2.04 -1.58 0.07 
-21.49 2.45 -1.58 0.07 
-15.15 2.02 -1.12 0.16 
-13.77 2.10 -1.02 0.18 
-12.49 2.15 -0.93 0.20 
-11.67 2.23 -0.87 0.74 
-11.51 2.43 -0.86 0.89 
-11.52 2.66 -0.86 0.89 
-11.52 2.89 -0.87 0.86 
-11.51 3.12 -0.87 0.85 
-11.52 3.36 -0.88 0.83 
-11.54 3.60 -0.88 0.82 
-11.55 3.85 -0.89 0.85 
-11.69 4.14 -0.91 0.32 
-20.32 7.64 -1.59 0.07 
-20.18 8.03 -1.59 0.07 
-20.04 8.41 -1.59 0.07 
-12.90 5.71 -1.03 0.76 
-12.26 5.70 -0.99 0.74 
-11.74 5.73 -0.95 0.45 
-11.23 5.75 -0.92 0.46 
-10.75 5.76 -0.89 0.47 
-10.31 5.78 -0.86 0.47 
-9.86 5.78 -0.83 0.55 
-9.49 5.80 -0.81 0.62 
-9.22 5.88 -0.80 0.74 
-8.99 5.98 -0.79 0.90 
-8.82 6.11 -0.78 0.91 
-8.73 6.29 -0.79 0.91 
-8.67 6.51 -0.79 0.80 
-8.66 6.76 -0.80 0.76 
-8.69 7.04 -0.82 0.65 
-15.26 12.86 -1.46 0.07 
-15.03 13.16 -1.46 0.07 
-14.79 13.45 -1.46 0.07 
-14.54 13.74 -1.46 0.07 
-14.29 14.02 -1.46 0.07 
-14.03 14.30 -1.46 0.07 
-2.97 3.15 -0.32 0.05 
-2.85 3.13 -0.31 0.15 
-2.79 3.18 -0.31 0.15 
-2.73 3.24 -0.31 0.15 
-2.67 3.29 -0.31 0.12 
-2.63 3.38 -0.31 0.17 
-2.61 3.48 -0.32 0.14 
-2.60 3.61 -0.32 0.09 
-11.50 16.61 -1.48 0.07 
-11.19 16.84 -1.48 0.07 
-10.62 16.65 -1.44 0.60 
-10.51 17.19 -1.47 0.71 
-10.27 17.53 -1.48 0.06 
-9.95 17.76 -1.49 0.06 
-9.64 17.97 -1.49 0.06 
-9.31 18.19 -1.49 0.06 
-8.98 18.39 -1.50 0.06 
-8.65 18.59 -1.50 0.06 
-8.31 18.79 -1.50 0.06 
-7.97 18.98 -1.50 0.06 
-6.56 16.50 -1.30 0.72 
-7.27 19.33 -1.51 0.06 
-6.91 19.50 -1.51 0.06 
-5.68 17.04 -1.31 0.49 
-5.27 16.87 -1.29 0.47 
-5.82 19.96 -1.52 0.06 
-5.45 20.10 -1.52 0.06 
-5.08 20.23 -1.52 0.06 
-4.70 20.36 -1.53 0.06 
-4.32 20.47 -1.53 0.06 
-3.94 20.58 -1.53 0.06 
-3.56 20.69 -1.53 0.06 
-3.17 20.78 -1.54 0.06 
-2.78 20.87 -1.54 0.06 
-2.39 20.95 -1.54 0.06 
-2.00 21.02 -1.54 0.06 
-1.60 21.08 -1.54 0.06 
-1.20 21.14 -1.55 0.06 
-0.74 19.43 -1.42 0.45 
-0.40 21.22 -1.55 0.06 
0.00 21.25 -1.55 0.06 
0.32 16.97 -1.24 0.44 
0.65 17.11 -1.25 0.34 
1.21 21.30 -1.56 0.06 
1.62 21.30 -1.56 0.06 
2.02 21.29 -1.56 0.06 
1.34 11.77 -0.87 0.94 
2.83 21.24 -1.57 0.06 
3.24 21.21 -1.57 0.06 
3.64 21.16 -1.57 0.06 
1.39 7.26 -0.54 0.08 
1.48 6.99 -0.52 0.13 
1.57 6.81 -0.51 0.12 
1.67 6.64 -0.50 0.24 
1.78 6.54 -0.50 0.30 
1.87 6.40 -0.49 0.31 
1.96 6.26 -0.48 0.31 
2.08 6.23 -0.48 0.79 
2.12 5.97 -0.46 0.12 
2.24 5.95 -0.46 0.90 
2.47 6.22 -0.49 0.81 
2.61 6.21 -0.49 0.81 
2.75 6.22 -0.50 0.78 
2.89 6.22 -0.50 0.69 
3.05 6.24 -0.51 0.74 
3.19 6.24 -0.51 0.73 
3.34 6.24 -0.52 0.72 
3.50 6.24 -0.52 0.72 
3.65 6.24 -0.53 0.70 
3.82 6.24 -0.53 0.70 
3.98 6.24 -0.54 0.69 
4.15 6.24 -0.55 0.60 
4.31 6.23 -0.55 0.63 
4.51 6.26 -0.56 0.46 
4.72 6.30 -0.57 0.43 
13.42 17.21 -1.59 0.06 
13.75 16.96 -1.60 0.06 
14.07 16.70 -1.60 0.06 
14.39 16.44 -1.60 0.06 
14.71 16.18 -1.60 0.06 
13.73 14.53 -1.46 0.88 
14.31 14.59 -1.49 0.31 
15.65 15.36 -1.60 0.06 
15.95 15.07 -1.60 0.06 
16.25 14.78 -1.60 0.06 
16.54 14.48 -1.61 0.06 
16.82 14.18 -1.61 0.06 
17.10 13.87 -1.61 0.06 
17.37 13.55 -1.61 0.06 
17.64 13.23 -1.61 0.06 
17.90 12.90 -1.61 0.06 
18.15 12.57 -1.61 0.06 
18.40 12.23 -1.61 0.06 
18.64 11.89 -1.62 0.06 
18.87 11.54 -1.62 0.06 
19.10 11.19 -1.62 0.06 
19.32 10.83 -1.62 0.06 
18.28 9.80 -1.51 0.60 
19.74 10.10 -1.62 0.06 
19.94 9.73 -1.62 0.06 
20.13 9.36 -1.62 0.06 
20.31 8.98 -1.62 0.06 
20.57 8.63 -1.63 0.46 
21.18 8.42 -1.67 0.59 
21.82 8.20 -1.70 0.59 
22.46 7.96 -1.74 0.58 
23.12 7.71 -1.78 0.07 
23.34 7.29 -1.79 0.07 
23.52 6.86 -1.79 0.06 
23.65 6.42 -1.79 0.06 
23.77 5.97 -1.79 0.06 
23.89 5.52 -1.79 0.06 
23.99 5.07 -1.79 0.06 
24.09 4.61 -1.79 0.06 
24.18 4.16 -1.79 0.06 
24.26 3.70 -1.79 0.06 
24.33 3.24 -1.79 0.06 
24.39 2.78 -1.79 0.06 
24.44 2.32 -1.79 0.06 
24.48 1.86 -1.79 0.06 
24.51 1.39 -1.79 0.06 
24.53 0.93 -1.79 0.06 
24.55 0.46 -1.79 0.06 
24.55 -0.00 -1.79 0.06 
24.54 -0.46 -1.79 0.06 
24.53 -0.93 -1.79 0.06 
24.50 -1.39 -1.79 0.06 
24.47 -1.86 -1.79 0.06 
24.43 -2.32 -1.79 0.06 
24.37 -2.78 -1.79 0.06 
24.31 -3.24 -1.79 0.06 
24.24 -3.70 -1.79 0.06 
24.16 -4.16 -1.79 0.06 
24.07 -4.61 -1.79 0.06 
23.97 -5.06 -1.79 0.06 
23.87 -5.52 -1.79 0.06 
23.75 -5.96 -1.79 0.06 
23.62 -6.41 -1.79 0.06 
23.49 -6.85 -1.79 0.06 
23.35 -7.29 -1.79 0.06 
23.19 -7.73 -1.79 0.06 
23.03 -8.16 -1.79 0.06 
22.86 -8.59 -1.78 0.06 
22.69 -9.02 -1.78 0.06 
22.50 -9.44 -1.78 0.06 
22.30 -9.86 -1.78 0.06 
22.10 -10.28 -1.78 0.06 
21.89 -10.69 -1.78 0.06 
21.67 -11.09 -1.78 0.06 
21.44 -11.49 -1.78 0.06 
5.82 -3.26 -0.49 0.41 
5.55 -3.25 -0.47 0.48 
5.34 -3.26 -0.46 0.47 
5.20 -3.32 -0.45 0.61 
5.12 -3.40 -0.45 0.41 
5.09 -3.52 -0.45 0.34 
5.07 -3.65 -0.46 0.36 
5.04 -3.78 -0.46 0.33 
5.05 -3.94 -0.47 0.23 
17.06 -13.83 -1.60 0.06 
16.78 -14.14 -1.60 0.06 
16.49 -14.44 -1.60 0.06 
9.52 -8.66 -0.94 0.67 
9.28 -8.77 -0.93 0.66 
15.61 -15.31 -1.60 0.06 
15.30 -15.59 -1.60 0.06 
14.99 -15.86 -1.59 0.06 
14.67 -16.13 -1.59 0.06 
14.35 -16.39 -1.59 0.06 
14.02 -16.64 -1.59 0.06 
13.69 -16.89 -1.59 0.06 
13.36 -17.13 -1.59 0.06 
13.02 -17.36 -1.59 0.06 
12.67 -17.58 -1.58 0.06 
7.65 -11.04 -0.98 0.72 
9.29 -13.98 -1.23 0.80 
9.00 -14.11 -1.22 0.47 
9.03 -14.76 -1.26 0.45 
