VERSION 0.7
FIELDS x y z intensity
SIZE 4 4 4 8
TYPE F F F F
COUNT 1 1 1 1
WIDTH 1939
HEIGHT 1
VIEWPOINT 0.0 0.0 0.0 1.0 0.0 0.0 0.0
POINTS 1939
DATA ascii
-36.10 -34.10 -1.19 0.70 
-36.88 -33.55 -1.19 0.45 
-47.10 -41.24 -1.50 0.44 
-54.97 -46.33 -1.72 0.64 
-47.13 -38.22 -1.45 0.38 
-47.34 -36.92 -1.44 0.69 
-47.49 -35.62 -1.42 0.70 
-33.34 -24.03 -0.98 0.76 
-37.60 -26.03 -1.09 0.21 
-37.60 -25.00 -1.08 0.76 
-37.75 -24.08 -1.07 0.77 
-27.55 -16.85 -0.77 0.87 
-38.08 -22.31 -1.06 0.81 
-38.87 -21.79 -1.07 0.35 
-58.25 -31.22 -1.58 0.02 
-58.07 -29.73 -1.56 0.73 
-59.33 -28.97 -1.58 0.02 
-59.83 -27.82 -1.58 0.02 
-60.32 -26.67 -1.58 0.02 
-42.44 -17.82 -1.10 0.83 
-42.81 -17.03 -1.10 0.83 
-38.42 -14.44 -0.98 0.67 
-13.92 -4.94 -0.35 0.80 
-14.22 -4.74 -0.36 0.55 
-37.98 -11.87 -0.95 0.69 
-38.24 -11.16 -0.95 0.56 
-66.21 -17.96 -1.64 0.31 
-69.98 -17.57 -1.73 0.02 
-70.25 -16.23 -1.72 0.02 
-70.50 -14.89 -1.72 0.02 
-70.73 -13.55 -1.72 0.02 
-11.90 -2.05 -0.29 0.83 
-11.64 -1.78 -0.28 0.56 
-11.60 -1.55 -0.28 0.56 
-11.56 -1.32 -0.28 0.51 
-11.41 -1.08 -0.27 0.11 
-11.44 -0.87 -0.27 0.11 
-11.67 -0.66 -0.28 0.48 
-11.78 -0.45 -0.28 0.53 
-11.89 -0.23 -0.28 0.52 
-29.51 -0.00 -0.74 0.87 
-29.75 0.56 -0.75 0.13 
-62.11 2.35 -1.56 0.15 
-18.64 1.06 -0.47 0.40 
-18.56 1.41 -0.47 0.63 
-18.79 1.78 -0.47 0.13 
-48.68 5.55 -1.23 0.79 
-61.04 8.13 -1.55 0.02 
-60.96 9.30 -1.55 0.02 
-21.60 3.72 -0.55 0.24 
-20.42 3.91 -0.52 0.29 
-19.53 4.13 -0.50 0.49 
-19.17 4.43 -0.49 0.62 
-19.13 4.80 -0.50 0.66 
-19.20 5.21 -0.50 0.60 
-60.83 17.75 -1.59 0.02 
-60.71 18.97 -1.60 0.02 
-27.40 9.13 -0.73 0.83 
-27.02 9.58 -0.72 0.83 
-26.66 10.02 -0.71 0.84 
-26.28 10.45 -0.71 0.85 
-12.42 5.21 -0.34 0.39 
-11.95 5.29 -0.33 0.52 
-11.56 5.38 -0.32 0.43 
-11.15 5.45 -0.31 0.46 
-10.77 5.52 -0.30 0.48 
-10.53 5.64 -0.30 0.22 
-10.51 5.89 -0.30 0.22 
-10.50 6.15 -0.31 0.24 
-10.54 6.44 -0.31 0.20 
-10.62 6.77 -0.32 0.15 
-55.41 36.84 -1.67 0.02 
-54.67 37.85 -1.67 0.02 
-53.90 38.85 -1.67 0.02 
-21.44 16.08 -0.67 0.33 
-52.32 40.80 -1.67 0.02 
-51.50 41.76 -1.66 0.02 
-19.39 16.34 -0.64 0.80 
-23.51 20.58 -0.78 0.82 
-23.37 21.26 -0.79 0.33 
-23.06 21.79 -0.80 0.81 
-47.16 46.27 -1.66 0.02 
-16.66 16.98 -0.60 0.89 
-45.31 47.96 -1.66 0.02 
-44.37 48.78 -1.66 0.02 
-43.41 49.57 -1.65 0.02 
-42.43 50.35 -1.65 0.02 
-41.44 51.11 -1.65 0.02 
-40.44 51.86 -1.65 0.02 
-39.43 52.58 -1.65 0.02 
-38.40 53.28 -1.65 0.02 
-37.36 53.96 -1.65 0.02 
-8.60 12.94 -0.39 0.50 
-8.22 12.90 -0.38 0.94 
-7.99 13.06 -0.38 0.94 
-33.10 56.50 -1.64 0.02 
-32.00 57.08 -1.64 0.02 
-30.90 57.64 -1.64 0.02 
-29.78 58.18 -1.64 0.02 
-28.66 58.70 -1.64 0.02 
-27.53 59.20 -1.64 0.02 
-8.40 19.00 -0.52 0.89 
-25.24 60.14 -1.64 0.02 
-24.09 60.57 -1.64 0.02 
-22.93 60.99 -1.64 0.02 
-21.76 61.38 -1.64 0.02 
-20.58 61.75 -1.63 0.02 
-19.40 62.10 -1.63 0.02 
-18.21 62.42 -1.63 0.02 
-17.02 62.73 -1.63 0.02 
-15.82 63.01 -1.63 0.02 
-14.62 63.27 -1.63 0.02 
-13.42 63.51 -1.63 0.02 
-12.21 63.72 -1.63 0.02 
-10.99 63.92 -1.63 0.02 
-9.78 64.09 -1.63 0.02 
-8.56 64.24 -1.63 0.02 
-7.34 64.36 -1.63 0.02 
-6.12 64.47 -1.63 0.02 
-4.90 64.55 -1.63 0.02 
-3.67 64.61 -1.62 0.02 
-2.45 64.64 -1.62 0.02 
-0.29 15.29 -0.38 0.83 
0.00 64.65 -1.62 0.02 
1.22 64.62 -1.62 0.02 
2.45 64.57 -1.62 0.02 
1.30 22.94 -0.58 0.33 
1.75 23.02 -0.58 0.52 
6.10 64.28 -1.62 0.02 
7.31 64.14 -1.62 0.02 
8.52 63.97 -1.62 0.02 
9.73 63.79 -1.62 0.02 
10.94 63.58 -1.62 0.02 
12.13 63.35 -1.62 0.02 
13.33 63.10 -1.62 0.02 
14.52 62.82 -1.62 0.02 
15.70 62.53 -1.62 0.02 
16.88 62.21 -1.62 0.02 
18.05 61.88 -1.62 0.02 
19.22 61.52 -1.62 0.02 
20.38 61.14 -1.62 0.02 
21.53 60.74 -1.62 0.02 
22.67 60.32 -1.62 0.02 
23.81 59.87 -1.62 0.02 
24.94 59.41 -1.62 0.02 
26.06 58.93 -1.62 0.02 
27.17 58.42 -1.62 0.02 
28.27 57.90 -1.62 0.02 
29.36 57.36 -1.62 0.02 
30.44 56.79 -1.62 0.02 
31.51 56.21 -1.62 0.02 
32.57 55.61 -1.62 0.02 
33.62 54.98 -1.62 0.02 
34.66 54.34 -1.62 0.02 
35.69 53.68 -1.62 0.02 
36.70 53.00 -1.62 0.02 
37.70 52.31 -1.62 0.02 
38.69 51.59 -1.62 0.02 
39.62 50.80 -1.62 0.02 
40.50 49.95 -1.61 0.02 
41.36 49.09 -1.61 0.02 
10.94 12.50 -0.42 0.42 
11.11 12.22 -0.41 0.93 
11.54 12.21 -0.42 0.49 
44.65 45.50 -1.60 0.02 
45.42 44.57 -1.60 0.02 
46.17 43.62 -1.59 0.02 
26.42 24.03 -0.90 0.73 
27.12 23.75 -0.91 0.32 
48.31 40.71 -1.59 0.02 
49.00 39.73 -1.58 0.02 
49.66 38.73 -1.58 0.02 
50.29 37.72 -1.58 0.02 
50.91 36.69 -1.58 0.02 
51.54 35.69 -1.57 0.02 
52.17 34.68 -1.57 0.02 
52.79 33.67 -1.57 0.02 
35.19 21.52 -1.04 0.45 
35.51 20.80 -1.03 0.52 
54.51 30.56 -1.57 0.02 
55.03 29.50 -1.57 0.02 
55.54 28.43 -1.57 0.02 
56.03 27.36 -1.57 0.02 
56.49 26.27 -1.56 0.02 
56.93 25.18 -1.56 0.02 
43.21 18.14 -1.18 0.34 
57.74 22.96 -1.56 0.02 
58.12 21.85 -1.56 0.02 
58.47 20.73 -1.56 0.02 
24.68 8.23 -0.65 0.62 
24.72 7.72 -0.65 0.87 
59.42 17.34 -1.55 0.02 
59.79 16.22 -1.56 0.02 
31.81 7.99 -0.82 0.42 
60.40 13.96 -1.56 0.02 
60.70 12.82 -1.56 0.02 
60.92 11.67 -1.56 0.02 
61.17 10.52 -1.56 0.02 
36.23 5.53 -0.92 0.57 
31.21 4.16 -0.79 0.38 
36.92 4.21 -0.93 0.73 
61.80 5.87 -1.56 0.02 
33.01 2.50 -0.83 0.39 
61.94 3.52 -1.56 0.02 
62.02 2.35 -1.56 0.02 
41.01 0.78 -1.03 0.69 
62.04 -0.00 -1.56 0.02 
62.01 -1.17 -1.56 0.02 
61.92 -2.34 -1.56 0.02 
61.87 -3.52 -1.56 0.02 
44.98 -3.41 -1.13 0.52 
40.05 -3.80 -1.01 0.83 
61.44 -7.01 -1.55 0.02 
61.27 -8.16 -1.55 0.02 
40.72 -6.21 -1.03 0.58 
48.04 -8.26 -1.22 0.45 
60.58 -11.60 -1.55 0.02 
60.32 -12.74 -1.55 0.02 
60.01 -13.87 -1.55 0.02 
43.57 -10.94 -1.13 0.58 
44.06 -11.96 -1.15 0.59 
44.94 -13.11 -1.18 0.79 
56.51 -17.65 -1.49 0.70 
58.17 -19.39 -1.54 0.02 
34.21 -12.13 -0.91 0.67 
33.61 -12.63 -0.90 0.74 
33.99 -13.52 -0.92 0.35 
34.30 -14.40 -0.93 0.50 
34.94 -15.45 -0.96 0.50 
41.05 -19.09 -1.14 0.60 
41.49 -20.26 -1.16 0.57 
54.29 -27.79 -1.53 0.02 
53.80 -28.84 -1.53 0.02 
53.28 -29.87 -1.53 0.02 
52.74 -30.90 -1.53 0.02 
52.19 -31.91 -1.54 0.02 
51.61 -32.92 -1.54 0.02 
51.02 -33.91 -1.54 0.02 
50.40 -34.90 -1.54 0.02 
50.39 -36.32 -1.56 0.55 
48.10 -36.07 -1.51 0.19 
50.92 -39.72 -1.62 0.52 
51.21 -41.52 -1.66 0.51 
51.50 -43.40 -1.69 0.49 
50.94 -44.61 -1.70 0.02 
50.13 -45.60 -1.70 0.02 
49.29 -46.57 -1.70 0.02 
48.44 -47.53 -1.70 0.02 
47.56 -48.47 -1.71 0.02 
46.67 -49.39 -1.71 0.02 
45.76 -50.30 -1.71 0.02 
30.41 -34.73 -1.16 0.71 
43.88 -52.07 -1.71 0.02 
42.92 -52.93 -1.71 0.02 
15.16 -19.44 -0.62 0.48 
14.54 -19.39 -0.61 0.91 
14.35 -19.91 -0.62 0.40 
38.89 -56.17 -1.72 0.02 
37.85 -56.93 -1.72 0.02 
36.79 -57.68 -1.72 0.02 
21.39 -34.98 -1.03 0.55 
34.62 -59.10 -1.72 0.02 
33.52 -59.78 -1.72 0.02 
32.40 -60.44 -1.72 0.02 
31.27 -61.08 -1.72 0.02 
30.12 -61.70 -1.72 0.02 
28.97 -62.29 -1.73 0.02 
27.80 -62.87 -1.73 0.02 
26.62 -63.42 -1.73 0.02 
22.49 -56.55 -1.53 0.76 
24.23 -64.45 -1.73 0.02 
20.17 -56.92 -1.52 0.77 
21.73 -65.21 -1.73 0.03 
11.39 -36.47 -0.96 0.80 
19.20 -65.80 -1.72 0.74 
17.91 -66.01 -1.72 0.75 
16.63 -66.22 -1.71 0.75 
11.80 -51.05 -1.32 0.81 
10.83 -51.25 -1.32 0.81 
9.85 -51.40 -1.31 0.81 
8.86 -51.52 -1.31 0.81 
6.33 -41.49 -1.05 0.84 
1.59 -11.90 -0.30 0.62 
0.93 -8.12 -0.21 0.91 
1.27 -13.38 -0.34 0.94 
4.24 -55.86 -1.41 0.80 
3.19 -56.09 -1.41 0.77 
2.13 -56.24 -1.41 0.75 
0.89 -47.09 -1.18 0.71 
-0.00 -53.92 -1.35 0.79 
-1.02 -53.92 -1.35 0.68 
-2.43 -64.12 -1.61 0.76 
-3.94 -69.27 -1.74 0.03 
-4.59 -60.52 -1.52 0.76 
-4.45 -46.89 -1.18 0.79 
-7.88 -69.09 -1.75 0.02 
-9.19 -68.95 -1.75 0.02 
-9.12 -59.81 -1.52 0.74 
-9.41 -54.74 -1.39 0.77 
-10.52 -54.91 -1.40 0.28 
-11.64 -55.08 -1.41 0.73 
-12.78 -55.28 -1.42 0.73 
-13.96 -55.58 -1.44 0.32 
-18.24 -67.21 -1.75 0.02 
-19.51 -66.86 -1.75 0.02 
-20.77 -66.49 -1.75 0.02 
-22.03 -66.09 -1.75 0.02 
-18.30 -51.61 -1.38 0.70 
-24.52 -65.22 -1.75 0.02 
-25.75 -64.74 -1.75 0.02 
-26.17 -62.35 -1.70 0.56 
-28.18 -63.73 -1.75 0.02 
-29.38 -63.18 -1.75 0.02 
-30.57 -62.61 -1.75 0.02 
-31.75 -62.02 -1.75 0.02 
-32.92 -61.41 -1.75 0.02 
-34.07 -60.77 -1.75 0.02 
-31.07 -53.04 -1.54 0.74 
-31.92 -52.20 -1.54 0.75 
-32.72 -51.30 -1.53 0.75 
-34.00 -51.14 -1.54 0.02 
-39.64 -57.25 -1.75 0.02 
-40.71 -56.48 -1.75 0.02 
-41.76 -55.69 -1.75 0.02 
-42.80 -54.88 -1.75 0.02 
-11.00 -13.57 -0.44 0.91 
-40.97 -48.62 -1.60 0.02 
-41.88 -47.83 -1.60 0.02 
-35.81 -39.37 -1.34 0.50 
-35.39 -37.46 -1.29 0.65 
-35.54 -36.22 -1.27 0.66 
-35.96 -35.29 -1.27 0.66 
-36.10 -34.10 -1.25 0.70 
-36.91 -33.58 -1.25 0.45 
-48.00 -42.03 -1.60 0.66 
-53.07 -44.72 -1.74 0.02 
-47.16 -38.24 -1.52 0.33 
-47.34 -36.92 -1.51 0.69 
-47.49 -35.62 -1.49 0.70 
-33.34 -24.03 -1.03 0.76 
-37.51 -25.97 -1.15 0.31 
-37.60 -25.00 -1.13 0.76 
-37.75 -24.08 -1.12 0.77 
-27.55 -16.85 -0.81 0.87 
-38.25 -22.41 -1.11 0.26 
-38.86 -21.79 -1.12 0.35 
-57.58 -30.86 -1.64 0.72 
-57.79 -29.58 -1.63 0.73 
-58.00 -28.32 -1.62 0.73 
-58.21 -27.07 -1.61 0.74 
-58.42 -25.84 -1.60 0.74 
-42.44 -17.82 -1.16 0.83 
-42.81 -17.03 -1.16 0.83 
-38.42 -14.44 -1.03 0.67 
-13.93 -4.94 -0.37 0.73 
-14.20 -4.73 -0.38 0.61 
-37.98 -11.86 -1.00 0.73 
-38.23 -11.15 -1.00 0.62 
-66.02 -17.91 -1.72 0.02 
-66.56 -16.71 -1.72 0.02 
-66.82 -15.44 -1.72 0.02 
-67.06 -14.17 -1.72 0.02 
-67.28 -12.89 -1.72 0.02 
-67.47 -11.60 -1.72 0.02 
-11.62 -1.77 -0.30 0.56 
-11.58 -1.54 -0.29 0.56 
-11.32 -1.29 -0.29 0.01 
-11.30 -1.07 -0.28 0.11 
-11.32 -0.86 -0.28 0.11 
-11.40 -0.65 -0.29 0.11 
-11.76 -0.45 -0.30 0.53 
-11.87 -0.22 -0.30 0.52 
-29.51 -0.00 -0.78 0.87 
-29.66 0.56 -0.78 0.47 
-62.04 2.35 -1.63 0.15 
-18.60 1.06 -0.49 0.40 
-18.54 1.41 -0.49 0.63 
-18.67 1.77 -0.49 0.13 
-48.68 5.55 -1.29 0.79 
-58.24 7.76 -1.55 0.02 
-58.04 8.86 -1.54 0.02 
-21.55 3.71 -0.58 0.24 
-20.37 3.90 -0.55 0.29 
-19.51 4.12 -0.52 0.39 
-19.14 4.42 -0.52 0.63 
-19.10 4.80 -0.52 0.66 
-19.18 5.20 -0.52 0.60 
-57.74 16.85 -1.58 0.02 
-57.62 18.00 -1.59 0.02 
-27.40 9.13 -0.76 0.83 
-27.02 9.58 -0.75 0.83 
-26.66 10.02 -0.75 0.84 
-26.28 10.45 -0.74 0.85 
-12.40 5.20 -0.35 0.39 
-11.94 5.28 -0.34 0.52 
-11.54 5.37 -0.33 0.43 
-11.14 5.44 -0.33 0.47 
-10.76 5.51 -0.32 0.42 
-10.48 5.62 -0.31 0.22 
-10.46 5.86 -0.32 0.25 
-10.45 6.12 -0.32 0.24 
-10.48 6.41 -0.32 0.20 
-10.56 6.73 -0.33 0.18 
-52.80 35.10 -1.67 0.02 
-52.20 36.14 -1.67 0.02 
-51.47 37.10 -1.67 0.02 
-21.44 16.08 -0.70 0.33 
-49.96 38.96 -1.67 0.02 
-49.18 39.88 -1.67 0.02 
-19.39 16.34 -0.67 0.76 
-23.51 20.58 -0.82 0.82 
-23.37 21.26 -0.83 0.33 
-23.06 21.79 -0.83 0.81 
-45.04 44.20 -1.66 0.02 
-16.67 16.98 -0.63 0.88 
-43.28 45.81 -1.66 0.02 
-42.38 46.59 -1.66 0.02 
-41.46 47.35 -1.66 0.02 
-40.53 48.10 -1.65 0.02 
-39.59 48.83 -1.65 0.02 
-38.64 49.54 -1.65 0.02 
-37.67 50.23 -1.65 0.02 
-36.69 50.90 -1.65 0.02 
-35.70 51.56 -1.65 0.02 
-8.60 12.93 -0.41 0.50 
-8.22 12.89 -0.40 0.94 
-7.99 13.06 -0.40 0.94 
-31.62 53.98 -1.65 0.02 
-30.58 54.54 -1.64 0.02 
-29.52 55.08 -1.64 0.02 
-28.46 55.60 -1.64 0.02 
-27.39 56.10 -1.64 0.02 
-26.31 56.58 -1.64 0.02 
-8.40 19.00 -0.55 0.89 
-24.12 57.47 -1.64 0.02 
-23.02 57.89 -1.64 0.02 
-21.91 58.28 -1.64 0.02 
-20.79 58.66 -1.64 0.02 
-19.67 59.02 -1.64 0.02 
-18.54 59.35 -1.64 0.02 
-17.41 59.66 -1.63 0.02 
-16.27 59.95 -1.63 0.02 
-15.12 60.23 -1.63 0.02 
-13.98 60.48 -1.63 0.02 
-12.82 60.70 -1.63 0.02 
-11.67 60.91 -1.63 0.02 
-10.51 61.10 -1.63 0.02 
-9.35 61.26 -1.63 0.02 
-8.18 61.41 -1.63 0.02 
-7.02 61.53 -1.63 0.02 
-5.85 61.63 -1.63 0.02 
-4.68 61.71 -1.63 0.02 
-3.51 61.76 -1.63 0.02 
-2.34 61.80 -1.63 0.02 
-0.29 15.29 -0.40 0.86 
0.00 61.81 -1.63 0.02 
1.17 61.78 -1.63 0.02 
2.34 61.73 -1.62 0.02 
1.30 22.96 -0.60 0.32 
1.75 23.02 -0.61 0.52 
5.83 61.45 -1.62 0.02 
6.99 61.32 -1.62 0.02 
8.15 61.16 -1.62 0.02 
9.30 60.99 -1.62 0.02 
10.46 60.79 -1.62 0.02 
11.60 60.57 -1.62 0.02 
12.74 60.33 -1.62 0.02 
13.88 60.07 -1.62 0.02 
15.01 59.79 -1.62 0.02 
16.14 59.49 -1.62 0.02 
17.26 59.16 -1.62 0.02 
18.38 58.82 -1.62 0.02 
19.48 58.46 -1.62 0.02 
20.59 58.08 -1.62 0.02 
21.68 57.67 -1.62 0.02 
22.77 57.25 -1.62 0.02 
23.85 56.81 -1.62 0.02 
24.92 56.34 -1.62 0.02 
25.98 55.86 -1.62 0.02 
27.03 55.36 -1.62 0.02 
28.07 54.84 -1.62 0.02 
29.11 54.30 -1.62 0.02 
30.13 53.74 -1.62 0.02 
31.15 53.17 -1.62 0.02 
32.15 52.57 -1.62 0.02 
33.14 51.96 -1.62 0.02 
34.12 51.33 -1.62 0.02 
35.09 50.68 -1.62 0.02 
35.98 49.93 -1.62 0.02 
36.86 49.15 -1.62 0.02 
37.72 48.36 -1.61 0.02 
38.57 47.57 -1.61 0.02 
39.39 46.75 -1.61 0.02 
10.94 12.50 -0.44 0.42 
11.11 12.22 -0.43 0.93 
11.54 12.21 -0.44 0.49 
42.54 43.35 -1.60 0.02 
43.28 42.47 -1.60 0.02 
44.00 41.57 -1.59 0.02 
26.44 24.05 -0.94 0.73 
27.15 23.77 -0.95 0.32 
46.04 38.80 -1.58 0.02 
46.69 37.86 -1.58 0.02 
47.31 36.90 -1.58 0.02 
47.94 35.95 -1.58 0.02 
48.54 34.99 -1.57 0.02 
49.11 34.00 -1.57 0.02 
49.66 33.01 -1.57 0.02 
50.22 32.03 -1.57 0.02 
35.23 21.54 -1.09 0.45 
35.55 20.82 -1.08 0.52 
51.86 29.08 -1.56 0.02 
52.37 28.07 -1.56 0.02 
52.85 27.06 -1.56 0.02 
53.32 26.03 -1.56 0.02 
53.76 25.00 -1.56 0.02 
26.74 11.82 -0.77 0.02 
27.33 11.47 -0.78 0.87 
27.25 10.84 -0.77 0.38 
55.32 20.79 -1.55 0.02 
55.65 19.73 -1.55 0.02 
24.68 8.22 -0.68 0.62 
24.72 7.72 -0.68 0.87 
56.53 16.49 -1.55 0.02 
56.80 15.41 -1.55 0.02 
31.84 8.00 -0.86 0.81 
57.40 13.27 -1.55 0.02 
57.65 12.18 -1.55 0.02 
57.91 11.09 -1.55 0.02 
58.08 9.99 -1.55 0.02 
36.23 5.53 -0.96 0.57 
31.21 4.16 -0.83 0.58 
36.93 4.21 -0.98 0.73 
58.68 5.57 -1.55 0.02 
32.99 2.50 -0.87 0.72 
58.82 3.34 -1.55 0.02 
58.85 2.23 -1.55 0.02 
41.04 0.78 -1.08 0.69 
58.87 -0.00 -1.55 0.02 
58.87 -1.11 -1.55 0.02 
58.81 -2.23 -1.55 0.02 
58.71 -3.34 -1.55 0.02 
45.03 -3.42 -1.19 0.52 
40.05 -3.80 -1.06 0.83 
58.33 -6.65 -1.54 0.02 
58.14 -7.75 -1.54 0.02 
40.71 -6.21 -1.08 0.58 
48.13 -8.28 -1.28 0.45 
57.49 -11.01 -1.54 0.02 
57.22 -12.09 -1.54 0.02 
56.95 -13.16 -1.54 0.02 
43.57 -10.94 -1.18 0.58 
44.06 -11.96 -1.20 0.59 
44.94 -13.11 -1.23 0.79 
55.57 -17.36 -1.53 0.02 
55.19 -18.39 -1.53 0.02 
34.20 -12.12 -0.95 0.67 
33.58 -12.62 -0.94 0.73 
33.64 -13.38 -0.95 0.16 
34.29 -14.39 -0.98 0.50 
34.93 -15.45 -1.00 0.50 
41.05 -19.09 -1.19 0.62 
41.49 -20.26 -1.21 0.57 
51.82 -26.53 -1.53 0.02 
51.34 -27.52 -1.53 0.02 
50.85 -28.51 -1.53 0.02 
50.34 -29.49 -1.53 0.02 
49.80 -30.46 -1.54 0.02 
49.65 -31.67 -1.55 0.58 
49.89 -33.16 -1.58 0.57 
50.13 -34.71 -1.60 0.56 
50.38 -36.31 -1.63 0.55 
47.99 -35.99 -1.58 0.61 
25.63 -19.99 -0.86 0.02 
50.11 -40.63 -1.70 0.02 
49.37 -41.60 -1.70 0.02 
48.60 -42.56 -1.70 0.02 
47.82 -43.50 -1.70 0.02 
47.02 -44.43 -1.70 0.02 
46.20 -45.34 -1.70 0.02 
45.37 -46.23 -1.70 0.02 
44.51 -47.12 -1.71 0.02 
43.64 -47.98 -1.71 0.02 
30.41 -34.73 -1.21 0.71 
41.85 -49.66 -1.71 0.02 
40.93 -50.48 -1.71 0.02 
15.16 -19.43 -0.65 0.48 
14.54 -19.39 -0.64 0.91 
14.35 -19.91 -0.65 0.40 
37.09 -53.57 -1.71 0.02 
36.09 -54.29 -1.71 0.02 
35.08 -55.00 -1.72 0.02 
21.39 -34.97 -1.08 0.55 
33.01 -56.35 -1.72 0.02 
31.96 -57.00 -1.72 0.02 
30.89 -57.63 -1.72 0.02 
29.81 -58.24 -1.72 0.02 
28.72 -58.82 -1.72 0.02 
27.62 -59.39 -1.72 0.02 
26.50 -59.93 -1.72 0.02 
25.38 -60.46 -1.72 0.02 
22.49 -56.54 -1.60 0.76 
23.10 -61.44 -1.73 0.02 
20.17 -56.91 -1.59 0.77 
20.78 -62.33 -1.73 0.02 
11.40 -36.49 -1.01 0.71 
18.42 -63.14 -1.73 0.02 
17.23 -63.50 -1.73 0.02 
16.03 -63.85 -1.73 0.02 
11.80 -51.05 -1.38 0.81 
10.83 -51.25 -1.38 0.81 
9.85 -51.40 -1.38 0.81 
8.86 -51.52 -1.38 0.81 
6.33 -41.49 -1.10 0.84 
1.59 -11.92 -0.32 0.51 
0.93 -8.12 -0.22 0.91 
1.27 -13.38 -0.35 0.94 
4.24 -55.86 -1.47 0.80 
3.19 -56.10 -1.48 0.77 
2.13 -56.27 -1.48 0.75 
0.89 -47.09 -1.24 0.68 
-0.00 -53.87 -1.42 0.80 
-1.02 -53.95 -1.42 0.75 
-2.43 -64.12 -1.69 0.76 
-3.76 -66.11 -1.74 0.02 
-4.59 -60.52 -1.60 0.76 
-4.45 -46.92 -1.24 0.24 
-7.51 -65.83 -1.74 0.02 
-8.75 -65.69 -1.74 0.02 
-9.12 -59.81 -1.59 0.74 
-9.56 -55.60 -1.48 0.03 
-10.52 -54.90 -1.47 0.74 
-11.64 -55.09 -1.48 0.73 
-12.78 -55.28 -1.49 0.73 
-16.16 -64.35 -1.75 0.02 
-17.38 -64.04 -1.75 0.02 
-18.59 -63.70 -1.75 0.02 
-19.79 -63.35 -1.75 0.02 
-20.99 -62.97 -1.75 0.02 
-18.30 -51.61 -1.44 0.70 
-23.36 -62.14 -1.75 0.02 
-24.53 -61.68 -1.75 0.02 
-25.69 -61.21 -1.75 0.02 
-26.85 -60.71 -1.75 0.02 
-27.99 -60.20 -1.75 0.02 
-29.13 -59.65 -1.75 0.02 
-30.25 -59.09 -1.75 0.02 
-31.36 -58.51 -1.75 0.02 
-32.46 -57.90 -1.75 0.02 
-31.07 -53.04 -1.62 0.74 
-34.62 -56.62 -1.75 0.02 
-35.69 -55.95 -1.75 0.02 
-34.41 -51.77 -1.64 0.75 
-37.77 -54.55 -1.75 0.02 
-38.79 -53.81 -1.75 0.02 
-39.79 -53.06 -1.74 0.02 
-40.78 -52.29 -1.74 0.02 
-11.00 -13.56 -0.46 0.93 
-40.54 -48.11 -1.66 0.59 
-40.80 -46.60 -1.63 0.60 
-38.36 -42.18 -1.50 0.62 
-35.39 -37.46 -1.36 0.65 
-36.98 -37.69 -1.39 0.65 
-39.40 -38.66 -1.45 0.48 
-36.10 -34.10 -1.31 0.68 
-36.94 -33.60 -1.31 0.45 
-48.00 -42.03 -1.68 0.66 
-50.58 -42.62 -1.74 0.02 
-47.22 -38.29 -1.60 0.33 
-52.12 -40.65 -1.74 0.02 
-41.09 -30.81 -1.35 0.73 
-33.34 -24.03 -1.08 0.76 
-37.44 -25.93 -1.20 0.31 
-37.60 -25.00 -1.19 0.76 
-37.76 -24.08 -1.18 0.77 
-27.55 -16.84 -0.85 0.87 
-38.17 -22.36 -1.16 0.26 
-38.87 -21.79 -1.17 0.35 
-57.56 -30.86 -1.72 0.72 
-57.78 -29.58 -1.71 0.73 
-57.99 -28.31 -1.70 0.73 
-58.20 -27.07 -1.69 0.74 
-58.41 -25.83 -1.68 0.74 
-42.44 -17.82 -1.21 0.83 
-42.81 -17.03 -1.21 0.83 
-38.41 -14.44 -1.08 0.68 
-13.94 -4.94 -0.39 0.61 
-14.19 -4.73 -0.39 0.67 
-37.97 -11.86 -1.05 0.73 
-38.22 -11.15 -1.05 0.59 
-63.18 -17.14 -1.72 0.02 
-63.46 -15.94 -1.72 0.02 
-63.72 -14.72 -1.72 0.02 
-63.95 -13.51 -1.72 0.02 
-64.15 -12.29 -1.72 0.02 
-64.33 -11.07 -1.72 0.02 
-11.60 -1.77 -0.31 0.56 
-11.56 -1.54 -0.31 0.56 
-11.21 -1.28 -0.30 0.13 
-11.19 -1.06 -0.30 0.13 
-11.21 -0.85 -0.30 0.12 
-11.29 -0.64 -0.30 0.12 
-11.73 -0.44 -0.31 0.09 
-11.85 -0.22 -0.31 0.53 
-29.50 -0.00 -0.81 0.84 
-29.65 0.56 -0.82 0.47 
-61.68 2.34 -1.70 0.02 
-18.57 1.06 -0.51 0.40 
-18.52 1.40 -0.51 0.63 
-18.62 1.77 -0.51 0.44 
-48.67 5.55 -1.35 0.79 
-55.68 7.42 -1.54 0.02 
-55.49 8.47 -1.54 0.02 
-21.49 3.70 -0.60 0.24 
-20.33 3.89 -0.57 0.31 
-19.47 4.11 -0.55 0.39 
-19.12 4.42 -0.54 0.63 
-19.08 4.79 -0.54 0.66 
-19.15 5.20 -0.55 0.60 
-54.95 16.03 -1.57 0.02 
-54.83 17.13 -1.58 0.02 
-27.40 9.13 -0.79 0.83 
-27.02 9.58 -0.79 0.83 
-26.66 10.02 -0.78 0.84 
-26.28 10.45 -0.78 0.85 
-12.38 5.20 -0.37 0.39 
-11.92 5.27 -0.36 0.52 
-11.53 5.36 -0.35 0.43 
-11.12 5.43 -0.34 0.47 
-10.74 5.50 -0.33 0.42 
-10.43 5.59 -0.33 0.56 
-10.41 5.84 -0.33 0.25 
-10.40 6.09 -0.33 0.24 
-10.43 6.38 -0.34 0.20 
-10.49 6.69 -0.34 0.18 
-50.12 33.31 -1.65 0.02 
-49.61 34.35 -1.66 0.02 
-49.08 35.38 -1.66 0.02 
-21.63 16.22 -0.74 0.82 
-47.80 37.28 -1.67 0.02 
-47.06 38.16 -1.67 0.02 
-19.40 16.35 -0.70 0.68 
-23.51 20.58 -0.86 0.82 
-23.37 21.26 -0.87 0.33 
-23.06 21.79 -0.87 0.81 
-43.11 42.30 -1.66 0.02 
-16.67 16.99 -0.65 0.84 
-41.42 43.84 -1.66 0.02 
-40.56 44.59 -1.66 0.02 
-39.68 45.32 -1.66 0.02 
-38.80 46.04 -1.66 0.02 
-37.90 46.74 -1.65 0.02 
-36.98 47.42 -1.65 0.02 
-36.06 48.08 -1.65 0.02 
-35.12 48.73 -1.65 0.02 
-34.17 49.35 -1.65 0.02 
-8.60 12.93 -0.43 0.50 
-8.22 12.89 -0.42 0.94 
-7.99 13.06 -0.42 0.94 
-30.27 51.68 -1.65 0.02 
-29.28 52.22 -1.65 0.02 
-28.27 52.73 -1.65 0.02 
-27.25 53.23 -1.64 0.02 
-26.22 53.71 -1.64 0.02 
-25.19 54.17 -1.64 0.02 
-8.40 19.00 -0.57 0.89 
-23.10 55.03 -1.64 0.02 
-22.04 55.43 -1.64 0.02 
-20.98 55.81 -1.64 0.02 
-19.91 56.17 -1.64 0.02 
-18.84 56.51 -1.64 0.02 
-17.76 56.83 -1.64 0.02 
-16.67 57.14 -1.64 0.02 
-15.58 57.42 -1.64 0.02 
-14.48 57.68 -1.64 0.02 
-13.38 57.92 -1.63 0.02 
-12.28 58.14 -1.63 0.02 
-11.17 58.34 -1.63 0.02 
-10.06 58.52 -1.63 0.02 
-8.95 58.67 -1.63 0.02 
-7.84 58.81 -1.63 0.02 
-6.72 58.93 -1.63 0.02 
-5.60 59.03 -1.63 0.02 
-4.48 59.10 -1.63 0.02 
-3.36 59.16 -1.63 0.02 
-2.24 59.19 -1.63 0.02 
-0.29 15.29 -0.42 0.86 
0.00 59.20 -1.63 0.02 
1.12 59.18 -1.63 0.02 
2.24 59.13 -1.63 0.02 
1.31 22.97 -0.63 0.32 
1.75 23.02 -0.63 0.52 
5.59 58.87 -1.63 0.02 
6.70 58.74 -1.63 0.02 
7.81 58.59 -1.63 0.02 
8.91 58.42 -1.63 0.02 
10.02 58.23 -1.62 0.02 
11.11 58.02 -1.62 0.02 
12.21 57.79 -1.62 0.02 
13.30 57.54 -1.62 0.02 
14.38 57.28 -1.62 0.02 
15.46 56.99 -1.62 0.02 
16.54 56.68 -1.62 0.02 
17.60 56.35 -1.62 0.02 
18.67 56.00 -1.62 0.02 
19.72 55.64 -1.62 0.02 
20.77 55.25 -1.62 0.02 
21.81 54.84 -1.62 0.02 
22.84 54.42 -1.62 0.02 
23.87 53.98 -1.62 0.02 
24.89 53.52 -1.62 0.02 
25.90 53.04 -1.62 0.02 
26.90 52.54 -1.62 0.02 
27.89 52.02 -1.62 0.02 
28.87 51.49 -1.62 0.02 
29.84 50.93 -1.62 0.02 
30.80 50.36 -1.62 0.02 
31.73 49.74 -1.62 0.02 
32.61 49.05 -1.62 0.02 
33.48 48.35 -1.62 0.02 
34.33 47.64 -1.61 0.02 
35.17 46.90 -1.61 0.02 
36.00 46.15 -1.61 0.02 
36.80 45.39 -1.61 0.02 
37.59 44.61 -1.60 0.02 
10.94 12.50 -0.46 0.42 
11.11 12.22 -0.45 0.93 
11.54 12.21 -0.46 0.49 
40.60 41.38 -1.59 0.02 
41.31 40.53 -1.59 0.02 
42.02 39.70 -1.59 0.02 
26.45 24.06 -0.98 0.65 
27.20 23.81 -0.99 0.28 
43.98 37.07 -1.58 0.02 
44.60 36.17 -1.58 0.02 
45.20 35.26 -1.58 0.02 
45.78 34.34 -1.57 0.02 
46.35 33.41 -1.57 0.02 
46.91 32.48 -1.57 0.02 
47.46 31.55 -1.57 0.02 
47.97 30.60 -1.56 0.02 
35.27 21.57 -1.14 0.45 
35.58 20.84 -1.13 0.78 
49.46 27.73 -1.56 0.02 
49.95 26.77 -1.56 0.02 
50.41 25.81 -1.56 0.02 
50.85 24.83 -1.56 0.02 
51.28 23.85 -1.56 0.02 
26.34 11.65 -0.79 0.16 
26.20 11.00 -0.78 0.89 
26.60 10.58 -0.79 0.51 
52.77 19.84 -1.55 0.02 
53.10 18.82 -1.55 0.02 
24.68 8.22 -0.72 0.62 
24.72 7.72 -0.71 0.87 
53.94 15.74 -1.55 0.02 
54.18 14.70 -1.54 0.02 
31.85 8.00 -0.90 0.81 
54.68 12.64 -1.54 0.02 
54.93 11.60 -1.54 0.02 
55.13 10.56 -1.54 0.02 
55.36 9.52 -1.54 0.02 
36.23 5.53 -1.01 0.57 
31.20 4.16 -0.87 0.61 
36.96 4.22 -1.02 0.65 
55.88 5.30 -1.54 0.02 
32.98 2.50 -0.91 0.72 
56.04 3.19 -1.54 0.02 
56.05 2.12 -1.54 0.02 
41.07 0.78 -1.13 0.69 
56.06 -0.00 -1.54 0.02 
56.02 -1.06 -1.54 0.02 
55.98 -2.12 -1.54 0.02 
55.91 -3.18 -1.54 0.02 
45.13 -3.42 -1.24 0.34 
40.05 -3.80 -1.11 0.83 
55.53 -6.33 -1.54 0.02 
55.35 -7.38 -1.54 0.02 
40.71 -6.21 -1.13 0.58 
48.07 -8.27 -1.34 0.57 
54.71 -10.48 -1.53 0.02 
54.46 -11.50 -1.53 0.02 
54.18 -12.52 -1.53 0.02 
43.57 -10.94 -1.24 0.58 
44.06 -11.96 -1.26 0.59 
44.94 -13.11 -1.29 0.79 
52.88 -16.52 -1.52 0.02 
52.54 -17.51 -1.52 0.02 
34.19 -12.12 -1.00 0.67 
33.56 -12.62 -0.99 0.83 
33.63 -13.37 -1.00 0.50 
34.28 -14.39 -1.02 0.50 
34.92 -15.44 -1.05 0.50 
41.05 -19.09 -1.25 0.62 
41.49 -20.26 -1.27 0.57 
49.56 -25.37 -1.53 0.02 
49.10 -26.32 -1.53 0.02 
48.98 -27.46 -1.54 0.62 
49.19 -28.82 -1.57 0.61 
49.41 -30.22 -1.59 0.60 
49.64 -31.66 -1.62 0.58 
49.87 -33.15 -1.65 0.57 
50.11 -34.70 -1.68 0.56 
49.91 -35.98 -1.69 0.03 
47.97 -35.98 -1.65 0.78 
25.63 -19.99 -0.89 0.84 
47.91 -38.85 -1.70 0.02 
47.20 -39.77 -1.70 0.02 
46.47 -40.69 -1.70 0.02 
45.72 -41.58 -1.70 0.02 
44.95 -42.47 -1.70 0.02 
44.17 -43.34 -1.70 0.02 
43.37 -44.20 -1.70 0.02 
42.55 -45.04 -1.70 0.02 
41.72 -45.87 -1.71 0.02 
30.41 -34.73 -1.27 0.71 
40.00 -47.47 -1.71 0.02 
39.12 -48.25 -1.71 0.02 
15.16 -19.43 -0.68 0.48 
14.54 -19.39 -0.67 0.91 
14.35 -19.91 -0.68 0.40 
35.45 -51.19 -1.71 0.02 
34.49 -51.88 -1.71 0.02 
33.52 -52.56 -1.71 0.02 
21.38 -34.97 -1.13 0.55 
31.55 -53.85 -1.72 0.02 
30.54 -54.47 -1.72 0.02 
29.52 -55.07 -1.72 0.02 
28.49 -55.65 -1.72 0.02 
27.44 -56.21 -1.72 0.02 
26.39 -56.75 -1.72 0.02 
25.32 -57.26 -1.72 0.02 
24.25 -57.76 -1.72 0.02 
23.16 -58.24 -1.72 0.02 
22.07 -58.70 -1.72 0.02 
20.17 -56.91 -1.66 0.77 
19.85 -59.55 -1.73 0.02 
11.41 -36.52 -1.05 0.55 
17.60 -60.31 -1.73 0.02 
16.46 -60.66 -1.73 0.02 
15.32 -60.99 -1.73 0.02 
11.80 -51.05 -1.44 0.81 
10.83 -51.25 -1.44 0.81 
9.85 -51.40 -1.44 0.81 
8.86 -51.52 -1.44 0.81 
6.33 -41.49 -1.15 0.84 
1.59 -11.93 -0.33 0.69 
0.93 -8.12 -0.22 0.91 
1.27 -13.38 -0.37 0.94 
4.24 -55.86 -1.54 0.80 
3.19 -56.11 -1.55 0.77 
2.39 -63.10 -1.74 0.02 
0.89 -47.10 -1.30 0.70 
-0.00 -53.91 -1.48 0.79 
-1.02 -53.98 -1.48 0.38 
-2.39 -63.17 -1.74 0.02 
-3.59 -63.13 -1.74 0.02 
-4.59 -60.52 -1.67 0.76 
-4.46 -47.02 -1.30 0.47 
-7.17 -62.87 -1.74 0.02 
-8.36 -62.74 -1.74 0.02 
-9.55 -62.58 -1.74 0.02 
-9.69 -56.31 -1.57 0.75 
-11.91 -62.19 -1.74 0.02 
-12.42 -58.77 -1.65 0.73 
-12.78 -55.29 -1.56 0.25 
-15.43 -61.45 -1.74 0.02 
-16.59 -61.15 -1.74 0.02 
-17.75 -60.83 -1.74 0.02 
-18.90 -60.49 -1.74 0.02 
-20.04 -60.13 -1.74 0.02 
-18.29 -51.61 -1.51 0.70 
-22.30 -59.33 -1.74 0.02 
-23.42 -58.90 -1.74 0.02 
-24.54 -58.45 -1.74 0.02 
-23.31 -52.72 -1.59 0.02 
-24.31 -52.27 -1.59 0.02 
-25.29 -51.80 -1.59 0.02 
-26.27 -51.31 -1.59 0.02 
-27.23 -50.80 -1.59 0.02 
-31.00 -55.29 -1.74 0.02 
-31.07 -53.04 -1.69 0.74 
-33.06 -54.07 -1.74 0.02 
-34.08 -53.43 -1.74 0.02 
-34.48 -51.87 -1.71 0.05 
-36.07 -52.09 -1.74 0.02 
-37.04 -51.39 -1.74 0.02 
-38.00 -50.67 -1.74 0.02 
-38.95 -49.94 -1.74 0.02 
-11.00 -13.56 -0.48 0.93 
-40.53 -48.10 -1.73 0.59 
-40.79 -46.59 -1.70 0.60 
-38.36 -42.18 -1.57 0.62 
-35.39 -37.46 -1.42 0.65 
-36.98 -37.69 -1.45 0.65 
-40.37 -39.62 -1.56 0.66 
-36.10 -34.10 -1.37 0.68 
-37.66 -34.26 -1.40 0.69 
-43.44 -38.04 -1.59 0.02 
-44.14 -37.20 -1.59 0.02 
-44.82 -36.35 -1.59 0.02 
-49.78 -38.82 -1.74 0.02 
-47.49 -35.62 -1.63 0.70 
-33.34 -24.03 -1.13 0.76 
-37.41 -25.90 -1.25 0.75 
-37.61 -25.00 -1.24 0.76 
-37.76 -24.08 -1.23 0.77 
-27.54 -16.84 -0.89 0.87 
-38.09 -22.31 -1.21 0.26 
-38.87 -21.80 -1.23 0.35 
-55.45 -29.72 -1.73 0.02 
-55.98 -28.66 -1.73 0.02 
-56.49 -27.58 -1.73 0.02 
-56.97 -26.49 -1.73 0.02 
-57.44 -25.40 -1.73 0.02 
-42.44 -17.82 -1.27 0.83 
-42.81 -17.03 -1.27 0.83 
-38.40 -14.44 -1.13 0.68 
-13.96 -4.95 -0.41 0.40 
-14.17 -4.72 -0.41 0.71 
-37.92 -11.85 -1.09 0.76 
-38.22 -11.15 -1.10 0.59 
-60.37 -16.38 -1.72 0.02 
-60.64 -15.23 -1.72 0.02 
-60.88 -14.07 -1.72 0.02 
-61.10 -12.91 -1.72 0.02 
-61.30 -11.74 -1.72 0.02 
-61.48 -10.57 -1.72 0.02 
-11.58 -1.77 -0.32 0.56 
-11.22 -1.50 -0.31 0.12 
-11.11 -1.27 -0.31 0.13 
-11.09 -1.05 -0.31 0.13 
-11.11 -0.84 -0.31 0.12 
-11.19 -0.64 -0.31 0.12 
-11.32 -0.43 -0.31 0.11 
-11.82 -0.22 -0.33 0.09 
-29.48 -0.00 -0.85 0.83 
-29.62 0.56 -0.85 0.43 
-59.31 2.25 -1.70 0.02 
-18.54 1.05 -0.53 0.35 
-18.49 1.40 -0.53 0.64 
-18.60 1.76 -0.54 0.44 
-48.67 5.55 -1.41 0.79 
-53.33 7.11 -1.54 0.02 
-53.16 8.11 -1.54 0.02 
-21.44 3.69 -0.62 0.24 
-20.29 3.89 -0.59 0.27 
-19.44 4.11 -0.57 0.39 
-19.09 4.41 -0.56 0.63 
-19.06 4.79 -0.56 0.66 
-19.13 5.19 -0.57 0.60 
-52.42 15.30 -1.57 0.02 
-52.30 16.34 -1.57 0.02 
-27.40 9.13 -0.83 0.83 
-27.02 9.58 -0.82 0.83 
-26.66 10.02 -0.82 0.84 
-26.28 10.45 -0.81 0.85 
-12.36 5.19 -0.38 0.39 
-11.91 5.27 -0.37 0.52 
-11.51 5.35 -0.36 0.43 
-11.11 5.42 -0.35 0.47 
-10.72 5.49 -0.35 0.43 
-10.42 5.58 -0.34 0.58 
-10.37 5.81 -0.34 0.25 
-10.35 6.07 -0.34 0.23 
-10.37 6.34 -0.35 0.21 
-10.43 6.65 -0.36 0.19 
-22.81 15.16 -0.79 0.86 
-22.31 15.45 -0.78 0.03 
-46.70 33.66 -1.65 0.02 
-21.62 16.22 -0.78 0.82 
-45.61 35.57 -1.66 0.02 
-45.04 36.52 -1.66 0.02 
-19.42 16.36 -0.73 0.54 
-23.51 20.58 -0.90 0.82 
-23.40 21.29 -0.91 0.33 
-23.06 21.79 -0.91 0.81 
-41.33 40.55 -1.66 0.02 
-16.68 17.00 -0.68 0.76 
-39.72 42.04 -1.66 0.02 
-38.89 42.76 -1.66 0.02 
-38.05 43.46 -1.66 0.02 
-37.20 44.15 -1.66 0.02 
-36.34 44.82 -1.66 0.02 
-35.46 45.47 -1.65 0.02 
-34.58 46.11 -1.65 0.02 
-33.68 46.73 -1.65 0.02 
-32.77 47.33 -1.65 0.02 
-8.60 12.93 -0.45 0.50 
-8.22 12.89 -0.44 0.94 
-7.99 13.06 -0.44 0.94 
-29.04 49.57 -1.65 0.02 
-28.08 50.08 -1.65 0.02 
-27.11 50.58 -1.65 0.02 
-26.14 51.06 -1.65 0.02 
-25.15 51.52 -1.65 0.02 
-24.16 51.96 -1.64 0.02 
-8.40 18.99 -0.60 0.88 
-22.16 52.79 -1.64 0.02 
-21.15 53.17 -1.64 0.02 
-20.13 53.54 -1.64 0.02 
-19.10 53.89 -1.64 0.02 
-18.07 54.22 -1.64 0.02 
-17.03 54.52 -1.64 0.02 
-15.99 54.81 -1.64 0.02 
-14.95 55.08 -1.64 0.02 
-13.90 55.34 -1.64 0.02 
-12.84 55.57 -1.64 0.02 
-11.78 55.78 -1.64 0.02 
-10.72 55.97 -1.64 0.02 
-9.66 56.14 -1.63 0.02 
-8.59 56.30 -1.63 0.02 
-7.52 56.43 -1.63 0.02 
-6.45 56.54 -1.63 0.02 
-5.38 56.64 -1.63 0.02 
-4.30 56.71 -1.63 0.02 
-3.23 56.77 -1.63 0.02 
-2.15 56.80 -1.63 0.02 
-0.29 15.29 -0.44 0.84 
0.00 56.81 -1.63 0.02 
1.07 56.79 -1.63 0.02 
2.15 56.74 -1.63 0.02 
1.31 22.98 -0.66 0.32 
1.75 23.02 -0.66 0.52 
5.36 56.49 -1.63 0.02 
6.43 56.37 -1.63 0.02 
7.49 56.23 -1.63 0.02 
8.55 56.06 -1.63 0.02 
9.61 55.88 -1.63 0.02 
10.67 55.68 -1.63 0.02 
11.72 55.46 -1.63 0.02 
12.76 55.22 -1.63 0.02 
13.80 54.97 -1.63 0.02 
14.84 54.69 -1.63 0.02 
15.87 54.39 -1.63 0.02 
16.89 54.08 -1.63 0.02 
17.91 53.74 -1.63 0.02 
18.93 53.39 -1.63 0.02 
19.93 53.02 -1.63 0.02 
20.93 52.63 -1.63 0.02 
21.92 52.23 -1.63 0.02 
22.91 51.80 -1.63 0.02 
23.88 51.36 -1.63 0.02 
24.85 50.90 -1.63 0.02 
25.81 50.42 -1.63 0.02 
26.76 49.92 -1.63 0.02 
27.70 49.41 -1.63 0.02 
28.59 48.80 -1.62 0.02 
29.47 48.19 -1.62 0.02 
30.33 47.55 -1.62 0.02 
31.17 46.89 -1.62 0.02 
32.00 46.22 -1.61 0.02 
32.82 45.54 -1.61 0.02 
33.62 44.84 -1.61 0.02 
34.42 44.13 -1.61 0.02 
35.20 43.41 -1.60 0.02 
35.95 42.66 -1.60 0.02 
10.94 12.50 -0.48 0.42 
11.11 12.22 -0.47 0.93 
11.54 12.21 -0.48 0.49 
38.85 39.59 -1.59 0.02 
39.52 38.78 -1.59 0.02 
40.19 37.97 -1.59 0.02 
26.48 24.08 -1.03 0.65 
27.25 23.86 -1.04 0.28 
42.10 35.48 -1.58 0.02 
42.70 34.62 -1.58 0.02 
43.27 33.75 -1.57 0.02 
43.83 32.87 -1.57 0.02 
44.38 31.99 -1.57 0.02 
44.90 31.09 -1.57 0.02 
45.41 30.18 -1.56 0.02 
45.90 29.28 -1.56 0.02 
35.34 21.61 -1.19 0.06 
35.62 20.87 -1.18 0.34 
47.31 26.52 -1.56 0.02 
47.74 25.59 -1.55 0.02 
48.18 24.67 -1.55 0.02 
48.61 23.73 -1.55 0.02 
49.02 22.79 -1.55 0.02 
26.49 11.72 -0.83 0.15 
26.24 11.02 -0.82 0.42 
26.69 10.61 -0.82 0.23 
50.45 18.97 -1.55 0.02 
50.76 17.99 -1.55 0.02 
24.68 8.22 -0.75 0.62 
24.72 7.72 -0.74 0.87 
51.57 15.05 -1.54 0.02 
51.81 14.06 -1.54 0.02 
31.87 8.00 -0.94 0.81 
52.22 12.07 -1.54 0.02 
52.44 11.08 -1.54 0.02 
52.67 10.09 -1.54 0.02 
52.82 9.08 -1.54 0.02 
36.23 5.53 -1.05 0.57 
31.20 4.16 -0.90 0.59 
36.99 4.22 -1.07 0.65 
53.37 5.07 -1.54 0.02 
32.97 2.50 -0.95 0.72 
53.46 3.04 -1.54 0.02 
53.52 2.03 -1.54 0.02 
41.10 0.78 -1.18 0.69 
53.48 -0.00 -1.53 0.02 
53.46 -1.01 -1.53 0.02 
53.41 -2.02 -1.53 0.02 
53.33 -3.03 -1.53 0.02 
45.28 -3.43 -1.30 0.30 
40.05 -3.80 -1.15 0.83 
52.97 -6.04 -1.53 0.02 
52.82 -7.04 -1.53 0.02 
40.71 -6.21 -1.18 0.58 
48.04 -8.26 -1.40 0.68 
52.19 -10.00 -1.53 0.02 
51.95 -10.97 -1.52 0.02 
51.69 -11.94 -1.52 0.02 
43.57 -10.94 -1.29 0.58 
44.06 -11.96 -1.31 0.59 
44.94 -13.11 -1.34 0.79 
50.63 -15.82 -1.52 0.02 
50.35 -16.78 -1.52 0.02 
34.19 -12.12 -1.04 0.67 
33.55 -12.61 -1.03 0.86 
33.63 -13.38 -1.04 0.50 
34.27 -14.39 -1.07 0.50 
34.91 -15.44 -1.10 0.50 
41.05 -19.09 -1.30 0.62 
41.48 -20.25 -1.32 0.57 
48.48 -24.82 -1.56 0.61 
48.74 -26.13 -1.59 0.61 
48.97 -27.45 -1.61 0.62 
49.18 -28.81 -1.64 0.61 
49.40 -30.21 -1.66 0.60 
49.47 -31.55 -1.68 0.03 
49.05 -32.61 -1.69 0.02 
48.45 -33.55 -1.69 0.02 
47.84 -34.48 -1.69 0.02 
47.21 -35.41 -1.69 0.02 
25.63 -19.99 -0.93 0.84 
45.90 -37.21 -1.70 0.02 
45.21 -38.10 -1.70 0.02 
44.51 -38.97 -1.70 0.02 
43.79 -39.83 -1.70 0.02 
43.06 -40.68 -1.70 0.02 
42.31 -41.51 -1.70 0.02 
41.54 -42.33 -1.70 0.02 
40.75 -43.14 -1.70 0.02 
39.96 -43.93 -1.70 0.02 
30.41 -34.73 -1.32 0.71 
38.31 -45.46 -1.71 0.02 
37.47 -46.21 -1.71 0.02 
15.15 -19.43 -0.71 0.48 
14.54 -19.39 -0.70 0.91 
14.35 -19.91 -0.70 0.40 
33.94 -49.02 -1.71 0.02 
33.03 -49.68 -1.71 0.02 
32.10 -50.33 -1.71 0.02 
21.38 -34.97 -1.18 0.55 
30.20 -51.56 -1.71 0.02 
29.24 -52.15 -1.72 0.02 
28.26 -52.72 -1.72 0.02 
27.27 -53.28 -1.72 0.02 
26.27 -53.81 -1.72 0.02 
25.26 -54.33 -1.72 0.02 
24.24 -54.82 -1.72 0.02 
23.21 -55.30 -1.72 0.02 
22.17 -55.75 -1.72 0.02 
21.12 -56.19 -1.72 0.02 
20.07 -56.61 -1.72 0.02 
19.00 -57.00 -1.72 0.02 
11.41 -36.53 -1.10 0.73 
16.84 -57.73 -1.73 0.02 
15.75 -58.06 -1.73 0.02 
14.66 -58.38 -1.73 0.02 
11.80 -51.05 -1.50 0.81 
12.45 -58.94 -1.73 0.02 
9.85 -51.41 -1.50 0.81 
8.86 -51.52 -1.50 0.81 
6.33 -41.49 -1.20 0.84 
1.59 -11.93 -0.35 0.70 
0.93 -8.12 -0.23 0.91 
1.27 -13.38 -0.39 0.94 
4.24 -55.86 -1.61 0.80 
3.43 -60.31 -1.73 0.02 
2.29 -60.38 -1.73 0.02 
1.14 -60.43 -1.73 0.02 
-0.00 -53.91 -1.55 0.79 
-1.02 -54.03 -1.55 0.58 
-2.29 -60.45 -1.74 0.02 
-3.43 -60.41 -1.74 0.02 
-4.58 -60.35 -1.74 0.02 
-4.46 -47.03 -1.36 0.20 
-6.86 -60.16 -1.74 0.02 
-8.00 -60.03 -1.74 0.02 
-9.14 -59.88 -1.74 0.02 
-9.69 -56.31 -1.64 0.75 
-11.40 -59.51 -1.74 0.02 
-12.42 -58.77 -1.72 0.73 
-12.81 -55.41 -1.63 0.25 
-14.76 -58.79 -1.74 0.02 
-15.88 -58.51 -1.74 0.02 
-16.98 -58.21 -1.74 0.02 
-18.08 -57.88 -1.74 0.02 
-17.44 -52.32 -1.58 0.02 
-18.29 -51.61 -1.57 0.70 
-19.41 -51.63 -1.58 0.02 
-20.38 -51.25 -1.58 0.02 
-21.35 -50.86 -1.58 0.02 
-22.31 -50.44 -1.58 0.02 
-23.26 -50.01 -1.58 0.02 
-24.20 -49.56 -1.58 0.02 
-25.13 -49.10 -1.58 0.02 
-26.06 -48.61 -1.58 0.02 
-26.97 -48.11 -1.58 0.02 
-27.87 -47.58 -1.58 0.02 
-28.77 -47.04 -1.58 0.02 
-29.65 -46.49 -1.58 0.02 
-33.56 -50.49 -1.74 0.02 
-34.51 -49.84 -1.74 0.02 
-35.44 -49.17 -1.74 0.02 
-36.36 -48.49 -1.74 0.02 
-37.27 -47.78 -1.74 0.02 
-11.00 -13.56 -0.50 0.92 
-39.03 -46.32 -1.74 0.02 
-39.90 -45.57 -1.74 0.02 
-38.36 -42.17 -1.64 0.62 
-35.39 -37.46 -1.48 0.65 
-36.98 -37.69 -1.52 0.65 
-40.37 -39.62 -1.62 0.66 
-36.10 -34.10 -1.43 0.68 
-37.66 -34.26 -1.46 0.69 
-42.39 -37.12 -1.62 0.68 
-42.79 -36.06 -1.61 0.79 
-43.76 -35.48 -1.62 0.58 
-47.64 -37.15 -1.73 0.02 
-47.49 -35.62 -1.70 0.70 
-33.33 -24.03 -1.18 0.76 
-37.41 -25.90 -1.31 0.75 
-37.61 -25.00 -1.30 0.76 
-37.76 -24.08 -1.29 0.77 
-27.54 -16.84 -0.93 0.87 
-38.05 -22.29 -1.27 0.30 
-38.89 -21.80 -1.28 0.32 
-53.07 -28.45 -1.73 0.02 
-53.58 -27.43 -1.73 0.02 
-54.07 -26.40 -1.73 0.02 
-54.54 -25.36 -1.73 0.02 
-54.98 -24.31 -1.73 0.02 
-42.44 -17.82 -1.32 0.83 
-42.82 -17.03 -1.32 0.83 
-38.36 -14.42 -1.18 0.74 
-14.09 -4.99 -0.43 0.74 
-14.16 -4.72 -0.43 0.74 
-37.92 -11.85 -1.14 0.76 
-38.22 -11.15 -1.14 0.59 
-57.80 -15.68 -1.72 0.02 
-58.06 -14.58 -1.72 0.02 
-58.29 -13.47 -1.72 0.02 
-58.50 -12.36 -1.72 0.02 
-58.70 -11.24 -1.72 0.02 
-58.87 -10.12 -1.71 0.02 
-11.47 -1.75 -0.33 0.11 
-11.12 -1.48 -0.32 0.13 
-11.01 -1.26 -0.32 0.13 
-11.00 -1.04 -0.32 0.13 
-11.00 -0.83 -0.32 0.12 
-11.08 -0.63 -0.32 0.12 
-11.20 -0.42 -0.32 0.11 
-11.68 -0.22 -0.34 0.09 
-29.47 -0.00 -0.88 0.83 
-29.60 0.56 -0.89 0.56 
-56.91 2.15 -1.70 0.02 
-18.51 1.05 -0.55 0.35 
-18.47 1.40 -0.55 0.64 
-18.57 1.76 -0.56 0.44 
-48.67 5.55 -1.46 0.79 
-51.18 6.82 -1.54 0.02 
-51.01 7.78 -1.54 0.02 
-21.39 3.68 -0.65 0.24 
-20.24 3.88 -0.62 0.27 
-19.40 4.10 -0.59 0.39 
-19.07 4.41 -0.59 0.71 
-19.04 4.78 -0.59 0.66 
-19.11 5.18 -0.59 0.60 
-50.12 14.62 -1.56 0.02 
-49.99 15.62 -1.57 0.02 
-27.40 9.13 -0.86 0.83 
-27.02 9.58 -0.86 0.83 
-26.66 10.02 -0.85 0.84 
-26.28 10.45 -0.85 0.85 
-12.34 5.18 -0.40 0.40 
-11.89 5.26 -0.39 0.52 
-11.49 5.34 -0.38 0.43 
-11.09 5.42 -0.37 0.47 
-10.71 5.48 -0.36 0.43 
-10.40 5.58 -0.35 0.58 
-10.32 5.79 -0.35 0.27 
-10.31 6.04 -0.36 0.23 
-10.32 6.31 -0.36 0.21 
-10.37 6.62 -0.37 0.19 
-21.76 14.47 -0.78 0.88 
-21.67 15.01 -0.79 0.60 
-44.53 32.10 -1.64 0.02 
-21.62 16.21 -0.81 0.82 
-43.49 33.92 -1.65 0.02 
-42.93 34.81 -1.65 0.02 
-19.46 16.40 -0.76 0.25 
-23.51 20.58 -0.93 0.82 
-23.40 21.29 -0.95 0.33 
-23.15 21.87 -0.95 0.81 
-39.69 38.95 -1.66 0.02 
-16.69 17.01 -0.71 0.64 
-38.15 40.38 -1.66 0.02 
-37.36 41.07 -1.66 0.02 
-36.55 41.74 -1.66 0.02 
-35.73 42.41 -1.66 0.02 
-34.91 43.05 -1.66 0.02 
-34.07 43.68 -1.66 0.02 
-33.22 44.29 -1.66 0.02 
-32.35 44.89 -1.65 0.02 
-31.48 45.47 -1.65 0.02 
-8.59 12.93 -0.46 0.50 
-8.22 12.89 -0.46 0.94 
-7.99 13.06 -0.46 0.94 
-27.90 47.62 -1.65 0.02 
-26.98 48.12 -1.65 0.02 
-26.05 48.60 -1.65 0.02 
-25.11 49.06 -1.65 0.02 
-24.17 49.50 -1.65 0.02 
-23.22 49.92 -1.65 0.02 
-8.40 18.99 -0.62 0.87 
-21.29 50.72 -1.64 0.02 
-20.32 51.09 -1.64 0.02 
-19.34 51.45 -1.64 0.02 
-18.35 51.78 -1.64 0.02 
-17.36 52.10 -1.64 0.02 
-16.37 52.39 -1.64 0.02 
-15.37 52.67 -1.64 0.02 
-14.36 52.93 -1.64 0.02 
-13.35 53.18 -1.64 0.02 
-12.34 53.40 -1.64 0.02 
-11.32 53.60 -1.64 0.02 
-10.30 53.79 -1.64 0.02 
-9.28 53.96 -1.64 0.02 
-8.25 54.10 -1.64 0.02 
-7.23 54.23 -1.64 0.02 
-6.20 54.34 -1.64 0.02 
-5.17 54.43 -1.63 0.02 
-4.13 54.51 -1.63 0.02 
-3.10 54.56 -1.63 0.02 
-2.07 54.59 -1.63 0.02 
-0.29 15.29 -0.46 0.81 
0.00 54.60 -1.63 0.02 
1.03 54.58 -1.63 0.02 
0.90 23.78 -0.71 0.64 
1.31 22.98 -0.69 0.40 
1.76 23.17 -0.69 0.29 
5.15 54.30 -1.63 0.02 
6.18 54.18 -1.63 0.02 
7.20 54.04 -1.63 0.02 
8.22 53.89 -1.63 0.02 
9.24 53.71 -1.63 0.02 
10.25 53.52 -1.63 0.02 
11.26 53.31 -1.63 0.02 
12.27 53.08 -1.63 0.02 
13.27 52.83 -1.63 0.02 
14.26 52.57 -1.63 0.02 
15.25 52.28 -1.63 0.02 
16.24 51.98 -1.63 0.02 
17.22 51.66 -1.63 0.02 
18.19 51.32 -1.63 0.02 
19.16 50.97 -1.63 0.02 
20.12 50.59 -1.63 0.02 
21.07 50.20 -1.63 0.02 
22.02 49.79 -1.63 0.02 
22.96 49.37 -1.63 0.02 
23.89 48.93 -1.63 0.02 
24.79 48.42 -1.63 0.02 
25.66 47.87 -1.62 0.02 
26.52 47.31 -1.62 0.02 
27.37 46.73 -1.62 0.02 
28.21 46.13 -1.62 0.02 
29.03 45.52 -1.61 0.02 
29.86 44.91 -1.61 0.02 
30.66 44.27 -1.61 0.02 
31.44 43.62 -1.61 0.02 
32.21 42.95 -1.61 0.02 
32.97 42.27 -1.60 0.02 
33.71 41.57 -1.60 0.02 
34.45 40.88 -1.60 0.02 
10.94 12.50 -0.50 0.42 
11.11 12.22 -0.49 0.93 
11.54 12.21 -0.50 0.49 
37.21 37.92 -1.59 0.02 
37.87 37.16 -1.59 0.02 
38.53 36.40 -1.58 0.02 
26.50 24.10 -1.07 0.65 
39.75 34.81 -1.58 0.02 
40.34 33.99 -1.58 0.02 
40.91 33.17 -1.57 0.02 
41.50 32.37 -1.57 0.02 
42.04 31.53 -1.57 0.02 
42.57 30.68 -1.57 0.02 
43.07 29.82 -1.57 0.02 
43.56 28.96 -1.56 0.02 
21.94 14.00 -0.78 0.42 
22.41 13.70 -0.79 0.89 
22.37 13.11 -0.78 0.50 
45.39 25.45 -1.56 0.02 
45.80 24.55 -1.55 0.02 
46.18 23.64 -1.55 0.02 
46.56 22.73 -1.55 0.02 
46.95 21.83 -1.55 0.02 
47.32 20.92 -1.55 0.02 
26.28 11.03 -0.85 0.82 
26.73 10.63 -0.86 0.46 
48.33 18.17 -1.54 0.02 
48.63 17.24 -1.54 0.02 
24.67 8.22 -0.78 0.62 
24.72 7.72 -0.77 0.87 
49.41 14.42 -1.54 0.02 
49.63 13.47 -1.54 0.02 
31.88 8.01 -0.98 0.80 
50.02 11.56 -1.53 0.02 
50.20 10.60 -1.53 0.02 
50.37 9.65 -1.53 0.02 
50.57 8.70 -1.53 0.02 
36.23 5.53 -1.10 0.57 
31.22 4.16 -0.94 0.38 
37.02 4.22 -1.11 0.65 
51.05 4.85 -1.53 0.02 
32.96 2.50 -0.99 0.72 
51.16 2.91 -1.53 0.02 
51.17 1.94 -1.53 0.02 
41.17 0.78 -1.23 0.45 
51.18 -0.00 -1.53 0.02 
51.13 -0.97 -1.53 0.02 
51.07 -1.93 -1.53 0.02 
51.01 -2.90 -1.53 0.02 
45.22 -3.43 -1.36 0.70 
40.05 -3.80 -1.20 0.83 
50.66 -5.78 -1.52 0.02 
50.50 -6.73 -1.52 0.02 
40.70 -6.21 -1.23 0.58 
48.05 -8.26 -1.46 0.55 
49.91 -9.56 -1.52 0.02 
49.68 -10.49 -1.52 0.02 
49.50 -11.44 -1.52 0.02 
43.57 -10.94 -1.34 0.58 
44.06 -11.96 -1.36 0.59 
44.94 -13.11 -1.40 0.79 
48.61 -15.19 -1.52 0.02 
48.35 -16.11 -1.52 0.02 
34.19 -12.12 -1.08 0.67 
33.55 -12.61 -1.07 0.86 
33.64 -13.38 -1.08 0.49 
34.27 -14.38 -1.11 0.50 
34.90 -15.43 -1.14 0.50 
41.06 -19.09 -1.35 0.62 
41.48 -20.25 -1.38 0.57 
48.46 -24.81 -1.63 0.61 
48.73 -26.12 -1.65 0.61 
48.95 -27.45 -1.68 0.62 
48.68 -28.52 -1.69 0.03 
48.17 -29.45 -1.69 0.02 
47.63 -30.38 -1.69 0.02 
47.08 -31.29 -1.69 0.02 
46.50 -32.20 -1.69 0.02 
45.91 -33.09 -1.69 0.02 
45.31 -33.98 -1.69 0.02 
25.63 -19.99 -0.97 0.84 
44.04 -35.71 -1.70 0.02 
43.39 -36.56 -1.70 0.02 
42.71 -37.40 -1.70 0.02 
42.02 -38.22 -1.70 0.02 
41.32 -39.03 -1.70 0.02 
40.59 -39.83 -1.70 0.02 
39.86 -40.62 -1.70 0.02 
39.10 -41.39 -1.70 0.02 
38.34 -42.15 -1.70 0.02 
30.40 -34.72 -1.38 0.71 
36.76 -43.62 -1.71 0.02 
35.94 -44.33 -1.71 0.02 
15.15 -19.43 -0.74 0.48 
14.54 -19.38 -0.72 0.91 
14.35 -19.91 -0.73 0.40 
29.61 -42.76 -1.55 0.02 
28.81 -43.34 -1.56 0.02 
28.00 -43.90 -1.56 0.02 
21.38 -34.96 -1.23 0.55 
26.35 -44.97 -1.56 0.02 
25.50 -45.49 -1.56 0.02 
27.11 -50.57 -1.72 0.02 
26.16 -51.10 -1.72 0.02 
25.20 -51.61 -1.72 0.02 
24.23 -52.10 -1.72 0.02 
23.25 -52.58 -1.72 0.02 
22.26 -53.03 -1.72 0.02 
21.26 -53.47 -1.72 0.02 
20.26 -53.89 -1.72 0.02 
19.24 -54.29 -1.72 0.02 
18.22 -54.66 -1.72 0.02 
11.41 -36.53 -1.14 0.76 
16.15 -55.36 -1.72 0.02 
15.11 -55.68 -1.72 0.02 
14.06 -55.98 -1.73 0.02 
12.21 -52.86 -1.62 0.80 
11.94 -56.51 -1.73 0.02 
10.87 -56.75 -1.73 0.02 
8.86 -51.52 -1.56 0.81 
6.33 -41.49 -1.25 0.84 
1.59 -11.93 -0.36 0.48 
0.93 -8.12 -0.24 0.91 
1.27 -13.38 -0.40 0.94 
4.38 -57.74 -1.73 0.02 
3.29 -57.83 -1.73 0.02 
2.19 -57.89 -1.73 0.02 
1.10 -57.94 -1.73 0.02 
-0.00 -57.97 -1.73 0.02 
-1.10 -57.97 -1.73 0.02 
-2.19 -57.96 -1.73 0.02 
-3.29 -57.92 -1.73 0.02 
-4.39 -57.86 -1.73 0.02 
-5.48 -57.78 -1.74 0.02 
-6.58 -57.67 -1.74 0.02 
-7.67 -57.55 -1.74 0.02 
-8.76 -57.41 -1.74 0.02 
-9.71 -56.45 -1.71 0.13 
-10.93 -57.05 -1.74 0.02 
-12.01 -56.84 -1.74 0.02 
-11.90 -51.48 -1.58 0.02 
-12.87 -51.25 -1.58 0.02 
-13.84 -51.01 -1.58 0.02 
-14.80 -50.74 -1.58 0.02 
-15.76 -50.46 -1.58 0.02 
-16.72 -50.15 -1.58 0.02 
-17.66 -49.83 -1.58 0.02 
-18.60 -49.49 -1.58 0.02 
-19.54 -49.13 -1.58 0.02 
-20.46 -48.75 -1.58 0.02 
-21.38 -48.36 -1.58 0.02 
-22.30 -47.94 -1.58 0.02 
-23.20 -47.51 -1.58 0.02 
-24.09 -47.06 -1.58 0.02 
-24.98 -46.60 -1.58 0.02 
-25.85 -46.11 -1.58 0.02 
-26.72 -45.61 -1.58 0.02 
-27.58 -45.10 -1.58 0.02 
-28.42 -44.56 -1.58 0.02 
-29.26 -44.01 -1.58 0.02 
-30.08 -43.45 -1.58 0.02 
-33.98 -47.14 -1.74 0.02 
-34.86 -46.48 -1.74 0.02 
-35.73 -45.81 -1.74 0.02 
-11.00 -13.57 -0.52 0.92 
-37.42 -44.41 -1.74 0.02 
-38.25 -43.68 -1.74 0.02 
-38.36 -42.17 -1.70 0.62 
-35.39 -37.46 -1.54 0.65 
-37.02 -37.72 -1.58 0.38 
-40.37 -39.61 -1.69 0.66 
-36.10 -34.10 -1.48 0.68 
-37.66 -34.26 -1.52 0.69 
-42.38 -37.11 -1.68 0.68 
-42.78 -36.05 -1.67 0.79 
-43.75 -35.47 -1.68 0.58 
-45.67 -35.62 -1.73 0.02 
-46.33 -34.74 -1.73 0.02 
-33.33 -24.02 -1.23 0.76 
-37.41 -25.90 -1.36 0.75 
-37.61 -25.00 -1.35 0.76 
-37.76 -24.09 -1.34 0.77 
-27.54 -16.84 -0.96 0.87 
-38.03 -22.28 -1.32 0.30 
-38.91 -21.81 -1.33 0.32 
-50.89 -27.28 -1.73 0.02 
-46.96 -24.04 -1.58 0.02 
-47.38 -23.13 -1.58 0.02 
-47.79 -22.23 -1.58 0.02 
-48.18 -21.31 -1.58 0.02 
-42.44 -17.82 -1.38 0.83 
-42.82 -17.03 -1.38 0.83 
-38.36 -14.42 -1.23 0.74 
-14.08 -4.99 -0.45 0.79 
-14.14 -4.71 -0.45 0.76 
-37.92 -11.85 -1.19 0.76 
-38.21 -11.15 -1.19 0.59 
-55.44 -15.04 -1.72 0.02 
-55.68 -13.98 -1.72 0.02 
-55.91 -12.92 -1.72 0.02 
-56.12 -11.85 -1.71 0.02 
-56.30 -10.78 -1.71 0.02 
-56.47 -9.71 -1.71 0.02 
-11.35 -1.73 -0.34 0.11 
-11.02 -1.47 -0.33 0.13 
-10.92 -1.24 -0.33 0.13 
-10.90 -1.03 -0.33 0.13 
-10.91 -0.83 -0.33 0.27 
-10.98 -0.62 -0.33 0.12 
-11.08 -0.42 -0.33 0.11 
-11.41 -0.22 -0.34 0.10 
-29.45 -0.00 -0.92 0.79 
-29.59 0.56 -0.92 0.56 
-54.69 2.07 -1.70 0.02 
-18.49 1.05 -0.58 0.58 
-18.44 1.40 -0.58 0.64 
-18.53 1.76 -0.58 0.42 
-48.67 5.55 -1.52 0.79 
-49.19 6.55 -1.54 0.03 
-49.03 7.48 -1.54 0.03 
-21.34 3.67 -0.67 0.25 
-20.19 3.87 -0.64 0.27 
-19.37 4.09 -0.62 0.39 
-19.05 4.40 -0.61 0.71 
-19.02 4.78 -0.61 0.67 
-19.08 5.18 -0.61 0.60 
-48.00 14.00 -1.55 0.02 
-47.87 14.95 -1.56 0.02 
-27.40 9.13 -0.90 0.83 
-27.02 9.58 -0.89 0.83 
-26.66 10.02 -0.89 0.84 
-26.28 10.45 -0.88 0.85 
-12.32 5.17 -0.42 0.40 
-11.88 5.25 -0.40 0.53 
-11.47 5.34 -0.39 0.43 
-11.08 5.41 -0.38 0.47 
-10.69 5.47 -0.37 0.55 
-10.39 5.57 -0.37 0.58 
-10.28 5.76 -0.37 0.27 
-10.26 6.01 -0.37 0.25 
-10.26 6.28 -0.37 0.24 
-10.31 6.58 -0.38 0.19 
-21.78 14.48 -0.81 0.42 
-21.72 15.04 -0.82 0.28 
-42.56 30.67 -1.63 0.02 
-21.61 16.21 -0.84 0.82 
-41.55 32.41 -1.64 0.02 
-41.02 33.26 -1.64 0.02 
-19.49 16.43 -0.79 0.73 
-23.60 20.66 -0.98 0.82 
-23.40 21.29 -0.98 0.33 
-23.15 21.87 -0.99 0.81 
-38.07 37.36 -1.66 0.02 
-16.72 17.04 -0.74 0.42 
-36.70 38.84 -1.66 0.03 
-35.94 39.51 -1.66 0.03 
-35.16 40.16 -1.66 0.03 
-34.38 40.80 -1.66 0.03 
-33.58 41.42 -1.66 0.03 
-32.77 42.02 -1.66 0.03 
-31.96 42.61 -1.66 0.03 
-31.13 43.19 -1.66 0.03 
-30.29 43.75 -1.65 0.03 
-8.59 12.93 -0.48 0.50 
-8.22 12.89 -0.48 0.94 
-7.99 13.06 -0.48 0.94 
-26.84 45.82 -1.65 0.03 
-25.96 46.30 -1.65 0.03 
-25.07 46.76 -1.65 0.03 
-24.16 47.20 -1.65 0.03 
-23.26 47.63 -1.65 0.03 
-22.34 48.04 -1.65 0.03 
-8.40 18.99 -0.65 0.67 
-20.49 48.81 -1.65 0.03 
-19.55 49.17 -1.65 0.03 
-18.61 49.51 -1.64 0.03 
-17.66 49.83 -1.64 0.03 
-16.71 50.14 -1.64 0.03 
-15.75 50.42 -1.64 0.03 
-14.79 50.69 -1.64 0.03 
-13.82 50.95 -1.64 0.03 
-12.85 51.18 -1.64 0.03 
-11.88 51.39 -1.64 0.03 
-10.90 51.59 -1.64 0.03 
-9.92 51.77 -1.64 0.03 
-8.93 51.93 -1.64 0.03 
-7.95 52.08 -1.64 0.03 
-6.96 52.20 -1.64 0.03 
-5.97 52.31 -1.64 0.03 
-4.97 52.39 -1.64 0.03 
-3.98 52.46 -1.64 0.03 
-2.98 52.52 -1.64 0.03 
-1.99 52.55 -1.63 0.03 
-0.29 15.30 -0.48 0.78 
0.00 52.56 -1.63 0.03 
0.99 52.54 -1.63 0.03 
0.86 22.77 -0.71 0.64 
1.28 22.57 -0.70 0.88 
1.72 22.64 -0.71 0.88 
4.96 52.27 -1.63 0.03 
5.95 52.16 -1.63 0.03 
6.93 52.02 -1.63 0.03 
7.91 51.88 -1.63 0.03 
8.89 51.71 -1.63 0.03 
9.87 51.52 -1.63 0.03 
10.84 51.32 -1.63 0.03 
11.81 51.10 -1.63 0.03 
12.77 50.86 -1.63 0.03 
13.73 50.61 -1.63 0.03 
14.69 50.33 -1.63 0.03 
15.63 50.04 -1.63 0.03 
16.58 49.73 -1.63 0.03 
17.51 49.41 -1.63 0.03 
18.45 49.07 -1.63 0.03 
19.37 48.71 -1.63 0.03 
20.29 48.33 -1.63 0.03 
21.18 47.90 -1.63 0.02 
22.05 47.42 -1.63 0.02 
22.91 46.93 -1.62 0.02 
23.77 46.42 -1.62 0.02 
24.61 45.90 -1.62 0.02 
25.44 45.37 -1.62 0.02 
26.25 44.82 -1.61 0.02 
27.06 44.25 -1.61 0.02 
27.85 43.66 -1.61 0.02 
28.63 43.06 -1.61 0.02 
29.39 42.45 -1.61 0.02 
30.17 41.86 -1.60 0.02 
30.91 41.22 -1.60 0.02 
31.64 40.57 -1.60 0.02 
32.35 39.90 -1.60 0.02 
33.05 39.22 -1.59 0.02 
10.94 12.50 -0.52 0.42 
11.12 12.22 -0.51 0.93 
11.54 12.21 -0.52 0.49 
35.73 36.41 -1.59 0.02 
36.36 35.67 -1.58 0.02 
36.97 34.93 -1.58 0.02 
26.52 24.12 -1.11 0.65 
38.18 33.43 -1.58 0.02 
38.75 32.65 -1.58 0.02 
39.30 31.86 -1.57 0.02 
39.83 31.07 -1.57 0.02 
40.35 30.26 -1.57 0.02 
40.89 29.47 -1.57 0.02 
41.38 28.65 -1.57 0.03 
41.86 27.82 -1.56 0.03 
21.24 13.55 -0.78 0.80 
21.37 13.06 -0.78 0.90 
21.79 12.76 -0.79 0.75 
43.58 24.43 -1.55 0.03 
43.96 23.57 -1.55 0.03 
44.37 22.71 -1.55 0.02 
44.75 21.85 -1.55 0.03 
45.09 20.97 -1.55 0.03 
45.41 20.08 -1.54 0.03 
26.29 11.04 -0.89 0.82 
26.76 10.64 -0.90 0.46 
46.37 17.43 -1.54 0.02 
46.66 16.54 -1.54 0.02 
24.67 8.22 -0.81 0.62 
24.72 7.72 -0.81 0.87 
47.42 13.83 -1.54 0.02 
47.63 12.92 -1.53 0.02 
31.91 8.01 -1.02 0.72 
48.01 11.09 -1.53 0.02 
48.17 10.18 -1.53 0.02 
26.72 5.12 -0.85 0.59 
48.46 8.34 -1.53 0.02 
36.23 5.53 -1.14 0.57 
31.23 4.16 -0.98 0.84 
37.05 4.23 -1.16 0.65 
48.94 4.64 -1.53 0.02 
32.95 2.50 -1.03 0.72 
49.06 2.79 -1.53 0.02 
49.07 1.86 -1.53 0.02 
41.24 0.78 -1.28 0.45 
49.06 -0.00 -1.53 0.02 
49.02 -0.93 -1.52 0.02 
48.96 -1.85 -1.52 0.02 
48.88 -2.78 -1.52 0.02 
45.21 -3.43 -1.41 0.83 
40.05 -3.80 -1.25 0.83 
48.55 -5.54 -1.52 0.02 
48.40 -6.45 -1.52 0.02 
40.70 -6.21 -1.28 0.58 
48.07 -8.27 -1.52 0.03 
47.93 -9.18 -1.52 0.03 
47.78 -10.09 -1.52 0.03 
47.61 -11.00 -1.52 0.03 
43.56 -10.94 -1.40 0.55 
44.03 -11.95 -1.42 0.57 
44.94 -13.11 -1.46 0.79 
46.75 -14.60 -1.52 0.03 
46.49 -15.50 -1.52 0.03 
34.20 -12.12 -1.13 0.57 
33.55 -12.61 -1.11 0.86 
33.64 -13.38 -1.13 0.49 
34.26 -14.38 -1.16 0.50 
34.89 -15.43 -1.19 0.44 
41.06 -19.09 -1.41 0.62 
41.48 -20.25 -1.44 0.57 
48.12 -24.63 -1.68 0.04 
47.75 -25.60 -1.68 0.02 
47.29 -26.51 -1.69 0.02 
46.81 -27.42 -1.69 0.02 
46.31 -28.32 -1.69 0.02 
45.79 -29.20 -1.69 0.02 
45.26 -30.08 -1.69 0.02 
44.70 -30.95 -1.69 0.02 
44.14 -31.81 -1.69 0.02 
43.55 -32.66 -1.69 0.02 
25.63 -19.99 -1.01 0.84 
42.33 -34.33 -1.69 0.02 
41.70 -35.14 -1.70 0.02 
41.05 -35.95 -1.70 0.02 
40.39 -36.74 -1.70 0.02 
39.71 -37.52 -1.70 0.02 
39.01 -38.28 -1.70 0.02 
38.30 -39.04 -1.70 0.02 
37.58 -39.78 -1.70 0.02 
36.84 -40.50 -1.70 0.02 
30.40 -34.72 -1.43 0.71 
35.32 -41.92 -1.70 0.02 
34.54 -42.60 -1.71 0.02 
15.15 -19.42 -0.77 0.48 
14.54 -19.38 -0.75 0.91 
14.35 -19.91 -0.76 0.40 
28.45 -41.09 -1.55 0.03 
27.68 -41.64 -1.55 0.03 
26.90 -42.18 -1.56 0.02 
21.38 -34.96 -1.27 0.55 
25.31 -43.21 -1.56 0.02 
24.50 -43.70 -1.56 0.02 
23.68 -44.18 -1.56 0.02 
22.85 -44.64 -1.56 0.02 
22.02 -45.09 -1.56 0.02 
21.17 -45.52 -1.56 0.02 
20.31 -45.93 -1.56 0.02 
19.45 -46.33 -1.56 0.02 
18.58 -46.71 -1.56 0.02 
19.46 -51.77 -1.72 0.02 
18.49 -52.15 -1.72 0.02 
17.50 -52.51 -1.72 0.02 
11.41 -36.54 -1.19 0.76 
15.52 -53.18 -1.72 0.02 
14.51 -53.48 -1.72 0.02 
13.50 -53.77 -1.72 0.02 
12.49 -54.04 -1.72 0.02 
11.47 -54.28 -1.73 0.02 
