VERSION 0.7
FIELDS x y z intensity
SIZE 4 4 4 8
TYPE F F F F
COUNT 1 1 1 1
WIDTH 2018
HEIGHT 1
VIEWPOINT 0.0 0.0 0.0 1.0 0.0 0.0 0.0
POINTS 2018
DATA ascii
-10.49 -7.56 -1.69 0.12 
-10.63 -7.36 -1.69 0.12 
-10.77 -7.16 -1.69 0.12 
-10.90 -6.95 -1.69 0.12 
-11.03 -6.74 -1.69 0.12 
-11.15 -6.53 -1.69 0.12 
-11.27 -6.32 -1.69 0.12 
-11.39 -6.10 -1.69 0.12 
-11.50 -5.89 -1.69 0.12 
-11.61 -5.67 -1.69 0.12 
-11.71 -5.45 -1.69 0.12 
-11.81 -5.22 -1.69 0.12 
-11.90 -5.00 -1.69 0.12 
-11.99 -4.77 -1.69 0.12 
-12.08 -4.54 -1.69 0.12 
-12.16 -4.31 -1.69 0.12 
-12.24 -4.08 -1.69 0.12 
-12.31 -3.85 -1.69 0.12 
-12.38 -3.61 -1.69 0.12 
-12.44 -3.38 -1.69 0.12 
-12.50 -3.14 -1.69 0.12 
-12.56 -2.90 -1.69 0.12 
-12.61 -2.66 -1.69 0.12 
-12.65 -2.42 -1.69 0.12 
-12.70 -2.18 -1.69 0.12 
-10.51 -1.60 -1.39 0.91 
-10.52 -1.40 -1.39 0.91 
-12.79 -1.46 -1.69 0.12 
-12.82 -1.22 -1.69 0.12 
-12.83 -0.97 -1.69 0.12 
-12.85 -0.73 -1.69 0.12 
-12.86 -0.49 -1.69 0.12 
-12.86 -0.24 -1.69 0.12 
-12.74 -0.00 -1.69 0.12 
-10.66 0.20 -1.41 0.72 
-10.68 0.40 -1.41 0.72 
-12.71 0.72 -1.68 0.12 
-12.69 0.96 -1.68 0.12 
-12.67 1.20 -1.68 0.12 
-12.64 1.44 -1.68 0.12 
-12.61 1.68 -1.68 0.12 
-12.58 1.92 -1.68 0.12 
-12.53 2.16 -1.68 0.12 
-11.59 2.22 -1.56 0.68 
-10.88 2.30 -1.47 0.36 
-10.45 2.42 -1.42 0.57 
-10.05 2.52 -1.37 0.91 
-10.08 2.73 -1.38 0.94 
-10.09 2.94 -1.39 0.89 
-10.11 3.16 -1.40 0.84 
-10.11 3.37 -1.41 0.88 
-11.97 4.24 -1.68 0.12 
-11.88 4.47 -1.68 0.12 
-11.79 4.69 -1.68 0.12 
-11.70 4.91 -1.68 0.12 
-11.60 5.13 -1.68 0.12 
-11.50 5.35 -1.68 0.12 
-11.39 5.56 -1.68 0.12 
-11.28 5.78 -1.68 0.12 
-11.17 5.99 -1.68 0.12 
-11.05 6.20 -1.68 0.12 
-10.93 6.40 -1.68 0.12 
-10.81 6.61 -1.68 0.13 
-10.68 6.81 -1.68 0.13 
-10.55 7.01 -1.67 0.13 
-10.41 7.21 -1.67 0.13 
-10.27 7.40 -1.67 0.13 
-10.12 7.59 -1.67 0.13 
-9.98 7.78 -1.67 0.13 
-6.99 5.67 -1.19 0.66 
-6.75 5.69 -1.17 0.67 
-6.52 5.71 -1.15 0.68 
-6.32 5.75 -1.13 0.68 
-6.10 5.76 -1.11 0.73 
-5.89 5.78 -1.09 0.74 
-5.69 5.80 -1.08 0.75 
-5.50 5.83 -1.06 0.77 
-5.32 5.85 -1.05 0.79 
-5.14 5.87 -1.03 0.80 
-4.96 5.89 -1.02 0.81 
-4.79 5.91 -1.01 0.80 
-4.62 5.92 -0.99 0.81 
-4.46 5.94 -0.98 0.82 
-4.29 5.96 -0.97 0.83 
-4.13 5.97 -0.96 0.84 
-3.97 5.97 -0.95 0.77 
-3.80 5.96 -0.94 0.78 
-3.63 5.93 -0.92 0.86 
-3.48 5.94 -0.91 0.87 
-3.34 5.95 -0.90 0.87 
-3.20 5.97 -0.90 0.93 
-3.07 6.00 -0.89 0.93 
-2.95 6.04 -0.89 0.94 
-2.85 6.13 -0.89 0.93 
-2.75 6.22 -0.90 0.92 
-2.67 6.37 -0.91 0.69 
-2.61 6.57 -0.94 0.46 
-2.60 6.91 -0.98 0.31 
-3.97 11.21 -1.57 0.92 
-3.74 11.23 -1.57 0.92 
-3.51 11.24 -1.56 0.93 
-3.29 11.26 -1.55 0.93 
-3.06 11.28 -1.55 0.94 
-2.84 11.30 -1.54 0.94 
-2.61 11.31 -1.54 0.94 
-2.39 11.32 -1.53 0.94 
-2.17 11.34 -1.53 0.94 
-1.95 11.35 -1.52 0.95 
-1.73 11.36 -1.52 0.76 
-1.52 11.37 -1.52 0.76 
-1.30 11.38 -1.52 0.76 
-1.08 11.39 -1.51 0.76 
-0.87 11.41 -1.51 0.13 
-0.65 11.42 -1.51 0.13 
-0.43 11.43 -1.51 0.13 
-0.22 11.44 -1.51 0.13 
0.00 11.44 -1.51 0.13 
0.22 11.44 -1.51 0.13 
0.43 11.43 -1.51 0.13 
0.65 11.42 -1.51 0.76 
0.87 11.42 -1.51 0.76 
1.08 11.42 -1.52 0.76 
1.30 11.41 -1.52 0.76 
1.52 11.41 -1.52 0.95 
1.74 11.40 -1.53 0.94 
1.96 11.40 -1.53 0.94 
2.18 11.39 -1.53 0.94 
2.40 11.38 -1.54 0.94 
2.63 11.37 -1.54 0.94 
2.85 11.37 -1.55 0.93 
3.08 11.36 -1.56 0.93 
3.31 11.35 -1.56 0.92 
3.54 11.33 -1.57 0.92 
3.77 11.32 -1.58 0.92 
4.01 11.30 -1.59 0.91 
4.24 11.29 -1.59 0.91 
4.48 11.27 -1.60 0.90 
4.72 11.25 -1.61 0.90 
4.97 11.23 -1.62 0.90 
5.21 11.21 -1.63 0.89 
5.46 11.19 -1.65 0.89 
5.71 11.15 -1.66 0.14 
5.92 11.05 -1.66 0.14 
6.14 10.94 -1.66 0.14 
6.35 10.84 -1.66 0.14 
6.56 10.72 -1.66 0.14 
6.77 10.61 -1.66 0.14 
6.97 10.48 -1.66 0.13 
7.16 10.35 -1.66 0.13 
7.36 10.21 -1.66 0.13 
7.55 10.07 -1.66 0.13 
7.74 9.93 -1.66 0.13 
7.93 9.78 -1.66 0.13 
8.11 9.63 -1.67 0.13 
8.29 9.47 -1.67 0.13 
8.47 9.32 -1.67 0.13 
8.65 9.15 -1.67 0.13 
8.82 8.99 -1.67 0.13 
8.99 8.82 -1.67 0.13 
9.16 8.65 -1.67 0.13 
9.32 8.48 -1.67 0.13 
9.48 8.30 -1.67 0.13 
9.64 8.12 -1.67 0.13 
9.79 7.94 -1.67 0.13 
9.94 7.75 -1.67 0.13 
10.09 7.56 -1.67 0.13 
10.23 7.37 -1.67 0.13 
10.37 7.18 -1.67 0.13 
10.50 6.98 -1.67 0.13 
10.63 6.78 -1.67 0.13 
10.76 6.58 -1.67 0.13 
10.89 6.38 -1.67 0.13 
11.01 6.17 -1.67 0.13 
11.12 5.96 -1.67 0.13 
11.24 5.75 -1.67 0.13 
11.35 5.54 -1.67 0.13 
11.45 5.32 -1.67 0.13 
11.55 5.11 -1.67 0.13 
11.65 4.89 -1.67 0.13 
11.74 4.67 -1.67 0.13 
11.83 4.45 -1.67 0.13 
11.91 4.22 -1.67 0.13 
11.99 4.00 -1.67 0.13 
12.07 3.77 -1.67 0.13 
12.14 3.54 -1.67 0.13 
12.20 3.31 -1.67 0.13 
12.27 3.08 -1.67 0.13 
12.33 2.85 -1.67 0.13 
12.38 2.62 -1.67 0.13 
12.43 2.38 -1.67 0.13 
12.47 2.15 -1.67 0.13 
12.52 1.91 -1.67 0.13 
12.55 1.67 -1.67 0.13 
12.58 1.43 -1.68 0.13 
12.61 1.20 -1.68 0.13 
12.63 0.96 -1.68 0.12 
12.65 0.72 -1.68 0.12 
12.67 0.48 -1.68 0.12 
12.67 0.24 -1.68 0.12 
12.68 0.00 -1.68 0.12 
12.68 -0.24 -1.68 0.12 
12.68 -0.48 -1.68 0.12 
12.67 -0.72 -1.68 0.12 
12.65 -0.96 -1.68 0.12 
12.64 -1.20 -1.68 0.12 
12.61 -1.44 -1.68 0.12 
12.59 -1.68 -1.68 0.12 
12.55 -1.92 -1.68 0.12 
12.52 -2.15 -1.68 0.12 
12.48 -2.39 -1.68 0.12 
12.43 -2.63 -1.68 0.12 
12.38 -2.86 -1.68 0.12 
12.33 -3.10 -1.68 0.12 
12.27 -3.33 -1.68 0.12 
12.21 -3.56 -1.68 0.12 
12.14 -3.79 -1.68 0.12 
12.07 -4.02 -1.68 0.12 
11.99 -4.25 -1.68 0.12 
11.91 -4.48 -1.68 0.12 
11.83 -4.70 -1.68 0.12 
11.74 -4.93 -1.68 0.12 
11.65 -5.15 -1.68 0.12 
11.55 -5.37 -1.68 0.12 
11.45 -5.59 -1.69 0.12 
6.53 -3.34 -0.97 0.28 
6.17 -3.31 -0.93 0.37 
5.87 -3.29 -0.89 0.44 
5.59 -3.27 -0.86 0.48 
5.35 -3.27 -0.83 0.57 
5.16 -3.29 -0.81 0.61 
4.99 -3.32 -0.79 0.85 
4.90 -3.39 -0.79 0.94 
4.84 -3.49 -0.79 0.87 
4.80 -3.60 -0.79 0.80 
4.76 -3.71 -0.80 0.83 
4.75 -3.85 -0.81 0.65 
4.75 -4.00 -0.82 0.60 
9.59 -8.40 -1.69 0.13 
9.41 -8.56 -1.68 0.13 
8.96 -8.47 -1.63 0.48 
8.54 -8.38 -1.58 0.53 
8.16 -8.31 -1.54 0.46 
7.98 -8.45 -1.54 0.12 
7.82 -8.60 -1.54 0.12 
7.66 -8.75 -1.54 0.12 
7.50 -8.90 -1.54 0.12 
7.33 -9.04 -1.54 0.12 
7.16 -9.18 -1.54 0.12 
6.98 -9.31 -1.54 0.12 
6.81 -9.44 -1.54 0.12 
6.63 -9.57 -1.54 0.12 
6.45 -9.70 -1.54 0.12 
6.26 -9.82 -1.54 0.12 
6.08 -9.94 -1.54 0.12 
4.85 -8.28 -1.27 0.87 
4.65 -8.30 -1.26 0.88 
5.50 -10.27 -1.54 0.12 
5.31 -10.37 -1.54 0.12 
5.11 -10.47 -1.54 0.12 
4.92 -10.57 -1.54 0.12 
4.71 -10.66 -1.54 0.12 
4.51 -10.75 -1.54 0.12 
4.31 -10.84 -1.54 0.12 
4.10 -10.92 -1.54 0.12 
3.90 -10.99 -1.54 0.12 
3.69 -11.07 -1.54 0.12 
3.48 -11.14 -1.54 0.12 
3.27 -11.20 -1.54 0.12 
3.06 -11.26 -1.54 0.12 
2.84 -11.32 -1.54 0.12 
2.63 -11.37 -1.54 0.12 
2.41 -11.42 -1.54 0.12 
2.20 -11.46 -1.54 0.12 
1.98 -11.50 -1.54 0.12 
1.76 -11.54 -1.54 0.12 
1.54 -11.57 -1.54 0.12 
1.32 -11.60 -1.54 0.12 
1.10 -11.62 -1.54 0.12 
0.88 -11.64 -1.54 0.12 
0.66 -11.66 -1.54 0.12 
0.44 -11.67 -1.54 0.12 
0.22 -11.68 -1.54 0.12 
-0.00 -11.68 -1.54 0.12 
-0.22 -11.68 -1.54 0.12 
-0.44 -11.67 -1.54 0.12 
-0.66 -11.66 -1.54 0.12 
-0.88 -11.65 -1.55 0.12 
-1.10 -11.63 -1.55 0.12 
-1.32 -11.61 -1.55 0.12 
-1.54 -11.58 -1.55 0.12 
-1.76 -11.55 -1.55 0.12 
-1.98 -11.51 -1.55 0.12 
-2.20 -11.47 -1.55 0.12 
-2.41 -11.43 -1.55 0.12 
-2.63 -11.38 -1.55 0.12 
-2.85 -11.33 -1.55 0.12 
-3.06 -11.28 -1.55 0.12 
-3.27 -11.22 -1.55 0.12 
-3.48 -11.15 -1.55 0.12 
-3.69 -11.08 -1.55 0.12 
-3.90 -11.01 -1.55 0.12 
-4.11 -10.94 -1.55 0.12 
-4.32 -10.86 -1.55 0.12 
-4.52 -10.77 -1.54 0.12 
-4.72 -10.68 -1.54 0.12 
-4.93 -10.59 -1.54 0.12 
-5.12 -10.50 -1.54 0.12 
-5.32 -10.40 -1.54 0.12 
-5.52 -10.29 -1.54 0.12 
-5.71 -10.19 -1.54 0.12 
-5.90 -10.08 -1.54 0.12 
-6.09 -9.96 -1.54 0.12 
-6.28 -9.84 -1.54 0.12 
-6.46 -9.72 -1.54 0.12 
-6.65 -9.60 -1.54 0.12 
-6.83 -9.47 -1.54 0.12 
-7.00 -9.34 -1.54 0.12 
-7.18 -9.20 -1.54 0.12 
-7.35 -9.07 -1.54 0.12 
-7.52 -8.92 -1.54 0.12 
-7.69 -8.78 -1.54 0.12 
-7.85 -8.63 -1.54 0.12 
-8.01 -8.48 -1.54 0.12 
-8.17 -8.33 -1.54 0.12 
-8.33 -8.17 -1.54 0.12 
-8.65 -8.17 -1.57 0.60 
-9.00 -8.19 -1.61 0.59 
-9.38 -8.21 -1.65 0.58 
-9.76 -8.23 -1.69 0.13 
-9.93 -8.05 -1.69 0.13 
-10.10 -7.88 -1.69 0.13 
-10.25 -7.69 -1.70 0.12 
-10.40 -7.49 -1.69 0.12 
-10.53 -7.29 -1.69 0.12 
-10.67 -7.09 -1.69 0.12 
-10.80 -6.89 -1.69 0.12 
-10.93 -6.68 -1.69 0.12 
-11.05 -6.47 -1.69 0.12 
-11.17 -6.26 -1.69 0.12 
-11.28 -6.05 -1.69 0.12 
-11.39 -5.83 -1.69 0.12 
-11.50 -5.61 -1.69 0.12 
-11.60 -5.40 -1.69 0.12 
-11.70 -5.17 -1.69 0.12 
-11.79 -4.95 -1.69 0.12 
-11.88 -4.73 -1.69 0.12 
-11.97 -4.50 -1.69 0.12 
-12.05 -4.27 -1.69 0.12 
-12.13 -4.04 -1.69 0.12 
-12.20 -3.81 -1.69 0.12 
-12.27 -3.58 -1.69 0.12 
-12.33 -3.35 -1.69 0.12 
-12.39 -3.11 -1.69 0.12 
-12.44 -2.88 -1.69 0.12 
-12.49 -2.64 -1.69 0.12 
-12.54 -2.40 -1.69 0.12 
-12.58 -2.16 -1.69 0.12 
-10.51 -1.60 -1.41 0.72 
-10.53 -1.40 -1.40 0.72 
-12.67 -1.45 -1.69 0.12 
-12.70 -1.21 -1.69 0.12 
-12.71 -0.96 -1.69 0.12 
-12.73 -0.72 -1.69 0.12 
-12.74 -0.48 -1.69 0.12 
-12.74 -0.24 -1.69 0.12 
-12.62 -0.00 -1.69 0.13 
-10.67 0.20 -1.42 0.72 
-10.69 0.40 -1.43 0.72 
-12.60 0.72 -1.68 0.13 
-12.58 0.95 -1.68 0.13 
-12.56 1.19 -1.68 0.13 
-12.53 1.43 -1.68 0.13 
-12.50 1.67 -1.68 0.13 
-12.46 1.90 -1.68 0.13 
-12.42 2.14 -1.68 0.13 
-11.60 2.22 -1.58 0.68 
-10.89 2.30 -1.49 0.36 
-10.46 2.42 -1.43 0.57 
-10.05 2.52 -1.38 0.91 
-10.08 2.73 -1.39 0.94 
-10.09 2.94 -1.40 0.89 
-10.11 3.16 -1.41 0.84 
-10.11 3.37 -1.42 0.88 
-11.86 4.20 -1.68 0.13 
-11.77 4.43 -1.68 0.13 
-11.68 4.65 -1.68 0.13 
-11.59 4.87 -1.68 0.13 
-11.50 5.08 -1.68 0.13 
-11.40 5.30 -1.68 0.13 
-11.29 5.51 -1.68 0.13 
-11.18 5.72 -1.68 0.13 
-11.07 5.93 -1.68 0.13 
-10.95 6.14 -1.68 0.13 
-10.83 6.35 -1.68 0.13 
-10.71 6.55 -1.68 0.13 
-10.58 6.75 -1.68 0.13 
-10.45 6.95 -1.67 0.13 
-10.31 7.14 -1.67 0.13 
-10.18 7.33 -1.67 0.13 
-10.03 7.52 -1.67 0.13 
-9.89 7.71 -1.67 0.13 
-6.99 5.67 -1.20 0.66 
-6.75 5.69 -1.18 0.67 
-6.52 5.71 -1.16 0.68 
-6.32 5.75 -1.14 0.68 
-6.10 5.76 -1.12 0.73 
-5.89 5.78 -1.10 0.74 
-5.69 5.80 -1.09 0.75 
-5.50 5.82 -1.07 0.77 
-5.32 5.85 -1.05 0.79 
-5.14 5.87 -1.04 0.79 
-4.96 5.89 -1.03 0.81 
-4.79 5.91 -1.02 0.81 
-4.62 5.92 -1.00 0.81 
-4.45 5.94 -0.99 0.82 
-4.29 5.95 -0.98 0.83 
-4.13 5.97 -0.97 0.84 
-3.97 5.97 -0.96 0.77 
-3.80 5.96 -0.94 0.25 
-3.63 5.93 -0.93 0.86 
-3.48 5.94 -0.92 0.87 
-3.34 5.95 -0.91 0.87 
-3.20 5.97 -0.90 0.93 
-3.07 6.00 -0.90 0.93 
-2.95 6.04 -0.90 0.94 
-2.85 6.13 -0.90 0.93 
-2.75 6.21 -0.91 0.92 
-2.67 6.37 -0.92 0.69 
-2.61 6.57 -0.94 0.46 
-2.60 6.91 -0.99 0.31 
-3.97 11.20 -1.59 0.92 
-3.74 11.22 -1.58 0.92 
-3.51 11.24 -1.57 0.93 
-3.29 11.26 -1.57 0.93 
-3.06 11.28 -1.56 0.94 
-2.84 11.29 -1.55 0.94 
-2.61 11.31 -1.55 0.94 
-2.39 11.32 -1.54 0.94 
-2.17 11.33 -1.54 0.94 
-1.95 11.34 -1.54 0.95 
-1.73 11.36 -1.53 0.95 
-1.51 11.37 -1.53 0.95 
-1.30 11.38 -1.53 0.95 
-1.08 11.38 -1.53 0.95 
-0.86 11.39 -1.52 0.95 
-0.65 11.39 -1.52 0.95 
-0.43 11.40 -1.52 0.95 
-0.22 11.41 -1.52 0.95 
0.00 11.41 -1.52 0.95 
0.22 11.41 -1.52 0.95 
0.43 11.41 -1.52 0.95 
0.65 11.41 -1.53 0.95 
0.87 11.41 -1.53 0.95 
1.08 11.41 -1.53 0.95 
1.30 11.41 -1.53 0.95 
1.52 11.40 -1.54 0.95 
1.74 11.40 -1.54 0.94 
1.96 11.39 -1.54 0.94 
2.18 11.39 -1.55 0.94 
2.40 11.38 -1.55 0.94 
2.63 11.37 -1.56 0.94 
2.85 11.36 -1.56 0.93 
3.08 11.35 -1.57 0.93 
3.31 11.34 -1.58 0.92 
3.54 11.33 -1.58 0.92 
3.77 11.31 -1.59 0.92 
4.01 11.30 -1.60 0.92 
4.24 11.28 -1.61 0.91 
4.48 11.27 -1.62 0.90 
4.72 11.25 -1.63 0.90 
4.96 11.23 -1.64 0.90 
5.21 11.21 -1.65 0.89 
5.45 11.15 -1.66 0.14 
5.66 11.06 -1.66 0.14 
5.87 10.96 -1.66 0.14 
6.09 10.86 -1.66 0.14 
6.30 10.75 -1.66 0.14 
6.50 10.64 -1.66 0.14 
6.71 10.51 -1.66 0.13 
6.90 10.39 -1.66 0.13 
7.10 10.25 -1.66 0.13 
7.29 10.12 -1.66 0.13 
7.48 9.98 -1.66 0.13 
7.67 9.84 -1.66 0.13 
7.86 9.69 -1.67 0.13 
8.04 9.54 -1.67 0.13 
8.22 9.39 -1.67 0.13 
8.40 9.23 -1.67 0.13 
8.57 9.07 -1.67 0.13 
8.74 8.91 -1.67 0.13 
8.91 8.74 -1.67 0.13 
9.07 8.57 -1.67 0.13 
9.24 8.40 -1.67 0.13 
9.39 8.23 -1.67 0.13 
9.55 8.05 -1.67 0.13 
9.70 7.87 -1.67 0.13 
9.85 7.68 -1.67 0.13 
9.99 7.50 -1.67 0.13 
10.14 7.31 -1.67 0.13 
10.27 7.11 -1.67 0.13 
10.41 6.92 -1.67 0.13 
10.54 6.72 -1.67 0.13 
10.67 6.52 -1.67 0.13 
10.79 6.32 -1.67 0.13 
10.91 6.12 -1.67 0.13 
11.02 5.91 -1.67 0.13 
11.13 5.70 -1.67 0.13 
11.24 5.49 -1.67 0.13 
11.35 5.28 -1.67 0.13 
11.45 5.06 -1.67 0.13 
11.54 4.84 -1.67 0.13 
11.63 4.63 -1.67 0.13 
11.72 4.41 -1.67 0.13 
11.80 4.18 -1.67 0.13 
11.88 3.96 -1.67 0.13 
11.96 3.74 -1.67 0.13 
12.03 3.51 -1.67 0.13 
12.09 3.28 -1.67 0.13 
12.16 3.05 -1.67 0.13 
12.21 2.82 -1.67 0.13 
12.27 2.59 -1.67 0.13 
12.32 2.36 -1.67 0.13 
12.36 2.13 -1.67 0.13 
12.40 1.89 -1.67 0.13 
12.44 1.66 -1.67 0.13 
12.47 1.42 -1.68 0.13 
12.50 1.19 -1.68 0.13 
12.52 0.95 -1.68 0.13 
12.54 0.71 -1.68 0.13 
12.55 0.48 -1.68 0.13 
12.56 0.24 -1.68 0.13 
12.56 0.00 -1.68 0.13 
12.56 -0.24 -1.68 0.13 
12.56 -0.48 -1.68 0.13 
12.55 -0.71 -1.68 0.13 
12.54 -0.95 -1.68 0.13 
12.52 -1.19 -1.68 0.13 
12.50 -1.43 -1.68 0.13 
12.47 -1.66 -1.68 0.13 
12.44 -1.90 -1.68 0.13 
12.40 -2.13 -1.68 0.13 
12.36 -2.37 -1.68 0.13 
12.32 -2.60 -1.68 0.13 
12.27 -2.84 -1.68 0.13 
12.22 -3.07 -1.68 0.13 
12.16 -3.30 -1.68 0.13 
12.10 -3.53 -1.68 0.13 
12.03 -3.76 -1.68 0.13 
11.96 -3.99 -1.68 0.13 
11.89 -4.21 -1.68 0.13 
11.81 -4.44 -1.68 0.13 
11.72 -4.66 -1.68 0.13 
11.63 -4.88 -1.68 0.13 
11.54 -5.10 -1.68 0.13 
11.45 -5.32 -1.68 0.13 
11.34 -5.54 -1.69 0.13 
6.52 -3.34 -0.98 0.28 
6.17 -3.31 -0.93 0.37 
5.87 -3.29 -0.90 0.44 
5.59 -3.27 -0.86 0.48 
5.35 -3.27 -0.84 0.57 
5.16 -3.29 -0.82 0.61 
4.99 -3.32 -0.80 0.85 
4.89 -3.39 -0.79 0.94 
4.84 -3.49 -0.80 0.87 
4.79 -3.60 -0.80 0.80 
4.76 -3.71 -0.81 0.83 
4.75 -3.85 -0.82 0.65 
4.75 -4.00 -0.83 0.53 
9.51 -8.32 -1.69 0.13 
9.33 -8.49 -1.68 0.13 
8.96 -8.46 -1.65 0.48 
8.54 -8.38 -1.60 0.53 
8.15 -8.31 -1.55 0.55 
7.91 -8.37 -1.54 0.13 
7.75 -8.52 -1.54 0.13 
7.59 -8.67 -1.54 0.13 
7.43 -8.81 -1.54 0.13 
7.26 -8.95 -1.54 0.13 
7.09 -9.09 -1.54 0.13 
6.92 -9.23 -1.54 0.13 
6.74 -9.36 -1.54 0.13 
6.57 -9.48 -1.54 0.13 
6.39 -9.61 -1.54 0.13 
6.20 -9.73 -1.54 0.13 
6.02 -9.85 -1.54 0.13 
4.85 -8.28 -1.28 0.87 
4.65 -8.30 -1.27 0.88 
5.45 -10.18 -1.54 0.13 
5.26 -10.28 -1.54 0.13 
5.07 -10.38 -1.54 0.13 
4.87 -10.47 -1.54 0.13 
4.67 -10.56 -1.54 0.13 
4.47 -10.65 -1.54 0.13 
4.27 -10.74 -1.54 0.13 
4.07 -10.82 -1.54 0.13 
3.86 -10.89 -1.54 0.13 
3.65 -10.96 -1.54 0.13 
3.45 -11.03 -1.54 0.13 
3.24 -11.10 -1.54 0.13 
3.03 -11.16 -1.54 0.13 
2.82 -11.21 -1.54 0.13 
2.60 -11.27 -1.54 0.13 
2.39 -11.31 -1.54 0.13 
2.18 -11.36 -1.54 0.13 
1.96 -11.40 -1.54 0.13 
1.74 -11.43 -1.54 0.13 
1.53 -11.47 -1.54 0.13 
1.31 -11.49 -1.54 0.13 
1.09 -11.52 -1.54 0.13 
0.88 -11.54 -1.54 0.13 
0.66 -11.55 -1.54 0.13 
0.44 -11.56 -1.54 0.12 
0.22 -11.57 -1.54 0.12 
-0.00 -11.57 -1.54 0.12 
-0.22 -11.57 -1.54 0.12 
-0.44 -11.57 -1.54 0.12 
-0.66 -11.56 -1.54 0.12 
-0.88 -11.54 -1.54 0.12 
-1.09 -11.52 -1.54 0.12 
-1.31 -11.50 -1.54 0.12 
-1.53 -11.47 -1.54 0.12 
-1.75 -11.44 -1.55 0.12 
-1.96 -11.41 -1.55 0.12 
-2.18 -11.37 -1.55 0.12 
-2.39 -11.33 -1.55 0.12 
-2.61 -11.28 -1.55 0.12 
-2.82 -11.23 -1.55 0.12 
-3.03 -11.17 -1.55 0.12 
-3.24 -11.11 -1.55 0.12 
-3.45 -11.05 -1.55 0.12 
-3.66 -10.98 -1.54 0.12 
-3.87 -10.91 -1.54 0.12 
-4.07 -10.83 -1.54 0.12 
-4.28 -10.76 -1.54 0.12 
-4.48 -10.67 -1.54 0.12 
-4.68 -10.58 -1.54 0.12 
-4.88 -10.49 -1.54 0.12 
-5.08 -10.40 -1.54 0.12 
-5.27 -10.30 -1.54 0.12 
-5.47 -10.20 -1.54 0.12 
-5.66 -10.09 -1.54 0.13 
-5.85 -9.98 -1.54 0.13 
-6.04 -9.87 -1.54 0.13 
-6.22 -9.75 -1.54 0.13 
-6.40 -9.63 -1.54 0.13 
-6.58 -9.51 -1.54 0.13 
-6.76 -9.38 -1.54 0.13 
-6.94 -9.25 -1.54 0.13 
-7.11 -9.12 -1.54 0.13 
-7.28 -8.98 -1.54 0.13 
-7.45 -8.84 -1.54 0.13 
-7.62 -8.70 -1.54 0.13 
-7.78 -8.55 -1.54 0.13 
-7.94 -8.40 -1.54 0.13 
-8.09 -8.25 -1.54 0.13 
-8.30 -8.14 -1.55 0.62 
-8.64 -8.16 -1.59 0.60 
-9.00 -8.19 -1.62 0.59 
-9.38 -8.21 -1.66 0.58 
-9.68 -8.15 -1.69 0.13 
-9.85 -7.98 -1.69 0.13 
-10.01 -7.81 -1.70 0.13 
-10.16 -7.62 -1.69 0.12 
-10.30 -7.42 -1.69 0.12 
-10.44 -7.23 -1.69 0.12 
-10.57 -7.03 -1.69 0.12 
-10.70 -6.82 -1.69 0.12 
-10.83 -6.62 -1.69 0.12 
-10.95 -6.41 -1.69 0.12 
-11.07 -6.20 -1.69 0.12 
-11.18 -5.99 -1.69 0.12 
-11.29 -5.78 -1.69 0.12 
-11.39 -5.56 -1.69 0.12 
-11.50 -5.35 -1.69 0.12 
-11.59 -5.13 -1.69 0.12 
-11.69 -4.91 -1.69 0.12 
-11.77 -4.68 -1.69 0.12 
-11.86 -4.46 -1.69 0.12 
-11.94 -4.23 -1.69 0.12 
-12.02 -4.00 -1.69 0.13 
-12.09 -3.78 -1.69 0.13 
-12.15 -3.55 -1.69 0.13 
-12.22 -3.31 -1.69 0.13 
-12.27 -3.08 -1.69 0.13 
-12.33 -2.85 -1.69 0.13 
-12.38 -2.61 -1.69 0.13 
-12.42 -2.38 -1.69 0.13 
-12.46 -2.14 -1.69 0.13 
-10.52 -1.61 -1.42 0.72 
-10.54 -1.40 -1.42 0.72 
-12.56 -1.43 -1.69 0.13 
-12.58 -1.19 -1.69 0.13 
-12.60 -0.96 -1.69 0.13 
-12.61 -0.72 -1.69 0.13 
-12.62 -0.48 -1.69 0.13 
-12.63 -0.24 -1.69 0.13 
-12.51 -0.00 -1.69 0.13 
-10.68 0.20 -1.44 0.72 
-10.70 0.41 -1.44 0.72 
-12.48 0.71 -1.68 0.13 
-12.47 0.95 -1.68 0.13 
-12.44 1.18 -1.68 0.13 
-12.42 1.42 -1.68 0.13 
-12.38 1.65 -1.68 0.13 
-12.35 1.88 -1.68 0.13 
-12.31 2.12 -1.68 0.13 
-11.61 2.22 -1.59 0.68 
-12.21 2.58 -1.68 0.13 
-10.47 2.42 -1.45 0.57 
-10.05 2.52 -1.40 0.91 
-10.08 2.73 -1.41 0.94 
-10.09 2.94 -1.42 0.89 
-10.13 3.16 -1.43 0.04 
-10.10 3.37 -1.43 0.88 
-11.75 4.16 -1.68 0.13 
-11.67 4.39 -1.68 0.13 
-11.58 4.60 -1.68 0.13 
-11.49 4.82 -1.68 0.13 
-11.39 5.04 -1.68 0.13 
-11.29 5.25 -1.68 0.13 
-11.19 5.46 -1.68 0.13 
-11.08 5.67 -1.68 0.13 
-10.97 5.88 -1.68 0.13 
-10.85 6.09 -1.68 0.13 
-10.74 6.29 -1.68 0.13 
-10.61 6.49 -1.68 0.13 
-10.49 6.69 -1.68 0.13 
-10.36 6.88 -1.67 0.13 
-10.22 7.08 -1.67 0.13 
-10.08 7.27 -1.67 0.13 
-9.94 7.46 -1.67 0.13 
-9.80 7.64 -1.67 0.13 
-6.99 5.67 -1.21 0.66 
-6.75 5.69 -1.19 0.67 
-6.52 5.71 -1.17 0.68 
-6.32 5.75 -1.15 0.68 
-6.10 5.76 -1.13 0.73 
-5.89 5.78 -1.11 0.74 
-5.69 5.80 -1.10 0.75 
-5.50 5.82 -1.08 0.77 
-5.32 5.85 -1.06 0.79 
-5.14 5.87 -1.05 0.79 
-4.96 5.89 -1.04 0.81 
-4.79 5.91 -1.02 0.81 
-4.62 5.92 -1.01 0.82 
-4.45 5.94 -1.00 0.82 
-4.29 5.95 -0.99 0.83 
-4.13 5.97 -0.98 0.84 
-3.97 5.97 -0.97 0.77 
-3.82 5.98 -0.96 0.25 
-3.63 5.93 -0.94 0.86 
-3.48 5.94 -0.93 0.87 
-3.34 5.95 -0.92 0.87 
-3.20 5.97 -0.91 0.93 
-3.07 6.00 -0.91 0.93 
-2.95 6.04 -0.91 0.94 
-2.85 6.12 -0.91 0.93 
-2.75 6.21 -0.92 0.92 
-2.67 6.37 -0.93 0.69 
-2.61 6.57 -0.95 0.46 
-2.60 6.91 -0.99 0.31 
-2.68 7.56 -1.08 0.16 
-3.74 11.22 -1.59 0.92 
-3.51 11.24 -1.59 0.93 
-3.28 11.26 -1.58 0.93 
-3.06 11.27 -1.57 0.94 
-2.84 11.29 -1.57 0.94 
-2.61 11.31 -1.56 0.94 
-2.39 11.32 -1.56 0.94 
-2.17 11.33 -1.55 0.94 
-1.95 11.34 -1.55 0.95 
-1.73 11.35 -1.55 0.95 
-1.51 11.36 -1.54 0.95 
-1.30 11.37 -1.54 0.95 
-1.08 11.38 -1.54 0.95 
-0.86 11.39 -1.54 0.95 
-0.65 11.39 -1.54 0.95 
-0.43 11.40 -1.54 0.95 
-0.22 11.40 -1.54 0.95 
0.00 11.41 -1.54 0.95 
0.22 11.41 -1.54 0.95 
0.43 11.41 -1.54 0.95 
0.65 11.41 -1.54 0.95 
0.87 11.41 -1.54 0.95 
1.08 11.41 -1.54 0.95 
1.30 11.40 -1.55 0.95 
1.52 11.40 -1.55 0.95 
1.74 11.40 -1.55 0.94 
1.96 11.39 -1.56 0.94 
2.18 11.39 -1.56 0.94 
2.40 11.38 -1.57 0.94 
2.63 11.37 -1.57 0.94 
2.85 11.36 -1.58 0.93 
3.08 11.35 -1.58 0.93 
3.31 11.34 -1.59 0.92 
3.54 11.33 -1.60 0.92 
3.77 11.31 -1.61 0.92 
4.00 11.30 -1.61 0.92 
4.24 11.28 -1.62 0.91 
4.48 11.27 -1.63 0.90 
4.72 11.25 -1.64 0.90 
4.96 11.22 -1.65 0.90 
5.19 11.16 -1.66 0.14 
5.40 11.06 -1.66 0.14 
5.62 10.97 -1.66 0.14 
5.83 10.87 -1.66 0.14 
6.04 10.77 -1.66 0.14 
6.25 10.66 -1.66 0.14 
6.45 10.54 -1.66 0.13 
6.65 10.42 -1.66 0.13 
6.84 10.29 -1.66 0.13 
7.04 10.16 -1.66 0.13 
7.23 10.03 -1.66 0.13 
7.42 9.89 -1.66 0.13 
7.60 9.75 -1.67 0.13 
7.79 9.60 -1.67 0.13 
7.97 9.46 -1.67 0.13 
8.15 9.30 -1.67 0.13 
8.32 9.15 -1.67 0.13 
8.49 8.99 -1.67 0.13 
8.66 8.83 -1.67 0.13 
8.83 8.66 -1.67 0.13 
8.99 8.50 -1.67 0.13 
9.15 8.33 -1.67 0.13 
9.31 8.15 -1.67 0.13 
9.46 7.98 -1.67 0.13 
9.61 7.80 -1.67 0.13 
9.76 7.61 -1.67 0.13 
9.91 7.43 -1.67 0.13 
10.05 7.24 -1.67 0.13 
10.18 7.05 -1.67 0.13 
10.31 6.86 -1.67 0.13 
10.44 6.66 -1.67 0.13 
10.57 6.46 -1.67 0.13 
10.69 6.26 -1.67 0.13 
10.81 6.06 -1.67 0.13 
10.92 5.86 -1.67 0.13 
11.03 5.65 -1.67 0.13 
11.14 5.44 -1.67 0.13 
11.24 5.23 -1.67 0.13 
11.34 5.02 -1.67 0.13 
11.44 4.80 -1.67 0.13 
11.53 4.58 -1.67 0.13 
11.61 4.37 -1.67 0.13 
11.70 4.15 -1.67 0.13 
11.78 3.92 -1.67 0.13 
11.85 3.70 -1.67 0.13 
11.92 3.48 -1.67 0.13 
11.99 3.25 -1.67 0.13 
12.05 3.03 -1.67 0.13 
12.10 2.80 -1.67 0.13 
12.16 2.57 -1.67 0.13 
12.21 2.34 -1.67 0.13 
12.25 2.11 -1.67 0.13 
12.29 1.88 -1.67 0.13 
12.33 1.64 -1.67 0.13 
12.36 1.41 -1.68 0.13 
12.38 1.18 -1.68 0.13 
12.41 0.94 -1.68 0.13 
12.42 0.71 -1.68 0.13 
12.44 0.47 -1.68 0.13 
12.45 0.24 -1.68 0.13 
12.45 -0.00 -1.68 0.13 
12.45 -0.24 -1.68 0.13 
12.45 -0.47 -1.68 0.13 
12.44 -0.71 -1.68 0.13 
12.43 -0.94 -1.68 0.13 
12.41 -1.18 -1.68 0.13 
12.39 -1.41 -1.68 0.13 
12.36 -1.65 -1.68 0.13 
12.33 -1.88 -1.68 0.13 
12.29 -2.11 -1.68 0.13 
12.25 -2.35 -1.68 0.13 
12.21 -2.58 -1.68 0.13 
12.16 -2.81 -1.68 0.13 
12.11 -3.04 -1.68 0.13 
12.05 -3.27 -1.68 0.13 
11.99 -3.50 -1.68 0.13 
11.92 -3.72 -1.68 0.13 
11.85 -3.95 -1.68 0.13 
11.78 -4.17 -1.68 0.13 
11.70 -4.40 -1.68 0.13 
11.62 -4.62 -1.68 0.13 
11.53 -4.84 -1.68 0.13 
11.44 -5.06 -1.68 0.13 
11.34 -5.27 -1.68 0.13 
11.24 -5.49 -1.69 0.13 
6.51 -3.33 -0.99 0.28 
6.16 -3.30 -0.94 0.37 
5.86 -3.29 -0.91 0.44 
5.59 -3.27 -0.87 0.48 
5.35 -3.27 -0.84 0.57 
5.15 -3.29 -0.82 0.61 
4.99 -3.31 -0.81 0.85 
4.89 -3.39 -0.80 0.94 
4.83 -3.48 -0.80 0.87 
4.79 -3.59 -0.81 0.81 
4.75 -3.71 -0.81 0.83 
4.74 -3.84 -0.82 0.65 
4.74 -3.99 -0.83 0.53 
9.42 -8.25 -1.69 0.13 
9.25 -8.41 -1.68 0.13 
8.95 -8.46 -1.66 0.48 
8.53 -8.37 -1.61 0.53 
8.15 -8.30 -1.57 0.55 
7.84 -8.30 -1.54 0.13 
7.68 -8.45 -1.54 0.13 
7.52 -8.59 -1.54 0.13 
7.36 -8.73 -1.54 0.13 
7.19 -8.87 -1.54 0.13 
7.03 -9.01 -1.54 0.13 
6.86 -9.14 -1.54 0.13 
6.68 -9.27 -1.54 0.13 
6.51 -9.40 -1.54 0.13 
6.33 -9.52 -1.54 0.13 
6.15 -9.64 -1.54 0.13 
5.97 -9.76 -1.54 0.13 
4.85 -8.28 -1.29 0.87 
4.65 -8.30 -1.28 0.88 
5.40 -10.08 -1.54 0.13 
5.21 -10.18 -1.54 0.13 
5.02 -10.28 -1.54 0.13 
4.83 -10.38 -1.54 0.13 
4.63 -10.47 -1.54 0.13 
4.43 -10.55 -1.54 0.13 
4.23 -10.64 -1.54 0.13 
4.03 -10.72 -1.54 0.13 
3.83 -10.79 -1.54 0.13 
3.62 -10.86 -1.54 0.13 
3.42 -10.93 -1.54 0.13 
3.21 -11.00 -1.54 0.13 
3.00 -11.06 -1.54 0.13 
2.79 -11.11 -1.54 0.13 
2.58 -11.16 -1.54 0.13 
2.37 -11.21 -1.54 0.13 
2.16 -11.26 -1.54 0.13 
1.94 -11.29 -1.54 0.13 
1.73 -11.33 -1.54 0.13 
1.51 -11.36 -1.54 0.13 
1.30 -11.39 -1.54 0.13 
1.08 -11.41 -1.54 0.13 
0.87 -11.43 -1.54 0.13 
0.65 -11.45 -1.54 0.13 
0.43 -11.46 -1.54 0.13 
0.22 -11.46 -1.54 0.13 
-0.00 -11.47 -1.54 0.13 
-0.22 -11.47 -1.54 0.13 
-0.43 -11.46 -1.54 0.13 
-0.65 -11.45 -1.54 0.13 
-0.87 -11.44 -1.54 0.13 
-1.08 -11.42 -1.54 0.13 
-1.30 -11.40 -1.54 0.13 
-1.51 -11.37 -1.54 0.13 
-1.73 -11.34 -1.54 0.13 
-1.94 -11.30 -1.54 0.13 
-2.16 -11.27 -1.54 0.13 
-2.37 -11.22 -1.54 0.13 
-2.58 -11.18 -1.54 0.13 
-2.79 -11.12 -1.54 0.13 
-3.00 -11.07 -1.54 0.13 
-3.21 -11.01 -1.54 0.13 
-3.42 -10.95 -1.54 0.13 
-3.63 -10.88 -1.54 0.13 
-3.83 -10.81 -1.54 0.13 
-4.04 -10.74 -1.54 0.13 
-4.24 -10.66 -1.54 0.13 
-4.44 -10.57 -1.54 0.13 
-4.64 -10.49 -1.54 0.13 
-4.84 -10.40 -1.54 0.13 
-5.03 -10.30 -1.54 0.13 
-5.22 -10.21 -1.54 0.13 
-5.42 -10.11 -1.54 0.13 
-5.61 -10.00 -1.54 0.13 
-5.79 -9.89 -1.54 0.13 
-5.98 -9.78 -1.54 0.13 
-6.16 -9.66 -1.54 0.13 
-6.35 -9.55 -1.54 0.13 
-6.52 -9.42 -1.54 0.13 
-6.70 -9.30 -1.54 0.13 
-6.88 -9.17 -1.54 0.13 
-7.05 -9.04 -1.54 0.13 
-7.22 -8.90 -1.54 0.13 
-7.38 -8.76 -1.54 0.13 
-7.55 -8.62 -1.54 0.13 
-7.71 -8.47 -1.54 0.13 
-7.87 -8.33 -1.54 0.13 
-8.02 -8.17 -1.54 0.13 
-8.30 -8.14 -1.57 0.62 
-8.64 -8.16 -1.60 0.60 
-9.00 -8.18 -1.64 0.59 
-9.37 -8.21 -1.68 0.58 
-9.59 -8.09 -1.69 0.14 
-9.76 -7.92 -1.69 0.13 
-9.92 -7.74 -1.70 0.13 
-10.07 -7.55 -1.69 0.13 
-10.21 -7.36 -1.69 0.13 
-10.34 -7.16 -1.69 0.13 
-10.47 -6.96 -1.69 0.13 
-10.60 -6.76 -1.69 0.13 
-10.73 -6.56 -1.69 0.13 
-10.85 -6.35 -1.69 0.13 
-10.96 -6.15 -1.69 0.13 
-11.08 -5.94 -1.69 0.13 
-11.19 -5.73 -1.69 0.13 
-11.29 -5.51 -1.69 0.13 
-11.39 -5.30 -1.69 0.13 
-11.49 -5.08 -1.69 0.13 
-11.58 -4.86 -1.69 0.13 
-11.67 -4.64 -1.69 0.13 
-11.75 -4.42 -1.69 0.13 
-11.83 -4.19 -1.69 0.13 
-11.91 -3.97 -1.69 0.13 
-11.98 -3.74 -1.69 0.13 
-12.04 -3.51 -1.69 0.13 
-12.11 -3.28 -1.69 0.13 
-12.16 -3.05 -1.69 0.13 
-12.22 -2.82 -1.69 0.13 
-12.27 -2.59 -1.69 0.13 
-12.31 -2.36 -1.69 0.13 
-12.35 -2.12 -1.69 0.13 
-10.53 -1.61 -1.43 0.72 
-10.55 -1.41 -1.43 0.72 
-12.44 -1.42 -1.69 0.13 
-12.47 -1.18 -1.69 0.13 
-12.48 -0.95 -1.69 0.13 
-12.50 -0.71 -1.69 0.13 
-12.51 -0.47 -1.69 0.13 
-12.51 -0.24 -1.69 0.13 
-12.40 -0.00 -1.69 0.13 
-10.69 0.20 -1.45 0.72 
-10.71 0.41 -1.46 0.71 
-12.37 0.70 -1.68 0.13 
-12.35 0.94 -1.68 0.13 
-12.33 1.17 -1.68 0.13 
-12.30 1.40 -1.68 0.13 
-12.27 1.64 -1.68 0.13 
-12.24 1.87 -1.68 0.13 
-12.20 2.10 -1.68 0.13 
-11.63 2.23 -1.61 0.39 
-12.10 2.56 -1.68 0.13 
-10.47 2.42 -1.46 0.57 
-10.04 2.52 -1.41 0.91 
-10.08 2.73 -1.42 0.92 
-10.09 2.94 -1.43 0.89 
-10.29 3.22 -1.47 0.35 
-10.11 3.37 -1.45 0.83 
-11.64 4.13 -1.68 0.13 
-11.56 4.35 -1.68 0.13 
-11.48 4.56 -1.68 0.13 
-11.39 4.78 -1.68 0.13 
-11.29 4.99 -1.68 0.13 
-11.19 5.20 -1.68 0.13 
-11.09 5.41 -1.68 0.13 
-10.98 5.62 -1.68 0.13 
-10.87 5.83 -1.68 0.13 
-10.76 6.03 -1.68 0.13 
-10.64 6.23 -1.68 0.13 
-10.52 6.43 -1.68 0.13 
-10.39 6.63 -1.68 0.13 
-10.26 6.82 -1.67 0.13 
-10.13 7.01 -1.67 0.13 
-9.99 7.20 -1.67 0.13 
-9.85 7.39 -1.67 0.13 
-9.71 7.57 -1.67 0.13 
-6.99 5.67 -1.22 0.66 
-6.75 5.69 -1.20 0.67 
-6.52 5.71 -1.18 0.68 
-6.32 5.75 -1.16 0.68 
-6.10 5.76 -1.14 0.73 
-5.89 5.78 -1.12 0.74 
-5.69 5.80 -1.10 0.75 
-5.50 5.82 -1.09 0.77 
-5.32 5.85 -1.07 0.79 
-5.14 5.87 -1.06 0.79 
-4.96 5.89 -1.05 0.81 
-4.79 5.91 -1.03 0.81 
-4.62 5.92 -1.02 0.82 
-4.45 5.94 -1.01 0.82 
-4.29 5.95 -1.00 0.83 
-4.13 5.97 -0.99 0.84 
-3.97 5.97 -0.97 0.77 
-3.83 6.00 -0.97 0.25 
-3.63 5.93 -0.94 0.86 
-3.48 5.94 -0.94 0.87 
-3.34 5.95 -0.93 0.87 
-3.20 5.97 -0.92 0.93 
-3.07 6.00 -0.92 0.93 
-2.95 6.04 -0.91 0.94 
-2.85 6.12 -0.92 0.93 
-2.75 6.21 -0.92 0.92 
-2.67 6.36 -0.94 0.69 
-2.61 6.57 -0.96 0.46 
-2.60 6.91 -1.00 0.31 
-2.68 7.55 -1.09 0.16 
-3.74 11.22 -1.61 0.92 
-3.51 11.24 -1.60 0.93 
-3.28 11.25 -1.59 0.93 
-3.06 11.27 -1.59 0.94 
-2.83 11.29 -1.58 0.94 
-2.61 11.30 -1.58 0.94 
-2.39 11.32 -1.57 0.94 
-2.17 11.33 -1.57 0.94 
-1.95 11.34 -1.56 0.95 
-1.73 11.35 -1.56 0.95 
-1.51 11.36 -1.56 0.95 
-1.30 11.37 -1.56 0.95 
-1.08 11.38 -1.55 0.95 
-0.86 11.38 -1.55 0.95 
-0.65 11.39 -1.55 0.95 
-0.43 11.40 -1.55 0.95 
-0.22 11.40 -1.55 0.95 
-0.00 11.40 -1.55 0.95 
0.22 11.40 -1.55 0.95 
0.43 11.41 -1.55 0.95 
0.65 11.41 -1.55 0.95 
0.87 11.41 -1.55 0.95 
1.08 11.41 -1.56 0.95 
1.30 11.40 -1.56 0.95 
1.52 11.40 -1.56 0.95 
1.74 11.39 -1.57 0.94 
1.96 11.39 -1.57 0.94 
2.18 11.39 -1.58 0.94 
2.40 11.38 -1.58 0.94 
2.63 11.37 -1.59 0.94 
2.85 11.36 -1.59 0.93 
3.08 11.35 -1.60 0.93 
3.31 11.34 -1.61 0.92 
3.54 11.32 -1.61 0.92 
3.77 11.31 -1.62 0.92 
4.00 11.29 -1.63 0.92 
4.24 11.28 -1.64 0.91 
4.48 11.26 -1.65 0.90 
4.72 11.24 -1.66 0.14 
4.93 11.15 -1.66 0.14 
5.15 11.07 -1.66 0.14 
5.36 10.98 -1.66 0.14 
5.57 10.88 -1.66 0.14 
5.78 10.78 -1.66 0.14 
5.99 10.68 -1.66 0.13 
6.19 10.57 -1.66 0.13 
6.39 10.45 -1.66 0.13 
6.59 10.33 -1.66 0.13 
6.78 10.20 -1.66 0.13 
6.97 10.07 -1.66 0.13 
7.16 9.94 -1.67 0.13 
7.35 9.80 -1.67 0.13 
7.54 9.66 -1.67 0.13 
7.72 9.52 -1.67 0.13 
7.90 9.37 -1.67 0.13 
8.07 9.22 -1.67 0.13 
8.25 9.07 -1.67 0.13 
8.42 8.91 -1.67 0.13 
8.59 8.75 -1.67 0.13 
8.75 8.59 -1.67 0.13 
8.91 8.42 -1.67 0.13 
9.07 8.25 -1.67 0.13 
9.23 8.08 -1.67 0.13 
9.38 7.90 -1.67 0.13 
9.53 7.73 -1.67 0.13 
9.67 7.55 -1.67 0.13 
9.82 7.36 -1.67 0.13 
9.96 7.18 -1.67 0.13 
10.09 6.99 -1.67 0.13 
10.22 6.80 -1.67 0.13 
10.35 6.60 -1.67 0.13 
10.48 6.41 -1.67 0.13 
10.60 6.21 -1.67 0.13 
10.71 6.01 -1.67 0.13 
10.83 5.80 -1.67 0.13 
10.94 5.60 -1.67 0.13 
11.04 5.39 -1.67 0.13 
11.14 5.18 -1.67 0.13 
11.24 4.97 -1.67 0.13 
11.34 4.76 -1.67 0.13 
11.43 4.54 -1.67 0.13 
11.51 4.33 -1.67 0.13 
11.59 4.11 -1.67 0.13 
11.67 3.89 -1.67 0.13 
11.74 3.67 -1.67 0.13 
11.81 3.45 -1.67 0.13 
11.88 3.22 -1.67 0.13 
11.94 3.00 -1.67 0.13 
12.00 2.77 -1.67 0.13 
12.05 2.55 -1.67 0.13 
12.10 2.32 -1.67 0.13 
12.14 2.09 -1.67 0.13 
12.18 1.86 -1.67 0.13 
12.22 1.63 -1.67 0.13 
12.25 1.40 -1.68 0.13 
12.27 1.16 -1.68 0.13 
12.30 0.93 -1.68 0.13 
12.31 0.70 -1.68 0.13 
12.33 0.47 -1.68 0.13 
12.34 0.23 -1.68 0.13 
12.34 0.00 -1.68 0.13 
12.34 -0.23 -1.68 0.13 
12.34 -0.47 -1.68 0.13 
12.33 -0.70 -1.68 0.13 
12.31 -0.93 -1.68 0.13 
12.30 -1.17 -1.68 0.13 
12.27 -1.40 -1.68 0.13 
12.25 -1.63 -1.68 0.13 
12.22 -1.86 -1.68 0.13 
12.18 -2.10 -1.68 0.13 
12.14 -2.33 -1.68 0.13 
12.10 -2.56 -1.68 0.13 
12.05 -2.78 -1.68 0.13 
12.00 -3.01 -1.68 0.13 
11.94 -3.24 -1.68 0.13 
11.88 -3.47 -1.68 0.13 
11.82 -3.69 -1.68 0.13 
11.75 -3.91 -1.68 0.13 
11.67 -4.14 -1.68 0.13 
11.59 -4.36 -1.68 0.13 
11.51 -4.58 -1.68 0.13 
11.43 -4.80 -1.68 0.13 
11.33 -5.01 -1.68 0.13 
11.24 -5.23 -1.68 0.13 
11.14 -5.44 -1.68 0.13 
6.51 -3.33 -0.99 0.28 
6.16 -3.30 -0.95 0.37 
5.86 -3.29 -0.91 0.44 
5.58 -3.27 -0.88 0.48 
5.35 -3.27 -0.85 0.57 
5.15 -3.29 -0.83 0.61 
4.98 -3.31 -0.81 0.85 
4.89 -3.39 -0.81 0.94 
4.83 -3.48 -0.81 0.87 
4.79 -3.59 -0.81 0.81 
4.75 -3.71 -0.82 0.83 
4.74 -3.84 -0.83 0.65 
4.73 -3.99 -0.84 0.53 
9.34 -8.18 -1.69 0.13 
9.17 -8.34 -1.68 0.14 
8.95 -8.46 -1.67 0.48 
8.53 -8.37 -1.62 0.53 
8.14 -8.30 -1.58 0.55 
7.78 -8.24 -1.54 0.48 
7.61 -8.37 -1.54 0.13 
7.45 -8.51 -1.54 0.13 
7.29 -8.66 -1.54 0.13 
7.13 -8.79 -1.54 0.13 
6.96 -8.93 -1.54 0.13 
6.79 -9.06 -1.54 0.13 
6.62 -9.19 -1.54 0.13 
6.45 -9.31 -1.54 0.13 
6.27 -9.43 -1.54 0.13 
6.09 -9.55 -1.54 0.13 
5.91 -9.67 -1.54 0.13 
4.85 -8.28 -1.30 0.87 
4.65 -8.30 -1.29 0.88 
5.36 -9.99 -1.54 0.13 
5.17 -10.09 -1.54 0.13 
4.98 -10.19 -1.54 0.13 
4.78 -10.28 -1.54 0.13 
4.59 -10.37 -1.54 0.13 
4.39 -10.46 -1.54 0.13 
4.19 -10.54 -1.54 0.13 
3.99 -10.62 -1.54 0.13 
3.79 -10.70 -1.54 0.13 
3.59 -10.77 -1.54 0.13 
3.38 -10.83 -1.54 0.13 
3.18 -10.90 -1.54 0.13 
2.97 -10.96 -1.54 0.13 
2.77 -11.01 -1.54 0.13 
2.56 -11.06 -1.54 0.13 
2.35 -11.11 -1.54 0.13 
2.14 -11.15 -1.54 0.13 
1.92 -11.19 -1.54 0.13 
1.71 -11.23 -1.54 0.13 
1.50 -11.26 -1.54 0.13 
1.29 -11.29 -1.54 0.13 
1.07 -11.31 -1.54 0.13 
0.86 -11.33 -1.54 0.13 
0.64 -11.34 -1.54 0.13 
0.43 -11.35 -1.54 0.13 
0.22 -11.36 -1.54 0.13 
-0.00 -11.36 -1.54 0.13 
-0.22 -11.36 -1.54 0.13 
-0.43 -11.36 -1.54 0.13 
-0.64 -11.35 -1.54 0.13 
-0.86 -11.33 -1.54 0.13 
-1.07 -11.31 -1.54 0.13 
-1.29 -11.29 -1.54 0.13 
-1.50 -11.27 -1.54 0.13 
-1.71 -11.24 -1.54 0.13 
-1.93 -11.20 -1.54 0.13 
-2.14 -11.16 -1.54 0.13 
-2.35 -11.12 -1.54 0.13 
-2.56 -11.07 -1.54 0.13 
-2.77 -11.02 -1.54 0.13 
-2.98 -10.97 -1.54 0.13 
-3.18 -10.91 -1.54 0.13 
-3.39 -10.85 -1.54 0.13 
-3.59 -10.78 -1.54 0.13 
-3.80 -10.71 -1.54 0.13 
-4.00 -10.64 -1.54 0.13 
-4.20 -10.56 -1.54 0.13 
-4.40 -10.48 -1.54 0.13 
-4.60 -10.39 -1.54 0.13 
-4.79 -10.30 -1.54 0.13 
-4.99 -10.21 -1.54 0.13 
-5.18 -10.11 -1.54 0.13 
-5.37 -10.01 -1.54 0.13 
-5.56 -9.91 -1.54 0.13 
-5.74 -9.80 -1.54 0.13 
-5.93 -9.69 -1.54 0.13 
-6.11 -9.58 -1.54 0.13 
-6.29 -9.46 -1.54 0.13 
-6.47 -9.34 -1.54 0.13 
-6.64 -9.21 -1.54 0.13 
-6.81 -9.09 -1.54 0.13 
-6.98 -8.95 -1.54 0.13 
-7.15 -8.82 -1.54 0.13 
-7.32 -8.68 -1.54 0.13 
-7.48 -8.54 -1.54 0.13 
-7.64 -8.40 -1.54 0.13 
-7.81 -8.26 -1.54 0.54 
-7.97 -8.12 -1.55 0.53 
-8.29 -8.14 -1.58 0.62 
-8.64 -8.16 -1.61 0.60 
-8.99 -8.18 -1.65 0.59 
-9.34 -8.18 -1.69 0.14 
-9.51 -8.02 -1.69 0.14 
-9.68 -7.85 -1.69 0.14 
-9.83 -7.67 -1.69 0.13 
-9.98 -7.48 -1.69 0.13 
-10.11 -7.29 -1.69 0.13 
-10.25 -7.10 -1.69 0.13 
-10.38 -6.90 -1.69 0.13 
-10.51 -6.70 -1.69 0.13 
-10.63 -6.50 -1.69 0.13 
-10.75 -6.30 -1.69 0.13 
-10.87 -6.09 -1.69 0.13 
-10.98 -5.88 -1.69 0.13 
-11.08 -5.67 -1.69 0.13 
-11.19 -5.46 -1.69 0.13 
-11.29 -5.25 -1.69 0.13 
-11.38 -5.03 -1.69 0.13 
-11.48 -4.82 -1.69 0.13 
-11.56 -4.60 -1.69 0.13 
-11.65 -4.38 -1.69 0.13 
-11.72 -4.16 -1.69 0.13 
-11.80 -3.93 -1.69 0.13 
-11.87 -3.71 -1.69 0.13 
-11.94 -3.48 -1.69 0.13 
-12.00 -3.26 -1.69 0.13 
-12.05 -3.03 -1.69 0.13 
-12.11 -2.80 -1.69 0.13 
-12.16 -2.57 -1.69 0.13 
-12.20 -2.34 -1.69 0.13 
-12.24 -2.11 -1.69 0.13 
-10.54 -1.61 -1.45 0.72 
-10.55 -1.41 -1.45 0.72 
-12.33 -1.41 -1.69 0.13 
-12.35 -1.17 -1.69 0.13 
-12.37 -0.94 -1.69 0.13 
-12.39 -0.70 -1.69 0.13 
-12.39 -0.47 -1.69 0.13 
-12.40 -0.23 -1.69 0.13 
-12.29 -0.00 -1.68 0.13 
-10.70 0.20 -1.47 0.72 
-10.72 0.41 -1.47 0.71 
-12.26 0.70 -1.68 0.13 
-12.24 0.93 -1.68 0.13 
-12.22 1.16 -1.68 0.13 
-12.19 1.39 -1.68 0.13 
-12.16 1.62 -1.68 0.13 
-12.13 1.85 -1.68 0.13 
-12.09 2.08 -1.68 0.13 
-11.66 2.23 -1.63 0.39 
-12.00 2.53 -1.68 0.13 
-10.48 2.42 -1.48 0.57 
-10.04 2.52 -1.42 0.91 
-10.12 2.75 -1.44 0.14 
-10.09 2.94 -1.44 0.89 
-10.29 3.22 -1.48 0.35 
-10.11 3.37 -1.46 0.83 
-11.54 4.09 -1.68 0.13 
-11.46 4.31 -1.68 0.13 
-11.37 4.52 -1.68 0.13 
-11.28 4.74 -1.68 0.13 
-11.19 4.95 -1.68 0.13 
-11.09 5.16 -1.68 0.13 
-10.99 5.37 -1.68 0.13 
-10.89 5.57 -1.68 0.13 
-10.78 5.78 -1.68 0.13 
-10.66 5.98 -1.68 0.13 
-10.55 6.18 -1.68 0.13 
-10.42 6.37 -1.68 0.13 
-10.30 6.57 -1.68 0.13 
-10.17 6.76 -1.67 0.13 
-10.04 6.95 -1.67 0.13 
-9.91 7.14 -1.67 0.13 
-9.77 7.32 -1.67 0.13 
-9.62 7.51 -1.67 0.13 
-6.99 5.67 -1.23 0.66 
-6.75 5.69 -1.21 0.67 
-6.52 5.71 -1.19 0.68 
-6.32 5.75 -1.17 0.68 
-6.10 5.76 -1.15 0.73 
-5.89 5.78 -1.13 0.74 
-5.69 5.80 -1.11 0.75 
-5.50 5.82 -1.10 0.77 
-5.32 5.84 -1.08 0.79 
-5.14 5.87 -1.07 0.79 
-4.96 5.89 -1.06 0.81 
-4.79 5.91 -1.04 0.81 
-4.62 5.92 -1.03 0.82 
-4.45 5.94 -1.02 0.82 
-4.29 5.95 -1.01 0.83 
-4.13 5.97 -1.00 0.84 
-3.97 5.97 -0.98 0.77 
-3.77 5.92 -0.96 0.85 
-3.63 5.93 -0.95 0.86 
-3.48 5.94 -0.94 0.87 
-3.34 5.95 -0.94 0.87 
-3.20 5.97 -0.93 0.93 
-3.07 6.00 -0.92 0.93 
-2.95 6.04 -0.92 0.94 
-2.85 6.12 -0.93 0.93 
-2.75 6.21 -0.93 0.92 
-2.67 6.36 -0.95 0.69 
-2.61 6.57 -0.97 0.46 
-2.60 6.91 -1.01 0.31 
-2.67 7.54 -1.10 0.16 
-3.74 11.22 -1.62 0.92 
-3.51 11.23 -1.61 0.93 
-3.28 11.25 -1.61 0.93 
-3.06 11.27 -1.60 0.94 
-2.83 11.29 -1.60 0.94 
-2.61 11.30 -1.59 0.94 
-2.39 11.31 -1.59 0.94 
-2.17 11.33 -1.58 0.94 
-1.95 11.34 -1.58 0.95 
-1.73 11.35 -1.57 0.95 
-1.51 11.36 -1.57 0.95 
-1.30 11.37 -1.57 0.95 
-1.08 11.38 -1.57 0.95 
-0.86 11.38 -1.57 0.95 
-0.65 11.39 -1.56 0.95 
-0.43 11.39 -1.56 0.95 
-0.22 11.40 -1.56 0.95 
0.00 11.40 -1.56 0.95 
0.22 11.40 -1.56 0.95 
0.43 11.40 -1.56 0.95 
0.65 11.40 -1.57 0.95 
0.87 11.40 -1.57 0.95 
1.08 11.40 -1.57 0.95 
1.30 11.40 -1.57 0.95 
1.52 11.40 -1.58 0.95 
1.74 11.39 -1.58 0.95 
1.96 11.39 -1.58 0.94 
2.18 11.38 -1.59 0.94 
2.40 11.37 -1.59 0.94 
2.63 11.36 -1.60 0.94 
2.85 11.35 -1.61 0.93 
3.08 11.35 -1.61 0.93 
3.31 11.34 -1.62 0.92 
3.54 11.32 -1.63 0.92 
3.77 11.31 -1.63 0.92 
4.00 11.29 -1.64 0.92 
4.24 11.28 -1.65 0.91 
4.47 11.23 -1.66 0.15 
4.68 11.15 -1.66 0.15 
4.89 11.07 -1.66 0.15 
5.11 10.98 -1.66 0.15 
5.32 10.89 -1.66 0.15 
5.53 10.80 -1.66 0.15 
5.73 10.70 -1.66 0.13 
5.94 10.59 -1.66 0.13 
6.14 10.47 -1.66 0.13 
6.33 10.36 -1.66 0.13 
6.53 10.24 -1.66 0.13 
6.72 10.11 -1.66 0.13 
6.91 9.98 -1.67 0.13 
7.10 9.85 -1.67 0.13 
7.29 9.72 -1.67 0.13 
7.47 9.58 -1.67 0.13 
7.65 9.43 -1.67 0.13 
7.83 9.29 -1.67 0.13 
8.00 9.14 -1.67 0.13 
8.18 8.99 -1.67 0.13 
8.34 8.83 -1.67 0.13 
8.51 8.67 -1.67 0.13 
8.67 8.51 -1.67 0.13 
8.84 8.35 -1.67 0.13 
8.99 8.18 -1.67 0.13 
9.15 8.01 -1.67 0.13 
9.30 7.83 -1.67 0.13 
9.45 7.66 -1.67 0.13 
9.59 7.48 -1.67 0.13 
9.73 7.30 -1.67 0.13 
9.87 7.11 -1.67 0.13 
10.00 6.93 -1.67 0.13 
10.13 6.74 -1.67 0.13 
10.26 6.54 -1.67 0.13 
10.38 6.35 -1.67 0.13 
10.50 6.15 -1.67 0.13 
10.62 5.95 -1.67 0.13 
10.73 5.75 -1.67 0.13 
10.84 5.55 -1.67 0.13 
10.94 5.34 -1.67 0.13 
11.05 5.14 -1.67 0.13 
11.14 4.93 -1.67 0.13 
11.24 4.72 -1.67 0.13 
11.32 4.50 -1.67 0.13 
11.41 4.29 -1.67 0.13 
11.49 4.07 -1.67 0.13 
11.57 3.86 -1.67 0.13 
11.64 3.64 -1.67 0.13 
11.71 3.42 -1.67 0.13 
11.77 3.19 -1.67 0.13 
11.83 2.97 -1.67 0.13 
11.89 2.75 -1.67 0.13 
11.94 2.52 -1.67 0.13 
11.99 2.30 -1.67 0.13 
12.03 2.07 -1.67 0.13 
12.07 1.84 -1.67 0.13 
12.11 1.61 -1.67 0.13 
12.14 1.38 -1.68 0.13 
12.16 1.15 -1.68 0.13 
12.19 0.92 -1.68 0.13 
12.20 0.69 -1.68 0.13 
12.22 0.46 -1.68 0.13 
12.23 0.23 -1.68 0.13 
12.23 -0.00 -1.68 0.13 
12.23 -0.23 -1.68 0.13 
12.23 -0.46 -1.68 0.13 
12.22 -0.69 -1.68 0.13 
12.20 -0.93 -1.68 0.13 
12.19 -1.16 -1.68 0.13 
12.17 -1.39 -1.68 0.13 
12.14 -1.62 -1.68 0.13 
12.11 -1.85 -1.68 0.13 
12.07 -2.08 -1.68 0.13 
12.04 -2.31 -1.68 0.13 
11.99 -2.53 -1.68 0.13 
11.94 -2.76 -1.68 0.13 
11.89 -2.99 -1.68 0.13 
11.84 -3.21 -1.68 0.13 
11.78 -3.44 -1.68 0.13 
11.71 -3.66 -1.68 0.13 
11.64 -3.88 -1.68 0.13 
11.57 -4.10 -1.68 0.13 
11.49 -4.32 -1.68 0.13 
11.41 -4.54 -1.68 0.13 
11.32 -4.75 -1.68 0.13 
11.23 -4.97 -1.68 0.13 
11.14 -5.18 -1.68 0.13 
11.04 -5.39 -1.68 0.13 
6.50 -3.33 -1.00 0.28 
6.16 -3.30 -0.96 0.37 
5.86 -3.29 -0.92 0.44 
5.58 -3.27 -0.89 0.48 
5.35 -3.27 -0.86 0.57 
5.15 -3.29 -0.84 0.61 
4.98 -3.31 -0.82 0.85 
4.89 -3.38 -0.82 0.94 
4.83 -3.48 -0.82 0.87 
4.78 -3.59 -0.82 0.81 
4.75 -3.70 -0.83 0.83 
4.73 -3.84 -0.84 0.65 
4.73 -3.98 -0.85 0.54 
9.26 -8.11 -1.69 0.14 
9.09 -8.27 -1.69 0.14 
8.92 -8.43 -1.68 0.14 
8.53 -8.37 -1.64 0.53 
8.14 -8.30 -1.59 0.55 
7.78 -8.23 -1.55 0.56 
7.55 -8.30 -1.54 0.13 
7.39 -8.44 -1.54 0.13 
7.23 -8.58 -1.54 0.13 
7.07 -8.71 -1.54 0.13 
6.90 -8.85 -1.54 0.13 
6.73 -8.98 -1.54 0.13 
6.56 -9.11 -1.54 0.13 
6.39 -9.23 -1.54 0.13 
6.22 -9.35 -1.54 0.13 
6.04 -9.47 -1.54 0.13 
5.86 -9.58 -1.54 0.13 
4.85 -8.28 -1.32 0.87 
4.65 -8.30 -1.30 0.88 
5.31 -9.90 -1.54 0.13 
5.12 -10.00 -1.54 0.13 
4.93 -10.10 -1.54 0.13 
4.74 -10.19 -1.54 0.13 
4.55 -10.28 -1.54 0.13 
4.35 -10.37 -1.54 0.13 
4.15 -10.45 -1.54 0.13 
3.96 -10.53 -1.54 0.13 
3.76 -10.60 -1.54 0.13 
3.56 -10.67 -1.54 0.13 
3.35 -10.74 -1.54 0.13 
3.15 -10.80 -1.54 0.13 
2.95 -10.86 -1.54 0.13 
2.74 -10.91 -1.54 0.13 
2.53 -10.96 -1.54 0.13 
2.33 -11.01 -1.54 0.13 
2.12 -11.05 -1.54 0.13 
1.91 -11.09 -1.54 0.13 
1.70 -11.13 -1.54 0.13 
1.49 -11.16 -1.54 0.13 
1.28 -11.19 -1.54 0.13 
1.06 -11.21 -1.54 0.13 
0.85 -11.23 -1.54 0.13 
0.64 -11.24 -1.54 0.13 
0.43 -11.25 -1.54 0.13 
0.21 -11.26 -1.54 0.13 
-0.00 -11.26 -1.54 0.13 
-0.21 -11.26 -1.54 0.13 
-0.43 -11.25 -1.54 0.13 
-0.64 -11.24 -1.54 0.13 
-0.85 -11.23 -1.54 0.13 
-1.06 -11.21 -1.54 0.13 
-1.28 -11.19 -1.54 0.13 
-1.49 -11.17 -1.54 0.13 
-1.70 -11.14 -1.54 0.13 
-1.91 -11.10 -1.54 0.13 
-2.12 -11.06 -1.54 0.13 
-2.33 -11.02 -1.54 0.13 
-2.54 -10.98 -1.54 0.13 
-2.74 -10.93 -1.54 0.13 
-2.95 -10.87 -1.54 0.13 
-3.15 -10.81 -1.54 0.13 
-3.36 -10.75 -1.54 0.13 
-3.56 -10.69 -1.54 0.13 
-3.76 -10.62 -1.54 0.13 
-3.96 -10.54 -1.54 0.13 
-4.16 -10.47 -1.54 0.13 
-4.36 -10.38 -1.54 0.13 
-4.55 -10.30 -1.54 0.13 
-4.75 -10.21 -1.54 0.13 
-4.94 -10.12 -1.54 0.13 
-5.13 -10.02 -1.54 0.13 
-5.32 -9.92 -1.54 0.13 
-5.51 -9.82 -1.54 0.13 
-5.69 -9.71 -1.54 0.13 
-5.87 -9.60 -1.54 0.13 
-6.05 -9.49 -1.54 0.13 
-6.23 -9.37 -1.54 0.13 
-6.41 -9.25 -1.54 0.13 
-6.58 -9.13 -1.54 0.13 
-6.75 -9.00 -1.54 0.13 
-6.92 -8.87 -1.54 0.13 
-7.09 -8.74 -1.54 0.13 
-7.25 -8.60 -1.54 0.13 
-7.41 -8.46 -1.54 0.13 
-7.57 -8.32 -1.54 0.13 
-7.72 -8.18 -1.54 0.13 
-7.96 -8.12 -1.56 0.63 
-8.29 -8.14 -1.59 0.62 
-8.63 -8.16 -1.63 0.60 
-8.99 -8.18 -1.67 0.59 
-9.27 -8.11 -1.69 0.14 
-9.43 -7.95 -1.69 0.14 
-9.60 -7.78 -1.69 0.14 
-9.75 -7.60 -1.69 0.13 
-9.89 -7.41 -1.69 0.13 
-10.02 -7.22 -1.69 0.13 
-10.16 -7.03 -1.69 0.13 
-10.29 -6.84 -1.69 0.13 
-10.41 -6.64 -1.69 0.13 
-10.54 -6.44 -1.69 0.13 
-10.65 -6.24 -1.69 0.13 
-10.77 -6.04 -1.69 0.13 
-10.88 -5.83 -1.69 0.13 
-10.99 -5.62 -1.69 0.13 
-11.09 -5.41 -1.69 0.13 
-11.19 -5.20 -1.69 0.13 
-11.28 -4.99 -1.69 0.13 
-11.37 -4.77 -1.69 0.13 
-11.46 -4.56 -1.69 0.13 
-11.54 -4.34 -1.69 0.13 
-11.62 -4.12 -1.69 0.13 
-11.69 -3.90 -1.69 0.13 
-11.76 -3.67 -1.69 0.13 
-11.83 -3.45 -1.69 0.13 
-11.89 -3.23 -1.69 0.13 
-11.95 -3.00 -1.69 0.13 
-12.00 -2.77 -1.69 0.13 
-12.05 -2.54 -1.69 0.13 
-12.09 -2.32 -1.69 0.13 
-12.13 -2.09 -1.69 0.13 
-10.55 -1.61 -1.46 0.72 
-10.56 -1.41 -1.46 0.72 
-12.22 -1.39 -1.69 0.13 
-12.24 -1.16 -1.69 0.13 
-12.26 -0.93 -1.69 0.13 
-12.28 -0.70 -1.69 0.13 
-12.28 -0.47 -1.69 0.13 
-12.29 -0.23 -1.69 0.13 
-12.18 -0.00 -1.68 0.13 
-10.71 0.20 -1.48 0.71 
-10.73 0.41 -1.49 0.71 
-12.15 0.69 -1.68 0.13 
-12.14 0.92 -1.68 0.13 
-12.11 1.15 -1.68 0.13 
-12.09 1.38 -1.68 0.13 
-12.06 1.61 -1.68 0.13 
-12.02 1.83 -1.68 0.13 
-11.98 2.06 -1.68 0.13 
-11.69 2.24 -1.65 0.39 
-11.89 2.51 -1.68 0.13 
-11.84 2.74 -1.68 0.13 
-10.04 2.52 -1.43 0.91 
-11.72 3.18 -1.68 0.13 
-11.66 3.40 -1.68 0.13 
-10.29 3.22 -1.49 0.35 
-10.11 3.37 -1.47 0.83 
-11.44 4.06 -1.68 0.13 
-11.36 4.27 -1.68 0.13 
-11.27 4.48 -1.68 0.13 
-11.19 4.70 -1.68 0.13 
-11.09 4.91 -1.68 0.13 
-11.00 5.11 -1.68 0.13 
-10.89 5.32 -1.68 0.13 
-10.79 5.52 -1.68 0.13 
-10.68 5.73 -1.68 0.13 
-10.57 5.93 -1.68 0.13 
-10.45 6.12 -1.68 0.13 
-10.33 6.32 -1.68 0.13 
-10.21 6.51 -1.68 0.13 
-10.08 6.70 -1.68 0.13 
-9.95 6.89 -1.67 0.13 
-9.82 7.08 -1.67 0.13 
-9.68 7.26 -1.67 0.13 
-9.54 7.44 -1.67 0.13 
-6.99 5.67 -1.25 0.66 
-6.75 5.69 -1.22 0.67 
-6.52 5.71 -1.20 0.68 
-6.32 5.75 -1.18 0.68 
-6.10 5.76 -1.16 0.73 
-5.89 5.78 -1.14 0.74 
-5.69 5.80 -1.12 0.75 
-5.50 5.82 -1.11 0.77 
-5.32 5.84 -1.09 0.79 
-5.14 5.86 -1.08 0.79 
-4.96 5.89 -1.06 0.81 
-4.79 5.91 -1.05 0.81 
-4.62 5.92 -1.04 0.82 
-4.45 5.94 -1.03 0.84 
-4.29 5.95 -1.02 0.83 
-4.13 5.97 -1.00 0.84 
-3.97 5.97 -0.99 0.77 
-3.77 5.92 -0.97 0.85 
-3.63 5.93 -0.96 0.86 
-3.48 5.94 -0.95 0.87 
-3.34 5.95 -0.94 0.87 
-3.24 6.05 -0.95 0.33 
-3.07 6.00 -0.93 0.93 
-2.95 6.03 -0.93 0.94 
-2.85 6.12 -0.93 0.93 
-2.75 6.21 -0.94 0.92 
-2.67 6.36 -0.95 0.69 
-2.61 6.56 -0.98 0.46 
-2.60 6.91 -1.02 0.31 
-2.67 7.54 -1.11 0.16 
-3.74 11.21 -1.64 0.92 
-3.51 11.23 -1.63 0.93 
-3.28 11.25 -1.62 0.93 
-3.06 11.27 -1.62 0.94 
-2.83 11.28 -1.61 0.94 
-2.61 11.30 -1.60 0.94 
-2.39 11.31 -1.60 0.94 
-2.17 11.32 -1.60 0.94 
-1.95 11.33 -1.59 0.95 
-1.73 11.35 -1.59 0.95 
-1.51 11.36 -1.59 0.95 
-1.30 11.37 -1.58 0.95 
-1.08 11.37 -1.58 0.95 
-0.86 11.38 -1.58 0.95 
-0.65 11.38 -1.58 0.95 
-0.43 11.39 -1.58 0.95 
-0.22 11.40 -1.58 0.95 
0.00 11.40 -1.58 0.95 
0.22 11.40 -1.58 0.95 
0.43 11.40 -1.58 0.95 
0.65 11.40 -1.58 0.95 
0.86 11.40 -1.58 0.95 
1.08 11.40 -1.58 0.95 
1.30 11.40 -1.59 0.95 
1.52 11.39 -1.59 0.95 
1.74 11.39 -1.59 0.95 
1.96 11.38 -1.60 0.94 
2.18 11.38 -1.60 0.94 
2.40 11.37 -1.61 0.94 
2.63 11.36 -1.61 0.94 
2.85 11.35 -1.62 0.93 
3.08 11.34 -1.63 0.93 
3.31 11.33 -1.63 0.92 
3.54 11.32 -1.64 0.92 
3.77 11.30 -1.65 0.92 
4.00 11.29 -1.66 0.15 
4.22 11.22 -1.66 0.15 
4.43 11.14 -1.66 0.15 
4.64 11.06 -1.66 0.15 
4.86 10.98 -1.66 0.15 
5.07 10.89 -1.66 0.15 
5.28 10.81 -1.66 0.15 
5.48 10.71 -1.66 0.13 
5.68 10.60 -1.66 0.13 
5.88 10.50 -1.66 0.13 
6.08 10.38 -1.66 0.13 
6.28 10.27 -1.66 0.13 
6.47 10.15 -1.66 0.13 
6.66 10.02 -1.67 0.13 
6.85 9.90 -1.67 0.13 
7.04 9.77 -1.67 0.13 
7.22 9.63 -1.67 0.13 
7.40 9.49 -1.67 0.13 
7.58 9.35 -1.67 0.13 
7.76 9.21 -1.67 0.13 
7.93 9.06 -1.67 0.13 
8.10 8.91 -1.67 0.13 
8.27 8.76 -1.67 0.13 
8.44 8.60 -1.67 0.13 
8.60 8.44 -1.67 0.13 
8.76 8.27 -1.67 0.13 
8.91 8.11 -1.67 0.13 
9.07 7.94 -1.67 0.13 
9.22 7.77 -1.67 0.13 
9.36 7.59 -1.67 0.13 
9.51 7.41 -1.67 0.13 
9.65 7.23 -1.67 0.13 
9.78 7.05 -1.67 0.13 
9.91 6.87 -1.67 0.13 
10.04 6.68 -1.67 0.13 
10.17 6.49 -1.67 0.13 
10.29 6.29 -1.67 0.13 
10.41 6.10 -1.67 0.13 
10.53 5.90 -1.67 0.13 
10.64 5.70 -1.67 0.13 
10.75 5.50 -1.67 0.13 
10.85 5.30 -1.67 0.13 
10.95 5.09 -1.67 0.13 
11.05 4.88 -1.67 0.13 
11.14 4.68 -1.67 0.13 
11.23 4.46 -1.67 0.13 
11.31 4.25 -1.67 0.13 
11.39 4.04 -1.67 0.13 
11.47 3.82 -1.67 0.13 
11.54 3.60 -1.67 0.13 
11.61 3.39 -1.67 0.13 
11.67 3.17 -1.67 0.13 
11.73 2.95 -1.67 0.13 
11.79 2.72 -1.67 0.13 
11.84 2.50 -1.67 0.13 
11.88 2.28 -1.67 0.13 
11.93 2.05 -1.67 0.13 
11.97 1.83 -1.67 0.13 
12.00 1.60 -1.67 0.13 
12.03 1.37 -1.68 0.13 
12.06 1.14 -1.68 0.13 
12.08 0.92 -1.68 0.13 
12.10 0.69 -1.68 0.13 
12.11 0.46 -1.68 0.13 
12.12 0.23 -1.68 0.13 
12.12 -0.00 -1.68 0.13 
12.12 -0.23 -1.68 0.13 
12.12 -0.46 -1.68 0.13 
12.11 -0.69 -1.68 0.13 
12.10 -0.92 -1.68 0.13 
12.08 -1.15 -1.68 0.13 
12.06 -1.38 -1.68 0.13 
12.03 -1.60 -1.68 0.13 
12.00 -1.83 -1.68 0.13 
11.97 -2.06 -1.68 0.13 
11.93 -2.29 -1.68 0.13 
11.89 -2.51 -1.68 0.13 
11.84 -2.74 -1.68 0.13 
11.79 -2.96 -1.68 0.13 
11.73 -3.18 -1.68 0.13 
11.67 -3.41 -1.68 0.13 
11.61 -3.63 -1.68 0.13 
11.54 -3.85 -1.68 0.13 
11.47 -4.06 -1.68 0.13 
11.39 -4.28 -1.68 0.13 
11.31 -4.50 -1.68 0.13 
11.22 -4.71 -1.68 0.13 
11.13 -4.92 -1.68 0.13 
11.04 -5.13 -1.68 0.13 
10.94 -5.34 -1.68 0.13 
6.49 -3.32 -1.01 0.28 
6.15 -3.30 -0.97 0.41 
5.86 -3.28 -0.93 0.44 
5.58 -3.27 -0.90 0.48 
5.35 -3.27 -0.87 0.57 
5.15 -3.29 -0.85 0.61 
4.98 -3.31 -0.83 0.85 
4.89 -3.38 -0.82 0.95 
4.82 -3.48 -0.82 0.87 
4.78 -3.58 -0.83 0.81 
4.74 -3.70 -0.83 0.83 
4.73 -3.83 -0.84 0.65 
4.72 -3.98 -0.85 0.54 
9.19 -8.04 -1.69 0.13 
9.02 -8.20 -1.69 0.14 
8.84 -8.36 -1.68 0.14 
8.52 -8.36 -1.65 0.53 
8.14 -8.29 -1.61 0.55 
7.77 -8.23 -1.57 0.56 
7.48 -8.22 -1.54 0.13 
7.32 -8.36 -1.54 0.13 
7.16 -8.50 -1.54 0.13 
7.00 -8.64 -1.54 0.13 
6.84 -8.77 -1.54 0.13 
6.67 -8.90 -1.54 0.13 
6.50 -9.02 -1.54 0.13 
6.33 -9.15 -1.54 0.13 
6.16 -9.27 -1.54 0.13 
5.98 -9.38 -1.54 0.13 
5.81 -9.50 -1.54 0.13 
4.85 -8.28 -1.33 0.87 
4.65 -8.30 -1.32 0.88 
5.26 -9.81 -1.54 0.13 
5.07 -9.91 -1.54 0.13 
4.89 -10.01 -1.54 0.13 
4.70 -10.10 -1.54 0.13 
4.51 -10.19 -1.54 0.13 
4.31 -10.27 -1.54 0.13 
4.12 -10.35 -1.54 0.13 
3.92 -10.43 -1.54 0.13 
3.72 -10.51 -1.54 0.13 
3.52 -10.58 -1.54 0.13 
3.32 -10.64 -1.54 0.13 
3.12 -10.70 -1.54 0.13 
2.92 -10.76 -1.54 0.13 
2.72 -10.82 -1.54 0.13 
2.51 -10.87 -1.54 0.13 
2.31 -10.91 -1.54 0.13 
2.10 -10.95 -1.54 0.13 
1.89 -10.99 -1.54 0.13 
1.68 -11.03 -1.54 0.13 
1.47 -11.06 -1.54 0.13 
1.26 -11.09 -1.54 0.13 
1.05 -11.11 -1.54 0.13 
0.84 -11.13 -1.54 0.13 
0.63 -11.14 -1.54 0.13 
0.42 -11.15 -1.54 0.13 
0.21 -11.16 -1.54 0.13 
-0.00 -11.16 -1.54 0.13 
-0.21 -11.16 -1.54 0.13 
-0.42 -11.15 -1.54 0.13 
-0.63 -11.14 -1.54 0.13 
-0.84 -11.13 -1.54 0.13 
-1.05 -11.11 -1.54 0.13 
-1.26 -11.09 -1.54 0.13 
-1.47 -11.07 -1.54 0.13 
-1.68 -11.04 -1.54 0.13 
-1.89 -11.00 -1.54 0.13 
-2.10 -10.96 -1.54 0.13 
-2.31 -10.92 -1.54 0.13 
-2.51 -10.88 -1.54 0.13 
-2.72 -10.83 -1.54 0.13 
-2.92 -10.77 -1.54 0.13 
-3.13 -10.72 -1.54 0.13 
-3.33 -10.66 -1.54 0.13 
-3.53 -10.59 -1.54 0.13 
-3.73 -10.52 -1.54 0.13 
-3.93 -10.45 -1.54 0.13 
-4.12 -10.37 -1.54 0.13 
-4.32 -10.29 -1.54 0.13 
-4.51 -10.21 -1.54 0.13 
-4.71 -10.12 -1.54 0.13 
-4.90 -10.03 -1.54 0.13 
-5.09 -9.93 -1.54 0.13 
-5.27 -9.84 -1.54 0.13 
-5.46 -9.73 -1.54 0.13 
-5.64 -9.63 -1.54 0.13 
-5.82 -9.52 -1.54 0.13 
-6.00 -9.41 -1.54 0.13 
-6.18 -9.29 -1.54 0.13 
-6.35 -9.17 -1.54 0.13 
-6.52 -9.05 -1.54 0.13 
-6.69 -8.92 -1.54 0.13 
-6.86 -8.79 -1.54 0.13 
-7.02 -8.66 -1.54 0.13 
-7.19 -8.53 -1.54 0.13 
-7.35 -8.39 -1.54 0.13 
-7.50 -8.25 -1.54 0.13 
-7.66 -8.10 -1.54 0.13 
-7.96 -8.11 -1.57 0.63 
-8.29 -8.13 -1.61 0.62 
-8.63 -8.15 -1.64 0.60 
-8.99 -8.18 -1.68 0.59 
-9.19 -8.05 -1.69 0.14 
-9.36 -7.88 -1.69 0.14 
-9.52 -7.72 -1.69 0.13 
-9.66 -7.53 -1.69 0.13 
-9.80 -7.35 -1.69 0.13 
-9.93 -7.16 -1.69 0.13 
-10.07 -6.97 -1.69 0.13 
-10.20 -6.78 -1.69 0.13 
-10.32 -6.58 -1.69 0.13 
-10.44 -6.39 -1.69 0.13 
-10.56 -6.19 -1.69 0.13 
-10.67 -5.98 -1.69 0.13 
-10.78 -5.78 -1.69 0.13 
-10.89 -5.57 -1.69 0.13 
-10.99 -5.37 -1.69 0.13 
-11.09 -5.16 -1.69 0.13 
-11.18 -4.94 -1.69 0.13 
-11.27 -4.73 -1.69 0.13 
-11.36 -4.52 -1.69 0.13 
-11.44 -4.30 -1.69 0.13 
-11.52 -4.08 -1.69 0.13 
-11.59 -3.86 -1.69 0.13 
-11.66 -3.64 -1.69 0.13 
-11.72 -3.42 -1.69 0.13 
-11.78 -3.20 -1.69 0.13 
-11.84 -2.97 -1.69 0.13 
-11.89 -2.75 -1.69 0.13 
-11.94 -2.52 -1.69 0.13 
-11.98 -2.30 -1.69 0.13 
-12.02 -2.07 -1.69 0.13 
-10.56 -1.61 -1.48 0.72 
