VERSION 0.7
FIELDS x y z intensity
SIZE 4 4 4 8
TYPE F F F F
COUNT 1 1 1 1
WIDTH 2015
HEIGHT 1
VIEWPOINT 0.0 0.0 0.0 1.0 0.0 0.0 0.0
POINTS 2015
DATA ascii
-12.56 7.04 -1.68 0.11 
-12.41 7.27 -1.68 0.11 
-12.27 7.50 -1.68 0.11 
-12.12 7.73 -1.67 0.11 
-11.97 7.95 -1.67 0.11 
-11.81 8.18 -1.67 0.11 
-11.65 8.39 -1.67 0.11 
-11.48 8.61 -1.67 0.11 
-11.31 8.82 -1.67 0.11 
-11.14 9.03 -1.67 0.11 
-10.96 9.23 -1.67 0.11 
-10.78 9.44 -1.67 0.11 
-10.59 9.63 -1.67 0.11 
-10.40 9.83 -1.67 0.11 
-10.21 10.02 -1.67 0.11 
-10.01 10.21 -1.67 0.11 
-9.81 10.38 -1.66 0.12 
-5.25 5.77 -0.91 0.75 
-5.07 5.79 -0.90 0.76 
-4.89 5.80 -0.88 0.78 
-4.73 5.84 -0.88 0.79 
-4.56 5.85 -0.86 0.80 
-4.40 5.87 -0.85 0.82 
-4.24 5.88 -0.84 0.83 
-4.08 5.89 -0.84 0.84 
-3.93 5.91 -0.83 0.86 
-3.78 5.93 -0.82 0.86 
-3.63 5.94 -0.81 0.87 
-3.49 5.96 -0.80 0.88 
-3.35 5.97 -0.80 0.89 
-3.21 5.99 -0.79 0.90 
-3.07 6.00 -0.79 0.90 
-2.94 6.01 -0.78 0.90 
-2.80 6.02 -0.77 0.91 
-2.67 6.03 -0.77 0.92 
-2.54 6.05 -0.76 0.92 
-2.41 6.06 -0.76 0.93 
-2.28 6.06 -0.75 0.89 
-2.15 6.05 -0.75 0.91 
-2.02 6.06 -0.74 0.91 
-1.89 6.05 -0.74 0.89 
-1.76 6.04 -0.73 0.90 
-1.64 6.05 -0.73 0.96 
-1.52 6.06 -0.73 0.96 
-1.40 6.08 -0.73 0.97 
-1.29 6.11 -0.73 0.95 
-1.19 6.19 -0.73 0.83 
-1.08 6.28 -0.74 0.83 
-0.98 6.45 -0.76 0.50 
-0.90 6.76 -0.79 0.26 
-1.46 12.77 -1.50 0.11 
-1.21 12.79 -1.50 0.11 
-0.97 12.81 -1.50 0.11 
-0.73 12.82 -1.50 0.11 
-0.49 12.83 -1.50 0.11 
-0.24 12.84 -1.50 0.11 
-0.00 12.84 -1.50 0.11 
0.24 12.83 -1.49 0.11 
0.49 12.82 -1.49 0.11 
0.73 12.81 -1.49 0.11 
0.97 12.79 -1.49 0.11 
1.21 12.77 -1.49 0.11 
1.45 12.74 -1.49 0.11 
1.69 12.71 -1.49 0.11 
1.93 12.67 -1.49 0.11 
2.17 12.63 -1.49 0.11 
2.41 12.59 -1.49 0.11 
2.65 12.54 -1.49 0.11 
2.89 12.49 -1.49 0.11 
3.12 12.43 -1.49 0.11 
3.36 12.37 -1.49 0.11 
3.59 12.30 -1.49 0.11 
3.82 12.23 -1.49 0.11 
4.05 12.16 -1.49 0.11 
4.28 12.08 -1.49 0.11 
4.51 11.99 -1.49 0.11 
4.73 11.91 -1.49 0.11 
4.96 11.81 -1.49 0.11 
5.18 11.72 -1.49 0.11 
5.40 11.62 -1.49 0.11 
5.62 11.51 -1.49 0.11 
5.84 11.41 -1.49 0.11 
6.05 11.29 -1.49 0.11 
6.27 11.18 -1.49 0.11 
6.52 11.14 -1.50 0.86 
6.79 11.11 -1.52 0.85 
7.07 11.08 -1.53 0.85 
7.34 11.05 -1.54 0.84 
7.62 11.01 -1.56 0.84 
7.91 10.98 -1.58 0.83 
8.20 10.94 -1.59 0.83 
8.50 10.89 -1.61 0.82 
8.80 10.85 -1.63 0.81 
9.05 10.74 -1.64 0.13 
9.27 10.59 -1.64 0.13 
9.48 10.42 -1.64 0.13 
9.69 10.26 -1.64 0.11 
9.88 10.07 -1.64 0.11 
10.08 9.89 -1.64 0.11 
10.26 9.70 -1.64 0.11 
10.45 9.50 -1.64 0.11 
10.63 9.30 -1.65 0.11 
10.80 9.10 -1.65 0.11 
10.98 8.90 -1.65 0.11 
11.14 8.69 -1.65 0.11 
11.31 8.48 -1.65 0.11 
11.47 8.27 -1.65 0.11 
11.63 8.05 -1.65 0.11 
11.78 7.83 -1.65 0.11 
11.93 7.61 -1.65 0.11 
12.07 7.38 -1.65 0.11 
12.22 7.16 -1.65 0.11 
12.35 6.93 -1.65 0.11 
12.48 6.69 -1.65 0.11 
12.61 6.46 -1.65 0.11 
12.74 6.22 -1.65 0.11 
12.86 5.98 -1.65 0.11 
12.97 5.74 -1.65 0.11 
13.08 5.49 -1.65 0.11 
13.19 5.24 -1.65 0.11 
13.29 5.00 -1.65 0.11 
13.38 4.74 -1.65 0.11 
13.48 4.49 -1.65 0.11 
13.56 4.24 -1.66 0.11 
13.65 3.98 -1.66 0.11 
13.72 3.72 -1.66 0.11 
13.80 3.46 -1.66 0.11 
13.87 3.20 -1.66 0.11 
13.93 2.94 -1.66 0.11 
13.99 2.68 -1.66 0.11 
14.04 2.41 -1.66 0.11 
14.09 2.15 -1.66 0.11 
14.13 1.88 -1.66 0.11 
14.17 1.62 -1.66 0.11 
14.21 1.35 -1.66 0.11 
14.23 1.08 -1.66 0.11 
14.26 0.81 -1.66 0.11 
14.28 0.54 -1.66 0.11 
14.29 0.27 -1.66 0.11 
14.30 -0.00 -1.67 0.11 
14.30 -0.27 -1.67 0.11 
14.30 -0.54 -1.67 0.11 
14.30 -0.81 -1.67 0.11 
14.28 -1.08 -1.67 0.11 
14.27 -1.35 -1.67 0.11 
14.24 -1.62 -1.67 0.11 
14.22 -1.89 -1.67 0.11 
14.19 -2.16 -1.67 0.11 
14.15 -2.43 -1.67 0.11 
14.11 -2.70 -1.67 0.11 
14.06 -2.97 -1.67 0.11 
14.01 -3.24 -1.67 0.11 
13.95 -3.50 -1.68 0.11 
13.89 -3.77 -1.68 0.11 
13.82 -4.03 -1.68 0.11 
13.75 -4.29 -1.68 0.11 
13.67 -4.56 -1.68 0.11 
13.59 -4.82 -1.68 0.11 
13.50 -5.07 -1.68 0.11 
13.41 -5.33 -1.68 0.11 
13.31 -5.59 -1.68 0.11 
13.21 -5.84 -1.68 0.11 
13.10 -6.09 -1.68 0.11 
12.99 -6.34 -1.68 0.11 
6.18 -3.16 -0.81 0.13 
6.12 -3.28 -0.81 0.36 
5.81 -3.26 -0.78 0.40 
5.54 -3.25 -0.75 0.47 
5.33 -3.26 -0.73 0.52 
5.13 -3.27 -0.71 0.56 
4.95 -3.29 -0.69 0.61 
4.85 -3.36 -0.69 0.80 
4.81 -3.47 -0.69 0.78 
4.78 -3.58 -0.70 0.72 
4.74 -3.70 -0.70 0.64 
4.74 -3.84 -0.71 0.63 
4.74 -3.99 -0.72 0.55 
9.95 -8.72 -1.54 0.11 
9.79 -8.91 -1.54 0.11 
9.63 -9.09 -1.54 0.11 
9.46 -9.28 -1.54 0.11 
9.28 -9.46 -1.54 0.11 
9.11 -9.64 -1.54 0.11 
8.93 -9.81 -1.54 0.11 
8.74 -9.98 -1.55 0.11 
8.55 -10.15 -1.55 0.11 
8.36 -10.32 -1.55 0.11 
8.17 -10.48 -1.55 0.11 
7.97 -10.63 -1.55 0.11 
7.78 -10.79 -1.55 0.11 
5.79 -8.36 -1.18 0.83 
5.60 -8.42 -1.18 0.47 
7.16 -11.22 -1.55 0.11 
6.95 -11.36 -1.55 0.11 
6.73 -11.50 -1.55 0.11 
6.52 -11.63 -1.55 0.11 
6.30 -11.75 -1.55 0.11 
6.08 -11.87 -1.55 0.11 
5.85 -11.99 -1.55 0.11 
5.63 -12.10 -1.55 0.11 
5.12 -11.59 -1.48 0.46 
5.17 -12.32 -1.56 0.11 
4.94 -12.42 -1.56 0.11 
4.70 -12.51 -1.56 0.11 
4.47 -12.60 -1.56 0.11 
4.23 -12.69 -1.56 0.11 
3.99 -12.77 -1.56 0.11 
3.75 -12.85 -1.56 0.11 
3.51 -12.92 -1.56 0.11 
3.26 -12.99 -1.56 0.11 
3.02 -13.05 -1.56 0.11 
2.77 -13.11 -1.56 0.11 
2.52 -13.16 -1.56 0.11 
2.27 -13.21 -1.56 0.11 
2.02 -13.25 -1.56 0.11 
1.77 -13.29 -1.56 0.11 
1.52 -13.33 -1.56 0.11 
1.27 -13.36 -1.56 0.11 
1.01 -13.38 -1.56 0.11 
0.76 -13.40 -1.56 0.11 
0.51 -13.42 -1.56 0.11 
0.25 -13.43 -1.56 0.11 
0.00 -13.43 -1.56 0.11 
-0.25 -13.43 -1.56 0.11 
-0.51 -13.43 -1.57 0.11 
-0.76 -13.42 -1.57 0.11 
-1.02 -13.40 -1.57 0.11 
-1.27 -13.38 -1.57 0.11 
-1.52 -13.36 -1.57 0.11 
-1.78 -13.33 -1.57 0.11 
-2.03 -13.29 -1.57 0.11 
-2.28 -13.25 -1.57 0.11 
-2.53 -13.21 -1.57 0.11 
-2.78 -13.16 -1.57 0.11 
-3.03 -13.11 -1.57 0.11 
-3.28 -13.05 -1.57 0.11 
-3.52 -12.98 -1.57 0.11 
-3.77 -12.92 -1.57 0.11 
-4.01 -12.84 -1.57 0.11 
-4.26 -12.77 -1.57 0.11 
-4.50 -12.68 -1.57 0.11 
-4.74 -12.60 -1.57 0.11 
-4.97 -12.50 -1.57 0.11 
-5.21 -12.41 -1.57 0.11 
-5.44 -12.31 -1.57 0.11 
-5.67 -12.20 -1.57 0.11 
-5.90 -12.09 -1.57 0.11 
-6.13 -11.98 -1.57 0.11 
-6.36 -11.86 -1.57 0.11 
-6.58 -11.74 -1.57 0.11 
-6.80 -11.61 -1.57 0.11 
-7.02 -11.48 -1.57 0.11 
-7.23 -11.34 -1.57 0.11 
-7.45 -11.20 -1.57 0.11 
-7.66 -11.06 -1.57 0.11 
-7.86 -10.91 -1.57 0.11 
-8.07 -10.76 -1.57 0.11 
-8.27 -10.60 -1.57 0.11 
-8.47 -10.44 -1.57 0.11 
-8.66 -10.28 -1.57 0.11 
-8.85 -10.11 -1.57 0.11 
-9.04 -9.94 -1.57 0.11 
-9.23 -9.77 -1.57 0.11 
-9.41 -9.59 -1.56 0.11 
-9.59 -9.41 -1.56 0.11 
-9.76 -9.22 -1.56 0.11 
-9.93 -9.03 -1.56 0.11 
-10.10 -8.84 -1.56 0.11 
-10.26 -8.65 -1.56 0.11 
-10.42 -8.45 -1.56 0.11 
-10.63 -8.29 -1.57 0.45 
-11.08 -8.31 -1.61 0.52 
-11.56 -8.34 -1.66 0.51 
-12.06 -8.35 -1.71 0.11 
-12.25 -8.14 -1.71 0.11 
-12.42 -7.92 -1.72 0.11 
-12.57 -7.68 -1.72 0.11 
-12.70 -7.44 -1.72 0.11 
-12.84 -7.20 -1.71 0.11 
-12.97 -6.95 -1.71 0.11 
-13.10 -6.70 -1.71 0.11 
-13.22 -6.45 -1.71 0.11 
-13.33 -6.20 -1.71 0.11 
-13.44 -5.94 -1.71 0.11 
-13.55 -5.69 -1.71 0.11 
-13.65 -5.43 -1.71 0.11 
-13.74 -5.17 -1.71 0.11 
-13.83 -4.90 -1.71 0.11 
-13.92 -4.64 -1.71 0.11 
-13.30 -4.16 -1.62 0.22 
-14.07 -4.11 -1.71 0.11 
-14.14 -3.84 -1.71 0.11 
-14.21 -3.57 -1.71 0.11 
-14.27 -3.30 -1.71 0.11 
-14.32 -3.03 -1.71 0.11 
-14.37 -2.75 -1.70 0.11 
-14.42 -2.48 -1.70 0.11 
-10.43 -1.59 -1.23 0.95 
-10.00 -1.33 -1.18 0.91 
-9.96 -1.14 -1.17 0.92 
-9.93 -0.94 -1.16 0.95 
-9.93 -0.75 -1.16 0.95 
-9.93 -0.56 -1.16 0.95 
-9.94 -0.38 -1.16 0.95 
-9.97 -0.19 -1.16 0.95 
-10.01 -0.00 -1.18 0.91 
-10.07 0.19 -1.19 0.91 
-10.17 0.39 -1.20 0.53 
-14.38 0.82 -1.70 0.11 
-14.36 1.09 -1.69 0.11 
-14.33 1.36 -1.69 0.11 
-14.29 1.63 -1.69 0.11 
-14.25 1.90 -1.69 0.11 
-14.21 2.17 -1.69 0.11 
-14.16 2.43 -1.69 0.11 
-14.10 2.70 -1.69 0.11 
-14.04 2.97 -1.69 0.11 
-9.93 2.30 -1.20 0.27 
-9.50 2.39 -1.15 0.36 
-9.05 2.45 -1.10 0.41 
-8.69 2.54 -1.07 0.50 
-8.41 2.63 -1.04 0.64 
-8.26 2.75 -1.02 0.91 
-8.22 2.91 -1.03 0.89 
-8.22 3.09 -1.03 0.84 
-8.24 3.28 -1.04 0.79 
-8.32 3.49 -1.06 0.27 
-13.06 5.78 -1.68 0.11 
-12.94 6.02 -1.68 0.11 
-12.82 6.26 -1.68 0.11 
-12.69 6.50 -1.68 0.11 
-12.56 6.73 -1.68 0.11 
-12.43 6.97 -1.68 0.11 
-12.29 7.20 -1.68 0.11 
-12.14 7.43 -1.68 0.11 
-12.00 7.65 -1.67 0.11 
-11.84 7.87 -1.67 0.11 
-11.69 8.09 -1.67 0.11 
-11.53 8.31 -1.67 0.11 
-11.36 8.52 -1.67 0.11 
-11.19 8.73 -1.67 0.11 
-11.02 8.94 -1.67 0.11 
-10.85 9.14 -1.67 0.11 
-10.67 9.34 -1.67 0.11 
-10.48 9.54 -1.67 0.11 
-10.30 9.73 -1.67 0.11 
-10.11 9.92 -1.67 0.11 
-9.91 10.10 -1.67 0.11 
-9.72 10.28 -1.66 0.11 
-5.25 5.77 -0.92 0.75 
-5.07 5.79 -0.90 0.76 
-4.89 5.80 -0.89 0.78 
-4.73 5.84 -0.88 0.79 
-4.56 5.85 -0.87 0.80 
-4.40 5.86 -0.86 0.82 
-4.24 5.88 -0.85 0.83 
-4.08 5.89 -0.84 0.84 
-3.93 5.91 -0.83 0.86 
-3.78 5.92 -0.83 0.86 
-3.63 5.94 -0.82 0.87 
-3.49 5.96 -0.81 0.88 
-3.35 5.97 -0.81 0.89 
-3.21 5.98 -0.80 0.90 
-3.07 6.00 -0.79 0.90 
-2.93 6.01 -0.79 0.90 
-2.80 6.02 -0.78 0.91 
-2.67 6.03 -0.78 0.92 
-2.54 6.05 -0.77 0.92 
-2.41 6.06 -0.77 0.93 
-2.28 6.06 -0.76 0.89 
-2.15 6.05 -0.76 0.91 
-2.02 6.05 -0.75 0.92 
-1.89 6.05 -0.75 0.89 
-1.76 6.04 -0.74 0.90 
-1.64 6.05 -0.74 0.96 
-1.52 6.06 -0.74 0.96 
-1.40 6.07 -0.73 0.97 
-1.29 6.10 -0.73 0.95 
-1.19 6.19 -0.74 0.83 
-1.08 6.27 -0.75 0.83 
-0.98 6.45 -0.77 0.50 
-0.90 6.75 -0.80 0.26 
-1.44 12.64 -1.50 0.11 
-1.20 12.66 -1.50 0.11 
-0.96 12.68 -1.50 0.11 
-0.72 12.69 -1.50 0.11 
-0.48 12.70 -1.50 0.11 
-0.24 12.71 -1.50 0.11 
0.00 12.71 -1.50 0.11 
0.24 12.70 -1.50 0.11 
0.48 12.69 -1.50 0.11 
0.72 12.68 -1.49 0.11 
0.96 12.66 -1.49 0.11 
1.20 12.64 -1.49 0.11 
1.44 12.61 -1.49 0.11 
1.68 12.58 -1.49 0.11 
1.91 12.55 -1.49 0.11 
2.15 12.51 -1.49 0.11 
2.39 12.46 -1.49 0.11 
2.62 12.41 -1.49 0.11 
2.86 12.36 -1.49 0.11 
3.09 12.30 -1.49 0.11 
3.32 12.24 -1.49 0.11 
3.55 12.18 -1.49 0.11 
3.78 12.11 -1.49 0.11 
4.01 12.03 -1.49 0.11 
4.24 11.95 -1.49 0.11 
4.46 11.87 -1.49 0.11 
4.69 11.79 -1.49 0.11 
4.91 11.69 -1.49 0.11 
5.13 11.60 -1.49 0.11 
5.35 11.50 -1.49 0.11 
5.57 11.40 -1.49 0.11 
5.78 11.29 -1.49 0.11 
6.00 11.19 -1.49 0.69 
6.26 11.16 -1.51 0.87 
6.52 11.14 -1.52 0.86 
6.79 11.11 -1.53 0.85 
7.07 11.08 -1.55 0.85 
7.34 11.04 -1.56 0.84 
7.62 11.01 -1.58 0.84 
7.91 10.97 -1.59 0.83 
8.20 10.94 -1.61 0.83 
8.50 10.89 -1.63 0.82 
8.76 10.80 -1.64 0.13 
8.97 10.65 -1.64 0.13 
9.19 10.49 -1.64 0.13 
9.40 10.33 -1.64 0.13 
9.59 10.15 -1.64 0.11 
9.79 9.97 -1.64 0.11 
9.97 9.79 -1.64 0.11 
10.16 9.60 -1.64 0.11 
10.34 9.41 -1.65 0.11 
10.52 9.21 -1.65 0.11 
10.69 9.01 -1.65 0.11 
10.86 8.81 -1.65 0.11 
11.03 8.60 -1.65 0.11 
11.19 8.40 -1.65 0.11 
11.35 8.18 -1.65 0.11 
11.51 7.97 -1.65 0.11 
11.66 7.75 -1.65 0.11 
11.81 7.53 -1.65 0.11 
11.95 7.31 -1.65 0.11 
12.09 7.08 -1.65 0.11 
12.23 6.86 -1.65 0.11 
12.36 6.62 -1.65 0.11 
12.49 6.39 -1.65 0.11 
12.61 6.16 -1.65 0.11 
12.73 5.92 -1.65 0.11 
12.84 5.68 -1.65 0.11 
12.95 5.44 -1.65 0.11 
13.05 5.19 -1.65 0.11 
13.15 4.94 -1.65 0.11 
13.25 4.70 -1.65 0.11 
13.34 4.45 -1.65 0.11 
13.43 4.19 -1.66 0.11 
13.51 3.94 -1.66 0.11 
13.59 3.69 -1.66 0.11 
13.66 3.43 -1.66 0.11 
13.72 3.17 -1.66 0.11 
13.79 2.91 -1.66 0.11 
13.85 2.65 -1.66 0.11 
13.90 2.39 -1.66 0.11 
13.95 2.13 -1.66 0.11 
13.99 1.86 -1.66 0.11 
14.03 1.60 -1.66 0.11 
14.06 1.33 -1.66 0.11 
14.09 1.07 -1.66 0.11 
14.11 0.80 -1.66 0.11 
14.13 0.54 -1.66 0.11 
14.15 0.27 -1.67 0.11 
14.15 0.00 -1.67 0.11 
14.16 -0.27 -1.67 0.11 
14.16 -0.54 -1.67 0.11 
14.15 -0.80 -1.67 0.11 
14.14 -1.07 -1.67 0.11 
14.12 -1.34 -1.67 0.11 
14.10 -1.61 -1.67 0.11 
14.07 -1.88 -1.67 0.11 
14.04 -2.14 -1.67 0.11 
14.00 -2.41 -1.67 0.11 
13.96 -2.67 -1.67 0.11 
13.91 -2.94 -1.67 0.11 
13.86 -3.20 -1.67 0.11 
13.81 -3.47 -1.68 0.11 
13.74 -3.73 -1.68 0.11 
13.68 -3.99 -1.68 0.11 
13.61 -4.25 -1.68 0.11 
13.53 -4.51 -1.68 0.11 
13.45 -4.77 -1.68 0.11 
13.36 -5.02 -1.68 0.11 
13.27 -5.28 -1.68 0.11 
13.17 -5.53 -1.68 0.11 
13.07 -5.78 -1.68 0.11 
12.97 -6.03 -1.68 0.11 
12.86 -6.28 -1.68 0.11 
6.22 -3.18 -0.82 0.20 
6.11 -3.28 -0.82 0.37 
5.81 -3.26 -0.78 0.40 
5.54 -3.24 -0.76 0.47 
5.32 -3.25 -0.73 0.52 
5.12 -3.27 -0.72 0.56 
4.95 -3.29 -0.70 0.61 
4.85 -3.36 -0.69 0.80 
4.81 -3.47 -0.70 0.78 
4.77 -3.58 -0.70 0.72 
4.74 -3.70 -0.71 0.64 
4.73 -3.84 -0.72 0.63 
4.73 -3.99 -0.73 0.55 
9.85 -8.62 -1.54 0.11 
9.69 -8.81 -1.54 0.11 
9.53 -9.00 -1.54 0.11 
9.36 -9.18 -1.54 0.11 
9.19 -9.36 -1.54 0.11 
9.01 -9.54 -1.54 0.11 
8.83 -9.71 -1.54 0.11 
8.65 -9.88 -1.55 0.11 
8.47 -10.05 -1.55 0.11 
8.28 -10.21 -1.55 0.11 
8.09 -10.37 -1.55 0.11 
7.89 -10.52 -1.55 0.11 
7.69 -10.67 -1.55 0.11 
5.79 -8.36 -1.20 0.83 
5.60 -8.42 -1.19 0.47 
7.08 -11.11 -1.55 0.11 
6.88 -11.24 -1.55 0.11 
6.66 -11.38 -1.55 0.11 
6.45 -11.50 -1.55 0.11 
6.23 -11.63 -1.55 0.11 
6.01 -11.75 -1.55 0.11 
5.79 -11.86 -1.55 0.11 
5.57 -11.98 -1.55 0.11 
5.12 -11.59 -1.49 0.40 
5.12 -12.19 -1.56 0.11 
4.89 -12.29 -1.56 0.11 
4.65 -12.38 -1.56 0.11 
4.42 -12.47 -1.56 0.11 
4.18 -12.55 -1.56 0.11 
3.95 -12.64 -1.56 0.11 
3.71 -12.71 -1.56 0.11 
3.47 -12.78 -1.56 0.11 
3.23 -12.85 -1.56 0.11 
2.98 -12.91 -1.56 0.11 
2.74 -12.97 -1.56 0.11 
2.49 -13.02 -1.56 0.11 
2.25 -13.07 -1.56 0.11 
2.00 -13.12 -1.56 0.11 
1.75 -13.15 -1.56 0.11 
1.50 -13.19 -1.56 0.11 
1.25 -13.22 -1.56 0.11 
1.00 -13.24 -1.56 0.11 
0.75 -13.26 -1.56 0.11 
0.50 -13.28 -1.56 0.11 
0.25 -13.28 -1.56 0.11 
-0.00 -13.29 -1.56 0.11 
-0.25 -13.29 -1.56 0.11 
-0.50 -13.28 -1.56 0.11 
-0.75 -13.27 -1.56 0.11 
-1.01 -13.26 -1.57 0.11 
-1.26 -13.24 -1.57 0.11 
-1.51 -13.22 -1.57 0.11 
-1.76 -13.19 -1.57 0.11 
-2.01 -13.15 -1.57 0.11 
-2.26 -13.11 -1.57 0.11 
-2.50 -13.07 -1.57 0.11 
-2.75 -13.02 -1.57 0.11 
-3.00 -12.97 -1.57 0.11 
-3.24 -12.91 -1.57 0.11 
-3.49 -12.85 -1.57 0.11 
-3.73 -12.78 -1.57 0.11 
-3.97 -12.71 -1.57 0.11 
-4.21 -12.63 -1.57 0.11 
-4.45 -12.55 -1.57 0.11 
-4.69 -12.46 -1.57 0.11 
-4.92 -12.37 -1.57 0.11 
-5.15 -12.28 -1.57 0.11 
-5.39 -12.18 -1.57 0.11 
-5.61 -12.07 -1.57 0.11 
-5.84 -11.96 -1.57 0.11 
-6.07 -11.85 -1.57 0.11 
-6.29 -11.73 -1.57 0.11 
-6.51 -11.61 -1.57 0.11 
-6.73 -11.49 -1.57 0.11 
-6.94 -11.36 -1.57 0.11 
-7.16 -11.22 -1.57 0.11 
-7.37 -11.08 -1.57 0.11 
-7.58 -10.94 -1.57 0.11 
-7.78 -10.79 -1.57 0.11 
-7.98 -10.64 -1.57 0.11 
-8.18 -10.49 -1.57 0.11 
-8.38 -10.33 -1.57 0.11 
-8.57 -10.17 -1.57 0.11 
-8.76 -10.01 -1.57 0.11 
-8.95 -9.84 -1.56 0.11 
-9.13 -9.66 -1.56 0.11 
-9.31 -9.49 -1.56 0.11 
-9.49 -9.31 -1.56 0.11 
-9.66 -9.12 -1.56 0.11 
-9.83 -8.94 -1.56 0.11 
-9.99 -8.75 -1.56 0.11 
-10.15 -8.56 -1.56 0.11 
-10.31 -8.36 -1.56 0.11 
-10.62 -8.28 -1.59 0.54 
-11.08 -8.31 -1.63 0.52 
-11.56 -8.33 -1.68 0.51 
-11.95 -8.27 -1.71 0.12 
-12.13 -8.06 -1.71 0.12 
-12.29 -7.84 -1.72 0.11 
-12.43 -7.60 -1.72 0.11 
-12.57 -7.36 -1.71 0.11 
-12.70 -7.12 -1.71 0.11 
-12.83 -6.88 -1.71 0.11 
-12.96 -6.63 -1.71 0.11 
-13.08 -6.38 -1.71 0.11 
-13.19 -6.13 -1.71 0.11 
-13.30 -5.88 -1.71 0.11 
-13.41 -5.63 -1.71 0.11 
-13.51 -5.37 -1.71 0.11 
-13.60 -5.11 -1.71 0.11 
-13.69 -4.85 -1.71 0.11 
-13.77 -4.59 -1.71 0.11 
-13.30 -4.16 -1.64 0.22 
-13.93 -4.06 -1.71 0.11 
-14.00 -3.80 -1.71 0.11 
-14.06 -3.53 -1.71 0.11 
-14.12 -3.26 -1.71 0.11 
-14.17 -2.99 -1.70 0.11 
-14.22 -2.72 -1.70 0.11 
-14.27 -2.45 -1.70 0.11 
-10.43 -1.59 -1.24 0.91 
-10.00 -1.33 -1.19 0.91 
-9.96 -1.14 -1.18 0.92 
-9.93 -0.94 -1.17 0.95 
-9.93 -0.75 -1.17 0.95 
-9.93 -0.56 -1.17 0.95 
-9.94 -0.38 -1.17 0.95 
-9.97 -0.19 -1.17 0.95 
-10.01 -0.00 -1.19 0.91 
-10.07 0.19 -1.20 0.91 
-10.17 0.39 -1.21 0.53 
-14.23 0.81 -1.70 0.11 
-14.21 1.08 -1.69 0.11 
-14.18 1.35 -1.69 0.11 
-14.14 1.61 -1.69 0.11 
-14.11 1.88 -1.69 0.11 
-14.06 2.15 -1.69 0.11 
-14.01 2.41 -1.69 0.11 
-13.96 2.67 -1.69 0.11 
-13.90 2.94 -1.69 0.11 
-9.93 2.30 -1.21 0.27 
-9.50 2.38 -1.16 0.34 
-9.04 2.45 -1.11 0.41 
-8.69 2.54 -1.08 0.50 
-8.41 2.63 -1.05 0.64 
-8.25 2.75 -1.03 0.91 
-8.22 2.91 -1.04 0.86 
-8.22 3.09 -1.04 0.84 
-8.23 3.27 -1.05 0.79 
-8.31 3.49 -1.07 0.27 
-12.93 5.72 -1.68 0.11 
-12.81 5.96 -1.68 0.11 
-12.69 6.20 -1.68 0.11 
-12.56 6.43 -1.68 0.11 
-12.43 6.67 -1.68 0.11 
-12.30 6.90 -1.68 0.11 
-12.16 7.12 -1.68 0.11 
-12.02 7.35 -1.68 0.11 
-11.87 7.57 -1.67 0.11 
-11.72 7.79 -1.67 0.11 
-11.57 8.01 -1.67 0.11 
-11.41 8.22 -1.67 0.11 
-11.25 8.43 -1.67 0.11 
-11.08 8.64 -1.67 0.11 
-10.91 8.85 -1.67 0.11 
-10.74 9.05 -1.67 0.11 
-10.56 9.24 -1.67 0.11 
-10.38 9.44 -1.67 0.11 
-10.19 9.63 -1.67 0.11 
-10.00 9.82 -1.67 0.11 
-9.81 10.00 -1.67 0.11 
-9.62 10.18 -1.67 0.11 
-5.25 5.77 -0.93 0.75 
-5.07 5.79 -0.91 0.76 
-4.89 5.80 -0.90 0.78 
-4.73 5.84 -0.89 0.79 
-4.56 5.85 -0.88 0.80 
-4.40 5.86 -0.87 0.82 
-4.24 5.88 -0.86 0.83 
-4.08 5.89 -0.85 0.84 
-3.93 5.91 -0.84 0.86 
-3.78 5.92 -0.84 0.86 
-3.63 5.94 -0.83 0.87 
-3.49 5.95 -0.82 0.88 
-3.35 5.97 -0.81 0.89 
-3.21 5.98 -0.81 0.90 
-3.07 6.00 -0.80 0.90 
-2.93 6.01 -0.80 0.90 
-2.80 6.02 -0.79 0.91 
-2.67 6.03 -0.78 0.92 
-2.54 6.04 -0.78 0.92 
-2.41 6.06 -0.77 0.93 
-2.28 6.06 -0.77 0.89 
-2.14 6.05 -0.76 0.90 
-2.02 6.05 -0.76 0.92 
-1.89 6.05 -0.75 0.89 
-1.76 6.04 -0.75 0.90 
-1.64 6.05 -0.75 0.96 
-1.52 6.06 -0.74 0.96 
-1.40 6.07 -0.74 0.97 
-1.29 6.10 -0.74 0.95 
-1.18 6.18 -0.75 0.83 
-1.08 6.27 -0.76 0.83 
-0.98 6.44 -0.77 0.50 
-0.90 6.74 -0.81 0.26 
-1.43 12.51 -1.50 0.11 
-1.19 12.54 -1.50 0.11 
-0.95 12.55 -1.50 0.11 
-0.71 12.57 -1.50 0.11 
-0.48 12.58 -1.50 0.11 
-0.24 12.58 -1.50 0.11 
-0.00 12.58 -1.50 0.11 
0.24 12.58 -1.50 0.11 
0.48 12.57 -1.50 0.11 
0.71 12.55 -1.50 0.11 
0.95 12.54 -1.49 0.11 
1.19 12.51 -1.49 0.11 
1.42 12.49 -1.49 0.11 
1.66 12.46 -1.49 0.11 
1.90 12.42 -1.49 0.11 
2.13 12.38 -1.49 0.11 
2.36 12.34 -1.49 0.11 
2.60 12.29 -1.49 0.11 
2.83 12.24 -1.49 0.11 
3.06 12.18 -1.49 0.11 
3.29 12.12 -1.49 0.11 
3.52 12.06 -1.49 0.11 
3.74 11.99 -1.49 0.11 
3.97 11.91 -1.49 0.11 
4.20 11.84 -1.49 0.11 
4.42 11.75 -1.49 0.11 
4.64 11.67 -1.49 0.11 
4.86 11.58 -1.49 0.11 
5.08 11.48 -1.49 0.11 
5.29 11.39 -1.49 0.11 
5.51 11.28 -1.49 0.11 
5.74 11.21 -1.50 0.70 
6.00 11.19 -1.51 0.88 
6.26 11.16 -1.52 0.87 
6.52 11.13 -1.53 0.86 
6.79 11.11 -1.55 0.85 
7.06 11.08 -1.56 0.85 
7.34 11.04 -1.58 0.84 
7.62 11.01 -1.59 0.84 
7.91 10.97 -1.61 0.83 
8.20 10.93 -1.62 0.83 
8.46 10.85 -1.64 0.13 
8.68 10.70 -1.64 0.13 
8.89 10.55 -1.64 0.13 
9.10 10.40 -1.64 0.13 
9.30 10.23 -1.64 0.11 
9.50 10.05 -1.64 0.11 
9.69 9.87 -1.64 0.11 
9.87 9.69 -1.64 0.11 
10.06 9.50 -1.65 0.11 
10.24 9.31 -1.65 0.11 
10.41 9.12 -1.65 0.11 
10.59 8.92 -1.65 0.11 
10.76 8.72 -1.65 0.11 
10.92 8.52 -1.65 0.11 
11.08 8.31 -1.65 0.11 
11.24 8.10 -1.65 0.11 
11.40 7.89 -1.65 0.11 
11.55 7.67 -1.65 0.11 
11.69 7.46 -1.65 0.11 
11.83 7.24 -1.65 0.11 
11.97 7.01 -1.65 0.11 
12.11 6.79 -1.65 0.11 
12.23 6.56 -1.65 0.11 
12.36 6.33 -1.65 0.11 
12.48 6.09 -1.65 0.11 
12.60 5.86 -1.65 0.11 
12.71 5.62 -1.65 0.11 
12.82 5.38 -1.65 0.11 
12.92 5.14 -1.65 0.11 
13.02 4.90 -1.65 0.11 
13.12 4.65 -1.65 0.11 
13.21 4.40 -1.66 0.11 
13.29 4.15 -1.66 0.11 
13.37 3.90 -1.66 0.11 
13.45 3.65 -1.66 0.11 
13.52 3.40 -1.66 0.11 
13.59 3.14 -1.66 0.11 
13.65 2.88 -1.66 0.11 
13.71 2.63 -1.66 0.11 
13.76 2.37 -1.66 0.11 
13.81 2.11 -1.66 0.11 
13.85 1.85 -1.66 0.11 
13.89 1.58 -1.66 0.11 
13.92 1.32 -1.66 0.11 
13.95 1.06 -1.66 0.11 
13.97 0.79 -1.66 0.11 
13.99 0.53 -1.66 0.11 
14.00 0.26 -1.67 0.11 
14.01 -0.00 -1.67 0.11 
14.01 -0.27 -1.67 0.11 
14.01 -0.53 -1.67 0.11 
14.01 -0.80 -1.67 0.11 
13.99 -1.06 -1.67 0.11 
13.98 -1.33 -1.67 0.11 
13.96 -1.59 -1.67 0.11 
13.93 -1.86 -1.67 0.11 
13.90 -2.12 -1.67 0.11 
13.86 -2.38 -1.67 0.11 
13.82 -2.65 -1.67 0.11 
13.77 -2.91 -1.67 0.11 
13.72 -3.17 -1.67 0.11 
13.67 -3.43 -1.68 0.11 
13.60 -3.69 -1.68 0.11 
13.54 -3.95 -1.68 0.11 
13.47 -4.21 -1.68 0.11 
13.39 -4.46 -1.68 0.11 
13.31 -4.72 -1.68 0.11 
13.22 -4.97 -1.68 0.11 
13.13 -5.22 -1.68 0.11 
13.04 -5.47 -1.68 0.11 
12.94 -5.72 -1.68 0.11 
12.83 -5.97 -1.68 0.11 
12.72 -6.21 -1.68 0.11 
12.61 -6.46 -1.68 0.11 
6.11 -3.28 -0.82 0.37 
5.80 -3.25 -0.79 0.40 
5.53 -3.24 -0.76 0.47 
5.32 -3.25 -0.74 0.52 
5.12 -3.27 -0.72 0.56 
4.95 -3.29 -0.71 0.61 
4.84 -3.35 -0.70 0.80 
4.80 -3.46 -0.70 0.78 
4.77 -3.58 -0.71 0.72 
4.73 -3.69 -0.71 0.65 
4.73 -3.83 -0.72 0.63 
4.72 -3.98 -0.73 0.55 
9.79 -8.57 -1.55 0.38 
9.59 -8.72 -1.54 0.11 
9.43 -8.91 -1.54 0.11 
9.26 -9.09 -1.54 0.11 
9.09 -9.27 -1.54 0.11 
8.92 -9.44 -1.54 0.11 
8.74 -9.61 -1.54 0.11 
8.56 -9.78 -1.55 0.11 
8.38 -9.94 -1.55 0.11 
8.19 -10.10 -1.55 0.11 
8.00 -10.26 -1.55 0.11 
7.81 -10.41 -1.55 0.11 
7.61 -10.56 -1.55 0.11 
5.79 -8.36 -1.21 0.83 
5.60 -8.42 -1.20 0.47 
7.01 -10.99 -1.55 0.11 
6.80 -11.13 -1.55 0.11 
6.60 -11.26 -1.55 0.11 
6.38 -11.39 -1.55 0.11 
6.17 -11.51 -1.55 0.11 
5.95 -11.63 -1.55 0.11 
5.73 -11.74 -1.55 0.11 
5.51 -11.85 -1.55 0.11 
5.13 -11.60 -1.51 0.26 
5.06 -12.06 -1.56 0.11 
4.84 -12.16 -1.56 0.11 
4.61 -12.25 -1.56 0.11 
4.37 -12.34 -1.56 0.11 
4.14 -12.42 -1.56 0.11 
3.91 -12.50 -1.56 0.11 
3.67 -12.58 -1.56 0.11 
3.43 -12.65 -1.56 0.11 
3.19 -12.72 -1.56 0.11 
2.95 -12.78 -1.56 0.11 
2.71 -12.84 -1.56 0.11 
2.47 -12.89 -1.56 0.11 
2.22 -12.94 -1.56 0.11 
1.98 -12.98 -1.56 0.11 
1.73 -13.02 -1.56 0.11 
1.49 -13.05 -1.56 0.11 
1.24 -13.08 -1.56 0.11 
0.99 -13.10 -1.56 0.11 
0.75 -13.12 -1.56 0.11 
0.50 -13.14 -1.56 0.11 
0.25 -13.15 -1.56 0.11 
0.00 -13.15 -1.56 0.11 
-0.25 -13.15 -1.56 0.11 
-0.50 -13.15 -1.56 0.11 
-0.75 -13.14 -1.56 0.11 
-1.00 -13.12 -1.56 0.11 
-1.24 -13.10 -1.57 0.11 
-1.43 -12.54 -1.50 0.48 
-1.74 -13.05 -1.57 0.11 
-1.99 -13.02 -1.57 0.11 
-2.23 -12.98 -1.57 0.11 
-2.48 -12.93 -1.57 0.11 
-2.72 -12.89 -1.57 0.11 
-2.97 -12.83 -1.57 0.11 
-3.21 -12.78 -1.57 0.11 
-3.45 -12.71 -1.57 0.11 
-3.69 -12.65 -1.57 0.11 
-3.93 -12.58 -1.57 0.11 
-4.17 -12.50 -1.57 0.11 
-4.40 -12.42 -1.57 0.11 
-4.64 -12.33 -1.57 0.11 
-4.87 -12.24 -1.57 0.11 
-5.10 -12.15 -1.57 0.11 
-5.33 -12.05 -1.57 0.11 
-5.56 -11.95 -1.57 0.11 
-5.78 -11.84 -1.57 0.11 
-6.00 -11.73 -1.57 0.11 
-6.22 -11.61 -1.57 0.11 
-6.44 -11.49 -1.57 0.11 
-6.66 -11.37 -1.57 0.11 
-6.87 -11.24 -1.57 0.11 
-7.08 -11.10 -1.57 0.11 
-7.29 -10.97 -1.57 0.11 
-7.50 -10.83 -1.57 0.11 
-7.70 -10.68 -1.57 0.11 
-7.90 -10.53 -1.57 0.11 
-8.10 -10.38 -1.57 0.11 
-8.29 -10.22 -1.57 0.11 
-8.48 -10.06 -1.56 0.11 
-8.67 -9.90 -1.56 0.11 
-8.85 -9.73 -1.56 0.11 
-9.03 -9.56 -1.56 0.11 
-9.21 -9.39 -1.56 0.11 
-9.39 -9.21 -1.56 0.11 
-9.56 -9.03 -1.56 0.11 
-9.72 -8.85 -1.56 0.11 
-9.89 -8.66 -1.56 0.11 
-10.05 -8.47 -1.56 0.11 
-10.20 -8.27 -1.56 0.11 
-10.62 -8.28 -1.60 0.54 
-11.07 -8.30 -1.65 0.52 
-11.56 -8.33 -1.69 0.51 
-11.83 -8.19 -1.71 0.12 
-12.01 -7.98 -1.71 0.12 
-12.16 -7.76 -1.72 0.11 
-12.30 -7.52 -1.71 0.11 
-12.44 -7.29 -1.71 0.11 
-12.57 -7.05 -1.71 0.11 
-12.70 -6.81 -1.71 0.11 
-12.82 -6.56 -1.71 0.11 
-12.94 -6.32 -1.71 0.11 
-13.05 -6.07 -1.71 0.11 
-13.16 -5.82 -1.71 0.11 
-13.27 -5.57 -1.71 0.11 
-13.36 -5.32 -1.71 0.11 
-13.46 -5.06 -1.71 0.11 
-13.55 -4.80 -1.71 0.11 
-13.63 -4.54 -1.71 0.11 
-13.30 -4.16 -1.66 0.22 
-13.78 -4.02 -1.71 0.11 
-13.85 -3.76 -1.71 0.11 
-13.92 -3.49 -1.71 0.11 
-13.97 -3.23 -1.71 0.11 
-14.03 -2.96 -1.70 0.11 
-14.08 -2.70 -1.70 0.11 
-14.12 -2.43 -1.70 0.11 
-10.43 -1.59 -1.25 0.91 
-10.00 -1.33 -1.20 0.91 
-9.96 -1.14 -1.19 0.92 
-9.93 -0.94 -1.19 0.95 
-9.93 -0.75 -1.18 0.95 
-9.93 -0.56 -1.18 0.95 
-9.94 -0.38 -1.18 0.95 
-9.97 -0.19 -1.19 0.95 
-10.01 -0.00 -1.20 0.91 
-10.07 0.19 -1.21 0.91 
-10.17 0.39 -1.22 0.53 
-14.09 0.80 -1.69 0.11 
-14.06 1.07 -1.69 0.11 
-14.03 1.33 -1.69 0.11 
-14.00 1.60 -1.69 0.11 
-13.96 1.86 -1.69 0.11 
-13.92 2.12 -1.69 0.11 
-13.87 2.39 -1.69 0.11 
-13.82 2.65 -1.69 0.11 
-13.76 2.91 -1.69 0.11 
-9.93 2.30 -1.22 0.27 
-9.50 2.38 -1.18 0.34 
-9.04 2.45 -1.13 0.41 
-8.69 2.53 -1.09 0.50 
-8.41 2.63 -1.06 0.64 
-8.25 2.75 -1.04 0.91 
-8.21 2.91 -1.05 0.86 
-8.22 3.09 -1.05 0.84 
-8.23 3.27 -1.06 0.79 
-8.29 3.48 -1.08 0.27 
-12.80 5.66 -1.68 0.11 
-12.68 5.90 -1.68 0.11 
-12.56 6.13 -1.68 0.11 
-12.44 6.37 -1.68 0.11 
-12.31 6.60 -1.68 0.11 
-12.18 6.83 -1.68 0.11 
-12.04 7.05 -1.68 0.11 
-11.90 7.28 -1.68 0.11 
-11.75 7.50 -1.67 0.11 
-11.60 7.71 -1.67 0.11 
-11.45 7.93 -1.67 0.11 
-11.29 8.14 -1.67 0.11 
-11.13 8.35 -1.67 0.11 
-10.97 8.56 -1.67 0.11 
-10.80 8.76 -1.67 0.11 
-10.63 8.96 -1.67 0.11 
-10.45 9.15 -1.67 0.11 
-10.27 9.34 -1.67 0.11 
-10.09 9.53 -1.67 0.11 
-9.90 9.72 -1.67 0.11 
-9.71 9.90 -1.67 0.11 
-9.52 10.08 -1.67 0.11 
-5.25 5.77 -0.94 0.75 
-5.07 5.79 -0.92 0.76 
-4.89 5.80 -0.91 0.77 
-4.73 5.84 -0.90 0.79 
-4.56 5.85 -0.89 0.80 
-4.40 5.86 -0.88 0.82 
-4.23 5.88 -0.87 0.83 
-4.08 5.89 -0.86 0.84 
-3.93 5.90 -0.85 0.86 
-3.78 5.92 -0.84 0.86 
-3.63 5.94 -0.84 0.87 
-3.49 5.95 -0.83 0.88 
-3.35 5.97 -0.82 0.89 
-3.21 5.98 -0.82 0.90 
-3.07 6.00 -0.81 0.90 
-2.93 6.01 -0.80 0.90 
-2.80 6.02 -0.80 0.91 
-2.67 6.03 -0.79 0.92 
-2.54 6.04 -0.79 0.92 
-2.41 6.05 -0.78 0.93 
-2.28 6.06 -0.78 0.89 
-2.14 6.05 -0.77 0.90 
-2.02 6.05 -0.77 0.92 
-1.89 6.04 -0.76 0.89 
-1.76 6.04 -0.76 0.90 
-1.64 6.05 -0.75 0.96 
-1.52 6.06 -0.75 0.96 
-1.40 6.07 -0.75 0.97 
-1.29 6.10 -0.75 0.95 
-1.18 6.18 -0.76 0.83 
-1.08 6.27 -0.76 0.83 
-0.98 6.43 -0.78 0.50 
-0.90 6.72 -0.81 0.27 
-1.41 12.39 -1.50 0.12 
-1.18 12.41 -1.50 0.12 
-0.94 12.43 -1.50 0.12 
-0.71 12.44 -1.50 0.12 
-0.47 12.45 -1.50 0.12 
-0.24 12.46 -1.50 0.12 
0.00 12.46 -1.50 0.12 
0.24 12.45 -1.50 0.12 
0.47 12.44 -1.50 0.12 
0.71 12.43 -1.50 0.12 
0.94 12.41 -1.50 0.12 
1.18 12.39 -1.50 0.12 
1.41 12.36 -1.49 0.12 
1.64 12.33 -1.49 0.12 
1.88 12.30 -1.49 0.12 
2.11 12.26 -1.49 0.12 
2.34 12.22 -1.49 0.12 
2.57 12.17 -1.49 0.12 
2.80 12.12 -1.49 0.12 
3.03 12.06 -1.49 0.12 
3.26 12.00 -1.49 0.12 
3.48 11.94 -1.49 0.12 
3.71 11.87 -1.49 0.12 
3.93 11.80 -1.49 0.12 
4.15 11.72 -1.49 0.12 
4.38 11.64 -1.49 0.12 
4.59 11.55 -1.49 0.12 
4.81 11.46 -1.49 0.12 
5.03 11.37 -1.49 0.12 
5.24 11.27 -1.49 0.12 
5.48 11.23 -1.50 0.88 
5.74 11.21 -1.51 0.87 
5.99 11.18 -1.52 0.88 
6.26 11.16 -1.54 0.87 
6.52 11.13 -1.55 0.86 
6.79 11.10 -1.56 0.85 
7.06 11.07 -1.58 0.85 
7.34 11.04 -1.59 0.84 
7.62 11.00 -1.61 0.84 
7.91 10.97 -1.62 0.83 
8.17 10.90 -1.64 0.13 
8.39 10.76 -1.64 0.13 
8.60 10.61 -1.64 0.13 
8.81 10.46 -1.64 0.13 
9.02 10.30 -1.64 0.12 
9.21 10.13 -1.64 0.12 
9.40 9.95 -1.64 0.12 
9.59 9.78 -1.64 0.12 
9.78 9.59 -1.65 0.12 
9.96 9.41 -1.65 0.12 
10.14 9.22 -1.65 0.12 
10.31 9.03 -1.65 0.12 
10.48 8.83 -1.65 0.12 
10.65 8.64 -1.65 0.12 
10.81 8.43 -1.65 0.12 
10.97 8.23 -1.65 0.12 
11.13 8.02 -1.65 0.12 
11.28 7.81 -1.65 0.12 
11.43 7.60 -1.65 0.12 
11.58 7.38 -1.65 0.12 
11.72 7.16 -1.65 0.12 
11.85 6.94 -1.65 0.11 
11.99 6.72 -1.65 0.11 
12.11 6.49 -1.65 0.11 
12.24 6.26 -1.65 0.11 
12.36 6.03 -1.65 0.11 
12.47 5.80 -1.65 0.11 
12.58 5.57 -1.65 0.11 
12.69 5.33 -1.65 0.11 
12.79 5.09 -1.65 0.11 
12.89 4.85 -1.65 0.11 
12.99 4.60 -1.65 0.11 
13.07 4.36 -1.66 0.11 
13.16 4.11 -1.66 0.11 
13.24 3.86 -1.66 0.11 
13.31 3.61 -1.66 0.11 
13.39 3.36 -1.66 0.11 
13.45 3.11 -1.66 0.11 
13.51 2.85 -1.66 0.11 
13.57 2.60 -1.66 0.11 
13.62 2.34 -1.66 0.11 
13.67 2.09 -1.66 0.11 
13.71 1.83 -1.66 0.11 
13.75 1.57 -1.66 0.11 
13.78 1.31 -1.66 0.11 
13.81 1.05 -1.66 0.11 
13.83 0.79 -1.66 0.11 
13.85 0.52 -1.66 0.11 
13.86 0.26 -1.67 0.11 
13.87 0.00 -1.67 0.11 
13.87 -0.26 -1.67 0.11 
13.87 -0.53 -1.67 0.11 
13.87 -0.79 -1.67 0.11 
13.85 -1.05 -1.67 0.11 
13.84 -1.31 -1.67 0.11 
13.82 -1.58 -1.67 0.11 
13.79 -1.84 -1.67 0.11 
13.76 -2.10 -1.67 0.11 
13.72 -2.36 -1.67 0.11 
13.68 -2.62 -1.67 0.11 
13.64 -2.88 -1.67 0.11 
13.58 -3.14 -1.67 0.11 
13.53 -3.40 -1.68 0.11 
13.47 -3.65 -1.68 0.11 
13.40 -3.91 -1.68 0.11 
13.33 -4.16 -1.68 0.11 
13.26 -4.42 -1.68 0.11 
13.18 -4.67 -1.68 0.11 
13.09 -4.92 -1.68 0.11 
13.00 -5.17 -1.68 0.11 
12.91 -5.42 -1.68 0.11 
12.81 -5.66 -1.68 0.11 
12.70 -5.91 -1.68 0.11 
12.60 -6.15 -1.68 0.11 
12.48 -6.39 -1.68 0.11 
6.11 -3.27 -0.83 0.37 
5.79 -3.25 -0.80 0.40 
5.52 -3.24 -0.77 0.47 
5.31 -3.25 -0.75 0.52 
5.12 -3.26 -0.73 0.56 
4.94 -3.29 -0.71 0.76 
4.84 -3.35 -0.71 0.80 
4.80 -3.46 -0.71 0.78 
4.76 -3.57 -0.72 0.72 
4.73 -3.69 -0.72 0.75 
4.72 -3.83 -0.73 0.63 
4.72 -3.97 -0.74 0.55 
9.79 -8.57 -1.56 0.44 
9.49 -8.63 -1.54 0.11 
9.33 -8.82 -1.54 0.11 
9.17 -8.99 -1.54 0.11 
9.00 -9.17 -1.54 0.11 
8.83 -9.34 -1.54 0.11 
8.65 -9.51 -1.54 0.11 
8.47 -9.68 -1.55 0.11 
8.29 -9.84 -1.55 0.11 
8.11 -10.00 -1.55 0.11 
7.92 -10.16 -1.55 0.11 
7.73 -10.31 -1.55 0.11 
7.54 -10.46 -1.55 0.11 
5.79 -8.36 -1.22 0.83 
5.60 -8.42 -1.21 0.47 
6.94 -10.88 -1.55 0.11 
6.73 -11.01 -1.55 0.11 
6.53 -11.14 -1.55 0.11 
6.32 -11.27 -1.55 0.11 
6.11 -11.39 -1.55 0.11 
5.89 -11.51 -1.55 0.11 
5.67 -11.62 -1.55 0.11 
5.46 -11.73 -1.55 0.11 
5.23 -11.84 -1.55 0.11 
5.01 -11.94 -1.55 0.11 
4.79 -12.03 -1.56 0.11 
4.56 -12.13 -1.56 0.11 
4.33 -12.21 -1.56 0.11 
4.10 -12.30 -1.56 0.11 
3.87 -12.38 -1.56 0.11 
3.63 -12.45 -1.56 0.11 
3.40 -12.52 -1.56 0.11 
3.16 -12.59 -1.56 0.11 
2.92 -12.65 -1.56 0.11 
2.68 -12.70 -1.56 0.11 
2.44 -12.76 -1.56 0.11 
2.20 -12.80 -1.56 0.11 
1.96 -12.85 -1.56 0.11 
1.72 -12.88 -1.56 0.11 
1.47 -12.92 -1.56 0.11 
1.23 -12.94 -1.56 0.11 
0.98 -12.97 -1.56 0.11 
0.74 -12.99 -1.56 0.11 
0.49 -13.00 -1.56 0.11 
0.25 -13.01 -1.56 0.11 
0.00 -13.02 -1.56 0.11 
-0.25 -13.02 -1.56 0.11 
-0.49 -13.01 -1.56 0.11 
-0.74 -13.00 -1.56 0.11 
-0.99 -12.99 -1.56 0.11 
-1.23 -12.97 -1.56 0.11 
-1.43 -12.52 -1.51 0.70 
-1.72 -12.91 -1.57 0.11 
-1.97 -12.88 -1.57 0.11 
-2.21 -12.84 -1.57 0.11 
-2.45 -12.80 -1.57 0.11 
-2.69 -12.75 -1.57 0.11 
-2.93 -12.70 -1.57 0.11 
-3.18 -12.64 -1.57 0.11 
-3.41 -12.58 -1.57 0.11 
-3.65 -12.52 -1.57 0.11 
-3.89 -12.45 -1.57 0.11 
-4.12 -12.37 -1.57 0.11 
-4.36 -12.29 -1.57 0.11 
-4.59 -12.21 -1.57 0.11 
-4.82 -12.12 -1.57 0.11 
-5.05 -12.02 -1.57 0.11 
-5.27 -11.93 -1.57 0.11 
-5.50 -11.82 -1.57 0.11 
-5.72 -11.72 -1.57 0.11 
-5.94 -11.61 -1.57 0.11 
-6.16 -11.49 -1.57 0.11 
-6.38 -11.37 -1.57 0.11 
-6.59 -11.25 -1.57 0.11 
-6.80 -11.12 -1.57 0.11 
-7.01 -10.99 -1.57 0.11 
-7.22 -10.85 -1.57 0.11 
-7.42 -10.72 -1.57 0.11 
-7.62 -10.57 -1.57 0.11 
-7.82 -10.42 -1.57 0.11 
-8.01 -10.27 -1.57 0.11 
-8.20 -10.12 -1.56 0.11 
-8.39 -9.96 -1.56 0.11 
-8.58 -9.80 -1.56 0.11 
-8.76 -9.63 -1.56 0.11 
-8.94 -9.46 -1.56 0.11 
-9.12 -9.29 -1.56 0.11 
-9.29 -9.12 -1.56 0.11 
-9.46 -8.94 -1.56 0.11 
-9.62 -8.75 -1.56 0.11 
-9.79 -8.57 -1.56 0.11 
-9.94 -8.38 -1.56 0.11 
-10.18 -8.26 -1.57 0.55 
-10.61 -8.28 -1.62 0.54 
-11.07 -8.30 -1.66 0.52 
-11.54 -8.32 -1.71 0.12 
-11.72 -8.11 -1.71 0.12 
-11.89 -7.91 -1.72 0.12 
-12.04 -7.68 -1.72 0.11 
-12.18 -7.45 -1.71 0.11 
-12.31 -7.21 -1.71 0.11 
-12.44 -6.98 -1.71 0.11 
-12.57 -6.74 -1.71 0.11 
-12.69 -6.50 -1.71 0.11 
-12.81 -6.25 -1.71 0.11 
-12.92 -6.01 -1.71 0.11 
-13.03 -5.76 -1.71 0.11 
-13.13 -5.51 -1.71 0.11 
-13.23 -5.26 -1.71 0.11 
-13.32 -5.01 -1.71 0.11 
-13.41 -4.75 -1.71 0.11 
-13.49 -4.50 -1.71 0.11 
-13.30 -4.16 -1.67 0.22 
-13.64 -3.98 -1.71 0.11 
-13.71 -3.72 -1.71 0.11 
-13.77 -3.46 -1.71 0.11 
-13.83 -3.20 -1.71 0.11 
-13.88 -2.93 -1.70 0.11 
-13.93 -2.67 -1.70 0.11 
-13.97 -2.40 -1.70 0.11 
-10.44 -1.59 -1.27 0.91 
-10.00 -1.33 -1.21 0.91 
-9.96 -1.14 -1.20 0.92 
-9.93 -0.94 -1.20 0.95 
-9.93 -0.75 -1.20 0.95 
-9.93 -0.56 -1.19 0.95 
-9.94 -0.38 -1.20 0.95 
-9.97 -0.19 -1.20 0.95 
-10.01 -0.00 -1.21 0.91 
-10.07 0.19 -1.22 0.91 
-10.18 0.39 -1.24 0.53 
-13.95 0.79 -1.69 0.11 
-13.92 1.06 -1.69 0.11 
-13.89 1.32 -1.69 0.11 
-13.86 1.58 -1.69 0.11 
-13.82 1.84 -1.69 0.11 
-13.78 2.10 -1.69 0.11 
-13.73 2.36 -1.69 0.11 
-13.68 2.62 -1.69 0.11 
-13.62 2.88 -1.69 0.11 
-9.93 2.30 -1.24 0.27 
-9.50 2.38 -1.19 0.34 
-9.04 2.45 -1.14 0.41 
-8.68 2.53 -1.10 0.50 
-8.41 2.63 -1.07 0.64 
-8.24 2.75 -1.05 0.91 
-8.21 2.91 -1.06 0.86 
-8.21 3.09 -1.06 0.84 
-8.22 3.27 -1.07 0.81 
-8.28 3.48 -1.09 0.62 
-12.67 5.60 -1.68 0.11 
-12.55 5.84 -1.68 0.11 
-12.44 6.07 -1.68 0.11 
-12.31 6.30 -1.68 0.11 
-12.19 6.53 -1.68 0.11 
-12.06 6.76 -1.68 0.11 
-11.92 6.98 -1.68 0.11 
-11.78 7.20 -1.68 0.11 
-11.64 7.42 -1.67 0.11 
-11.49 7.64 -1.67 0.11 
-11.34 7.85 -1.67 0.11 
-11.18 8.06 -1.67 0.11 
-11.02 8.27 -1.67 0.11 
-10.86 8.47 -1.67 0.11 
-10.69 8.67 -1.67 0.11 
-10.52 8.87 -1.67 0.11 
-10.35 9.06 -1.67 0.11 
-10.17 9.25 -1.67 0.11 
-9.99 9.44 -1.67 0.11 
-9.81 9.62 -1.67 0.11 
-9.62 9.80 -1.67 0.11 
-9.43 9.98 -1.67 0.12 
-5.25 5.77 -0.95 0.75 
-5.07 5.79 -0.93 0.76 
-4.89 5.80 -0.92 0.77 
-4.73 5.84 -0.91 0.79 
-4.56 5.85 -0.90 0.80 
-4.39 5.86 -0.89 0.82 
-4.23 5.87 -0.88 0.83 
-4.08 5.89 -0.87 0.84 
-3.92 5.90 -0.86 0.86 
-3.78 5.92 -0.85 0.86 
-3.63 5.93 -0.84 0.87 
-3.49 5.95 -0.84 0.88 
-3.34 5.97 -0.83 0.89 
-3.21 5.98 -0.82 0.90 
-3.07 5.99 -0.82 0.90 
-2.93 6.01 -0.81 0.90 
-2.80 6.02 -0.81 0.91 
-2.67 6.03 -0.80 0.92 
-2.54 6.04 -0.79 0.92 
-2.41 6.05 -0.79 0.93 
-2.28 6.05 -0.78 0.89 
-2.14 6.05 -0.78 0.90 
-2.02 6.05 -0.77 0.92 
-1.89 6.04 -0.77 0.89 
-1.76 6.03 -0.76 0.90 
-1.64 6.04 -0.76 0.96 
-1.52 6.06 -0.76 0.96 
-1.40 6.07 -0.76 0.97 
-1.29 6.10 -0.76 0.95 
-1.18 6.18 -0.76 0.83 
-1.08 6.27 -0.77 0.83 
-0.98 6.43 -0.79 0.50 
-0.89 6.71 -0.82 0.27 
-1.40 12.27 -1.50 0.12 
-1.17 12.29 -1.50 0.12 
-0.93 12.31 -1.50 0.12 
-0.70 12.32 -1.50 0.12 
-0.47 12.33 -1.50 0.12 
-0.23 12.33 -1.50 0.12 
0.00 12.33 -1.50 0.12 
0.23 12.33 -1.50 0.12 
0.47 12.32 -1.50 0.12 
0.70 12.31 -1.50 0.12 
0.93 12.29 -1.50 0.12 
1.16 12.27 -1.50 0.12 
1.40 12.24 -1.50 0.12 
1.63 12.21 -1.50 0.12 
1.86 12.18 -1.49 0.12 
2.09 12.14 -1.49 0.12 
2.32 12.10 -1.49 0.12 
2.55 12.05 -1.49 0.12 
2.77 12.00 -1.49 0.12 
3.00 11.94 -1.49 0.12 
3.22 11.88 -1.49 0.12 
3.45 11.82 -1.49 0.12 
3.67 11.75 -1.49 0.12 
3.89 11.68 -1.49 0.12 
4.11 11.60 -1.49 0.12 
4.33 11.52 -1.49 0.12 
4.55 11.45 -1.50 0.71 
4.77 11.35 -1.49 0.12 
4.98 11.27 -1.50 0.71 
5.23 11.25 -1.50 0.89 
5.48 11.23 -1.52 0.88 
5.74 11.21 -1.53 0.87 
5.99 11.18 -1.54 0.88 
6.25 11.15 -1.55 0.87 
6.52 11.13 -1.56 0.86 
6.79 11.10 -1.58 0.85 
7.06 11.07 -1.59 0.85 
7.34 11.04 -1.61 0.84 
7.62 11.00 -1.62 0.84 
7.89 10.94 -1.64 0.13 
8.10 10.80 -1.64 0.13 
8.32 10.66 -1.64 0.13 
8.53 10.52 -1.64 0.13 
8.73 10.36 -1.64 0.12 
8.93 10.20 -1.64 0.12 
9.12 10.03 -1.64 0.12 
9.31 9.86 -1.65 0.12 
9.50 9.68 -1.65 0.12 
9.68 9.50 -1.65 0.12 
9.86 9.32 -1.65 0.12 
10.04 9.13 -1.65 0.12 
10.21 8.94 -1.65 0.12 
10.38 8.75 -1.65 0.12 
10.55 8.55 -1.65 0.12 
10.71 8.35 -1.65 0.12 
10.87 8.15 -1.65 0.12 
11.02 7.94 -1.65 0.12 
11.17 7.74 -1.65 0.12 
11.32 7.52 -1.65 0.12 
11.46 7.31 -1.65 0.12 
11.60 7.09 -1.65 0.12 
11.74 6.88 -1.65 0.12 
11.87 6.65 -1.65 0.12 
11.99 6.43 -1.65 0.12 
12.12 6.20 -1.65 0.12 
12.24 5.97 -1.65 0.12 
12.35 5.74 -1.65 0.12 
12.46 5.51 -1.65 0.12 
12.57 5.28 -1.65 0.12 
12.67 5.04 -1.65 0.12 
12.77 4.80 -1.65 0.12 
12.86 4.56 -1.66 0.12 
12.95 4.32 -1.66 0.12 
13.03 4.07 -1.66 0.12 
13.11 3.82 -1.66 0.12 
13.18 3.58 -1.66 0.12 
13.25 3.33 -1.66 0.12 
13.32 3.08 -1.66 0.12 
13.38 2.83 -1.66 0.12 
13.44 2.57 -1.66 0.12 
13.49 2.32 -1.66 0.12 
13.53 2.06 -1.66 0.12 
13.58 1.81 -1.66 0.12 
13.61 1.55 -1.66 0.12 
13.64 1.29 -1.66 0.12 
13.67 1.04 -1.66 0.12 
13.69 0.78 -1.66 0.12 
13.71 0.52 -1.66 0.12 
13.73 0.26 -1.67 0.12 
13.73 -0.00 -1.67 0.11 
13.74 -0.26 -1.67 0.11 
13.73 -0.52 -1.67 0.11 
13.73 -0.78 -1.67 0.11 
13.72 -1.04 -1.67 0.11 
13.70 -1.30 -1.67 0.11 
13.68 -1.56 -1.67 0.11 
13.65 -1.82 -1.67 0.11 
13.62 -2.08 -1.67 0.11 
13.59 -2.34 -1.67 0.11 
13.55 -2.59 -1.67 0.11 
13.50 -2.85 -1.67 0.11 
13.45 -3.11 -1.67 0.11 
13.39 -3.36 -1.68 0.11 
13.33 -3.62 -1.68 0.11 
13.27 -3.87 -1.68 0.11 
13.20 -4.12 -1.68 0.11 
13.12 -4.37 -1.68 0.11 
13.04 -4.62 -1.68 0.11 
12.96 -4.87 -1.68 0.11 
12.87 -5.12 -1.68 0.11 
12.78 -5.36 -1.68 0.11 
12.68 -5.61 -1.68 0.11 
12.58 -5.85 -1.68 0.11 
12.47 -6.09 -1.68 0.11 
12.36 -6.33 -1.68 0.11 
6.10 -3.27 -0.84 0.37 
5.79 -3.25 -0.81 0.41 
5.52 -3.23 -0.78 0.51 
5.31 -3.24 -0.75 0.52 
5.11 -3.26 -0.74 0.58 
4.94 -3.28 -0.72 0.76 
4.83 -3.35 -0.71 0.80 
4.80 -3.46 -0.72 0.78 
4.76 -3.57 -0.72 0.72 
4.72 -3.68 -0.73 0.75 
4.71 -3.82 -0.74 0.63 
4.71 -3.97 -0.75 0.55 
9.78 -8.56 -1.58 0.44 
9.40 -8.55 -1.54 0.11 
9.24 -8.73 -1.54 0.11 
9.07 -8.90 -1.54 0.11 
8.91 -9.08 -1.54 0.11 
8.74 -9.25 -1.54 0.11 
8.56 -9.42 -1.54 0.11 
8.39 -9.58 -1.54 0.11 
8.21 -9.74 -1.55 0.11 
8.03 -9.90 -1.55 0.11 
7.84 -10.05 -1.55 0.11 
7.65 -10.20 -1.55 0.11 
7.46 -10.35 -1.55 0.11 
5.79 -8.36 -1.23 0.83 
5.60 -8.42 -1.23 0.47 
6.87 -10.77 -1.55 0.11 
6.67 -10.90 -1.55 0.11 
6.46 -11.03 -1.55 0.11 
6.25 -11.15 -1.55 0.11 
6.04 -11.27 -1.55 0.11 
5.83 -11.39 -1.55 0.11 
5.62 -11.50 -1.55 0.11 
5.40 -11.61 -1.55 0.11 
5.18 -11.72 -1.55 0.11 
4.96 -11.82 -1.55 0.11 
4.74 -11.91 -1.56 0.11 
4.51 -12.00 -1.56 0.11 
4.29 -12.09 -1.56 0.11 
4.06 -12.17 -1.56 0.11 
3.83 -12.25 -1.56 0.11 
3.60 -12.32 -1.56 0.11 
3.36 -12.39 -1.56 0.11 
3.13 -12.46 -1.56 0.11 
2.89 -12.52 -1.56 0.11 
2.66 -12.57 -1.56 0.11 
2.42 -12.63 -1.56 0.11 
2.18 -12.67 -1.56 0.11 
1.94 -12.71 -1.56 0.11 
1.70 -12.75 -1.56 0.11 
1.46 -12.78 -1.56 0.11 
1.22 -12.81 -1.56 0.11 
0.97 -12.84 -1.56 0.11 
0.73 -12.85 -1.56 0.11 
0.49 -12.87 -1.56 0.11 
0.24 -12.88 -1.56 0.11 
0.00 -12.88 -1.56 0.11 
-0.24 -12.88 -1.56 0.11 
-0.49 -12.88 -1.56 0.11 
-0.73 -12.87 -1.56 0.11 
-0.97 -12.85 -1.56 0.11 
-1.22 -12.83 -1.56 0.11 
-1.43 -12.52 -1.53 0.75 
-1.70 -12.78 -1.56 0.11 
-1.95 -12.75 -1.56 0.11 
-2.19 -12.71 -1.57 0.11 
-2.43 -12.67 -1.57 0.11 
-2.67 -12.62 -1.57 0.11 
-2.90 -12.57 -1.57 0.11 
-3.14 -12.51 -1.57 0.11 
-3.38 -12.45 -1.57 0.11 
-3.61 -12.39 -1.57 0.11 
-3.85 -12.32 -1.57 0.11 
-4.08 -12.24 -1.57 0.11 
-4.31 -12.16 -1.57 0.11 
-4.54 -12.08 -1.57 0.11 
-4.77 -11.99 -1.57 0.11 
-5.00 -11.90 -1.57 0.11 
-5.22 -11.80 -1.57 0.11 
-5.44 -11.70 -1.57 0.11 
-5.66 -11.60 -1.57 0.11 
-5.88 -11.49 -1.57 0.11 
-6.10 -11.37 -1.57 0.11 
-6.31 -11.26 -1.57 0.11 
-6.52 -11.13 -1.57 0.11 
-6.73 -11.01 -1.57 0.11 
-6.94 -10.88 -1.57 0.11 
-7.14 -10.74 -1.57 0.11 
-7.34 -10.61 -1.57 0.11 
-7.54 -10.46 -1.56 0.11 
-7.74 -10.32 -1.56 0.11 
-7.93 -10.17 -1.56 0.11 
-8.12 -10.02 -1.56 0.11 
-8.31 -9.86 -1.56 0.11 
-8.49 -9.70 -1.56 0.11 
-8.67 -9.53 -1.56 0.11 
-8.85 -9.37 -1.56 0.11 
-9.02 -9.20 -1.56 0.11 
-9.19 -9.02 -1.56 0.11 
-9.36 -8.85 -1.56 0.11 
-9.53 -8.66 -1.56 0.11 
-9.69 -8.48 -1.56 0.11 
-9.84 -8.29 -1.56 0.11 
-10.18 -8.25 -1.59 0.55 
-10.61 -8.28 -1.63 0.54 
-11.06 -8.30 -1.68 0.52 
-11.43 -8.24 -1.71 0.12 
-11.61 -8.04 -1.71 0.12 
-11.77 -7.83 -1.72 0.11 
-11.91 -7.60 -1.71 0.11 
-12.05 -7.37 -1.71 0.11 
-12.19 -7.14 -1.71 0.11 
-12.32 -6.91 -1.71 0.11 
-12.44 -6.67 -1.71 0.11 
-12.56 -6.43 -1.71 0.11 
-12.68 -6.19 -1.71 0.11 
-12.79 -5.95 -1.71 0.11 
-12.90 -5.70 -1.71 0.11 
-13.00 -5.46 -1.71 0.11 
-13.09 -5.21 -1.71 0.11 
-13.19 -4.96 -1.71 0.11 
-13.27 -4.70 -1.71 0.11 
-13.35 -4.45 -1.71 0.11 
-13.30 -4.16 -1.69 0.22 
-13.50 -3.94 -1.71 0.11 
-13.57 -3.68 -1.71 0.11 
-13.63 -3.42 -1.71 0.11 
-13.69 -3.16 -1.70 0.11 
-13.74 -2.90 -1.70 0.11 
-13.79 -2.64 -1.70 0.11 
-13.83 -2.38 -1.70 0.11 
-10.44 -1.59 -1.28 0.91 
-10.00 -1.33 -1.22 0.91 
-9.96 -1.14 -1.22 0.92 
-9.93 -0.94 -1.21 0.95 
-9.93 -0.75 -1.21 0.95 
-9.93 -0.56 -1.21 0.95 
-9.94 -0.38 -1.21 0.95 
-9.97 -0.19 -1.21 0.95 
-10.01 -0.00 -1.23 0.91 
-10.07 0.19 -1.23 0.91 
-10.18 0.39 -1.25 0.53 
-13.81 0.78 -1.69 0.11 
-13.78 1.05 -1.69 0.11 
-13.76 1.31 -1.69 0.11 
-13.72 1.56 -1.69 0.11 
-13.68 1.82 -1.69 0.11 
-13.64 2.08 -1.69 0.11 
-13.59 2.34 -1.69 0.11 
-13.54 2.59 -1.69 0.11 
-13.48 2.85 -1.69 0.11 
-9.93 2.30 -1.25 0.27 
-9.50 2.38 -1.20 0.34 
-9.03 2.45 -1.15 0.41 
-8.68 2.53 -1.11 0.50 
-8.40 2.62 -1.08 0.64 
-8.24 2.75 -1.06 0.92 
-8.20 2.91 -1.07 0.86 
-8.21 3.09 -1.07 0.84 
-8.22 3.27 -1.08 0.81 
-8.27 3.47 -1.10 0.62 
-12.54 5.55 -1.68 0.12 
-12.43 5.78 -1.68 0.12 
-12.31 6.01 -1.68 0.12 
-12.19 6.24 -1.68 0.12 
-12.07 6.47 -1.68 0.12 
-11.94 6.69 -1.68 0.12 
-11.80 6.91 -1.68 0.12 
-11.66 7.13 -1.68 0.12 
-11.52 7.35 -1.67 0.12 
-11.38 7.56 -1.67 0.12 
-11.23 7.77 -1.67 0.12 
-11.07 7.98 -1.67 0.12 
-10.91 8.19 -1.67 0.12 
-10.75 8.39 -1.67 0.12 
-10.59 8.59 -1.67 0.12 
-10.42 8.78 -1.67 0.12 
-10.25 8.97 -1.67 0.12 
-10.07 9.16 -1.67 0.12 
-9.89 9.35 -1.67 0.12 
-9.71 9.53 -1.67 0.12 
-9.52 9.71 -1.67 0.12 
-5.49 5.81 -0.98 0.45 
-5.25 5.77 -0.96 0.75 
-5.07 5.79 -0.94 0.76 
-4.89 5.80 -0.93 0.77 
-4.73 5.84 -0.92 0.78 
-4.56 5.85 -0.91 0.79 
-4.39 5.86 -0.90 0.82 
-4.23 5.87 -0.89 0.83 
-4.08 5.89 -0.88 0.84 
-3.92 5.90 -0.87 0.86 
-3.77 5.92 -0.86 0.86 
-3.63 5.93 -0.85 0.87 
-3.48 5.95 -0.84 0.88 
-3.34 5.96 -0.84 0.89 
-3.20 5.98 -0.83 0.90 
-3.07 5.99 -0.82 0.90 
-2.93 6.00 -0.82 0.90 
-2.80 6.02 -0.81 0.91 
-2.67 6.03 -0.81 0.92 
-2.54 6.04 -0.80 0.92 
-2.41 6.05 -0.80 0.93 
-2.28 6.05 -0.79 0.89 
-2.14 6.05 -0.79 0.90 
-2.02 6.05 -0.78 0.92 
-1.89 6.04 -0.78 0.89 
-1.76 6.03 -0.77 0.90 
-1.64 6.04 -0.77 0.96 
-1.52 6.05 -0.76 0.96 
-1.40 6.07 -0.76 0.97 
-1.29 6.10 -0.76 0.95 
-1.18 6.18 -0.77 0.83 
-1.08 6.26 -0.78 0.83 
-0.98 6.42 -0.80 0.51 
-0.89 6.69 -0.83 0.27 
-1.39 12.15 -1.50 0.12 
-1.16 12.17 -1.50 0.12 
-0.92 12.19 -1.50 0.12 
-0.69 12.20 -1.50 0.12 
-0.46 12.21 -1.50 0.12 
-0.23 12.21 -1.50 0.12 
-0.00 12.21 -1.50 0.12 
0.23 12.21 -1.50 0.12 
0.46 12.20 -1.50 0.12 
0.69 12.19 -1.50 0.12 
0.92 12.17 -1.50 0.12 
1.15 12.15 -1.50 0.12 
1.38 12.13 -1.50 0.12 
1.61 12.10 -1.50 0.12 
1.84 12.06 -1.50 0.12 
2.07 12.02 -1.50 0.12 
2.29 11.98 -1.49 0.12 
2.52 11.93 -1.49 0.12 
2.75 11.88 -1.49 0.12 
2.97 11.83 -1.49 0.12 
3.19 11.77 -1.49 0.12 
3.42 11.71 -1.49 0.12 
3.64 11.64 -1.49 0.12 
3.86 11.57 -1.49 0.12 
4.07 11.49 -1.49 0.12 
4.29 11.41 -1.49 0.12 
4.51 11.33 -1.49 0.12 
4.74 11.28 -1.50 0.72 
4.98 11.26 -1.51 0.90 
5.23 11.24 -1.52 0.89 
5.48 11.22 -1.53 0.88 
5.74 11.20 -1.54 0.87 
5.99 11.18 -1.55 0.88 
6.25 11.15 -1.57 0.87 
6.52 11.12 -1.58 0.86 
6.79 11.10 -1.59 0.85 
7.06 11.07 -1.61 0.85 
7.33 11.03 -1.62 0.84 
7.60 10.98 -1.64 0.13 
7.82 10.85 -1.64 0.13 
8.03 10.71 -1.64 0.13 
8.24 10.57 -1.64 0.13 
8.45 10.42 -1.64 0.12 
8.65 10.26 -1.64 0.12 
8.84 10.10 -1.64 0.12 
9.03 9.93 -1.65 0.12 
9.22 9.76 -1.65 0.12 
9.41 9.59 -1.65 0.12 
9.59 9.41 -1.65 0.12 
9.77 9.23 -1.65 0.12 
9.94 9.04 -1.65 0.12 
10.11 8.85 -1.65 0.12 
10.28 8.66 -1.65 0.12 
10.44 8.47 -1.65 0.12 
10.60 8.27 -1.65 0.12 
10.76 8.07 -1.65 0.12 
10.91 7.87 -1.65 0.12 
11.06 7.66 -1.65 0.12 
11.21 7.45 -1.65 0.12 
11.35 7.24 -1.65 0.12 
11.49 7.03 -1.65 0.12 
11.62 6.81 -1.65 0.12 
11.75 6.59 -1.65 0.12 
11.88 6.37 -1.65 0.12 
12.00 6.14 -1.65 0.12 
12.12 5.92 -1.65 0.12 
12.23 5.69 -1.65 0.12 
12.34 5.46 -1.65 0.12 
12.44 5.22 -1.65 0.12 
12.54 4.99 -1.65 0.12 
12.64 4.75 -1.65 0.12 
12.73 4.51 -1.66 0.12 
12.82 4.27 -1.66 0.12 
12.90 4.03 -1.66 0.12 
12.98 3.79 -1.66 0.12 
13.06 3.54 -1.66 0.12 
13.12 3.30 -1.66 0.12 
13.19 3.05 -1.66 0.12 
13.25 2.80 -1.66 0.12 
13.30 2.55 -1.66 0.12 
13.35 2.30 -1.66 0.12 
13.40 2.04 -1.66 0.12 
13.44 1.79 -1.66 0.12 
13.48 1.54 -1.66 0.12 
13.51 1.28 -1.66 0.12 
13.54 1.03 -1.66 0.12 
13.56 0.77 -1.66 0.12 
13.58 0.51 -1.66 0.12 
13.59 0.26 -1.67 0.12 
13.60 0.00 -1.67 0.12 
13.60 -0.26 -1.67 0.12 
13.60 -0.51 -1.67 0.12 
13.59 -0.77 -1.67 0.12 
13.58 -1.03 -1.67 0.12 
13.57 -1.29 -1.67 0.12 
13.54 -1.54 -1.67 0.12 
13.52 -1.80 -1.67 0.12 
13.49 -2.06 -1.67 0.12 
13.45 -2.31 -1.67 0.12 
13.41 -2.57 -1.67 0.12 
13.37 -2.82 -1.67 0.12 
13.32 -3.08 -1.67 0.12 
13.26 -3.33 -1.68 0.12 
13.20 -3.58 -1.68 0.12 
13.14 -3.83 -1.68 0.12 
13.07 -4.08 -1.68 0.12 
12.99 -4.33 -1.68 0.12 
12.92 -4.58 -1.68 0.12 
12.83 -4.82 -1.68 0.12 
12.74 -5.07 -1.68 0.12 
12.65 -5.31 -1.68 0.12 
12.55 -5.55 -1.68 0.12 
12.45 -5.79 -1.68 0.11 
12.35 -6.03 -1.68 0.11 
12.24 -6.26 -1.68 0.11 
6.10 -3.27 -0.85 0.37 
5.79 -3.25 -0.81 0.41 
5.51 -3.23 -0.78 0.51 
5.30 -3.24 -0.76 0.52 
5.11 -3.26 -0.74 0.58 
4.94 -3.28 -0.73 0.76 
4.83 -3.34 -0.72 0.80 
4.79 -3.45 -0.72 0.79 
4.75 -3.56 -0.73 0.72 
4.72 -3.68 -0.73 0.75 
4.71 -3.82 -0.74 0.63 
4.70 -3.96 -0.75 0.55 
9.78 -8.56 -1.59 0.44 
9.31 -8.47 -1.54 0.42 
9.15 -8.64 -1.54 0.11 
8.98 -8.82 -1.54 0.11 
8.82 -8.99 -1.54 0.11 
8.65 -9.16 -1.54 0.11 
8.48 -9.32 -1.54 0.11 
8.30 -9.48 -1.54 0.11 
8.13 -9.64 -1.55 0.11 
7.95 -9.80 -1.55 0.11 
7.76 -9.95 -1.55 0.11 
7.58 -10.10 -1.55 0.11 
7.39 -10.25 -1.55 0.11 
5.79 -8.36 -1.25 0.83 
5.59 -8.42 -1.24 0.47 
6.80 -10.66 -1.55 0.11 
6.60 -10.79 -1.55 0.11 
6.40 -10.92 -1.55 0.11 
6.19 -11.04 -1.55 0.11 
5.98 -11.16 -1.55 0.11 
5.77 -11.28 -1.55 0.11 
5.56 -11.39 -1.55 0.11 
5.35 -11.49 -1.55 0.11 
5.13 -11.60 -1.55 0.11 
4.91 -11.70 -1.55 0.11 
4.69 -11.79 -1.55 0.11 
4.47 -11.88 -1.56 0.11 
4.24 -11.97 -1.56 0.11 
4.02 -12.05 -1.56 0.11 
3.79 -12.13 -1.56 0.11 
3.56 -12.20 -1.56 0.11 
3.33 -12.27 -1.56 0.11 
3.10 -12.33 -1.56 0.11 
2.86 -12.39 -1.56 0.11 
2.63 -12.45 -1.56 0.11 
2.39 -12.50 -1.56 0.11 
2.16 -12.54 -1.56 0.11 
1.92 -12.59 -1.56 0.11 
1.68 -12.62 -1.56 0.11 
1.44 -12.65 -1.56 0.11 
1.20 -12.68 -1.56 0.11 
0.96 -12.71 -1.56 0.11 
0.72 -12.72 -1.56 0.11 
0.48 -12.74 -1.56 0.11 
0.24 -12.75 -1.56 0.11 
0.00 -12.75 -1.56 0.11 
-0.24 -12.75 -1.56 0.11 
-0.48 -12.75 -1.56 0.11 
-0.72 -12.74 -1.56 0.11 
-0.96 -12.72 -1.56 0.11 
-1.21 -12.70 -1.56 0.11 
-1.43 -12.52 -1.54 0.66 
-1.69 -12.65 -1.56 0.11 
-1.93 -12.62 -1.56 0.11 
-2.16 -12.58 -1.56 0.11 
-2.40 -12.54 -1.56 0.11 
-2.64 -12.49 -1.56 0.11 
-2.88 -12.44 -1.57 0.11 
-3.11 -12.39 -1.57 0.11 
-3.34 -12.33 -1.57 0.11 
-3.58 -12.26 -1.57 0.11 
-3.81 -12.19 -1.57 0.11 
-4.04 -12.12 -1.57 0.11 
-4.27 -12.04 -1.57 0.11 
-4.50 -11.96 -1.57 0.11 
-4.72 -11.87 -1.57 0.11 
-4.94 -11.78 -1.57 0.11 
-5.17 -11.68 -1.57 0.11 
-5.39 -11.58 -1.57 0.11 
-5.61 -11.48 -1.57 0.11 
-5.82 -11.37 -1.57 0.11 
-6.04 -11.26 -1.57 0.11 
-6.25 -11.14 -1.57 0.11 
-6.46 -11.02 -1.57 0.11 
-6.66 -10.90 -1.57 0.11 
-6.87 -10.77 -1.57 0.11 
-7.07 -10.63 -1.56 0.11 
-7.27 -10.50 -1.56 0.11 
-7.47 -10.36 -1.56 0.11 
-7.66 -10.21 -1.56 0.11 
-7.85 -10.07 -1.56 0.11 
-8.04 -9.91 -1.56 0.11 
-8.22 -9.76 -1.56 0.11 
-8.41 -9.60 -1.56 0.11 
-8.58 -9.44 -1.56 0.11 
-8.76 -9.27 -1.56 0.11 
-8.93 -9.10 -1.56 0.11 
-9.10 -8.93 -1.56 0.11 
-9.27 -8.76 -1.56 0.11 
-9.43 -8.58 -1.56 0.11 
-9.59 -8.40 -1.56 0.11 
-9.77 -8.23 -1.57 0.47 
-10.18 -8.25 -1.61 0.55 
-10.61 -8.27 -1.65 0.54 
-11.06 -8.29 -1.69 0.52 
-11.32 -8.16 -1.71 0.12 
-11.50 -7.96 -1.71 0.12 
-11.65 -7.75 -1.71 0.11 
-11.79 -7.52 -1.71 0.11 
-11.93 -7.30 -1.71 0.11 
-12.06 -7.07 -1.71 0.11 
-12.19 -6.84 -1.71 0.11 
-12.32 -6.60 -1.71 0.11 
-12.44 -6.37 -1.71 0.11 
-12.55 -6.13 -1.71 0.11 
-12.66 -5.89 -1.71 0.11 
-12.77 -5.64 -1.71 0.11 
-12.87 -5.40 -1.71 0.11 
-12.96 -5.15 -1.71 0.11 
-13.05 -4.91 -1.71 0.11 
-13.14 -4.66 -1.71 0.11 
-13.22 -4.41 -1.71 0.11 
-13.30 -4.15 -1.71 0.11 
-13.37 -3.90 -1.71 0.11 
-13.43 -3.65 -1.71 0.11 
-13.50 -3.39 -1.71 0.11 
-13.55 -3.13 -1.70 0.11 
-13.61 -2.87 -1.70 0.11 
-13.65 -2.62 -1.70 0.11 
-13.69 -2.36 -1.70 0.11 
-10.44 -1.59 -1.29 0.91 
-10.00 -1.33 -1.24 0.91 
-9.96 -1.14 -1.23 0.92 
-9.93 -0.94 -1.22 0.95 
-9.93 -0.75 -1.22 0.95 
-9.93 -0.56 -1.22 0.95 
-9.94 -0.38 -1.22 0.95 
-9.97 -0.19 -1.22 0.95 
-10.01 0.00 -1.24 0.91 
-10.07 0.19 -1.25 0.91 
-10.18 0.39 -1.26 0.53 
-13.67 0.78 -1.69 0.12 
-13.65 1.04 -1.69 0.12 
-13.62 1.29 -1.69 0.12 
-13.59 1.55 -1.69 0.12 
-13.55 1.81 -1.69 0.12 
-13.51 2.06 -1.69 0.12 
-13.46 2.32 -1.69 0.12 
-13.41 2.57 -1.69 0.12 
-13.35 2.82 -1.69 0.12 
-9.93 2.30 -1.26 0.27 
-9.50 2.38 -1.21 0.34 
-9.03 2.45 -1.16 0.41 
-8.68 2.53 -1.12 0.50 
-8.40 2.62 -1.09 0.60 
-8.24 2.74 -1.07 0.92 
-8.20 2.91 -1.08 0.86 
-8.20 3.08 -1.08 0.84 
-8.21 3.27 -1.09 0.81 
-8.27 3.47 -1.11 0.62 
-12.42 5.49 -1.68 0.12 
-12.31 5.72 -1.68 0.12 
-12.19 5.95 -1.68 0.12 
-12.07 6.18 -1.68 0.12 
-11.95 6.40 -1.68 0.12 
-11.82 6.63 -1.68 0.12 
-11.69 6.85 -1.68 0.12 
-11.55 7.06 -1.68 0.12 
-11.41 7.28 -1.67 0.12 
-11.27 7.49 -1.67 0.12 
-11.12 7.70 -1.67 0.12 
-10.96 7.90 -1.67 0.12 
-10.81 8.11 -1.67 0.12 
-10.65 8.31 -1.67 0.12 
-10.48 8.50 -1.67 0.12 
-10.32 8.69 -1.67 0.12 
-10.15 8.88 -1.67 0.12 
-9.97 9.07 -1.67 0.12 
-9.80 9.26 -1.67 0.12 
-9.62 9.43 -1.67 0.12 
-9.43 9.61 -1.67 0.12 
-5.49 5.81 -0.99 0.45 
-5.25 5.77 -0.97 0.75 
-5.07 5.79 -0.95 0.76 
-4.89 5.80 -0.94 0.77 
-4.73 5.84 -0.93 0.78 
-4.56 5.85 -0.92 0.79 
-4.39 5.86 -0.91 0.82 
