VERSION 0.7
FIELDS x y z intensity
SIZE 4 4 4 8
TYPE F F F F
COUNT 1 1 1 1
WIDTH 1955
HEIGHT 1
VIEWPOINT 0.0 0.0 0.0 1.0 0.0 0.0 0.0
POINTS 1955
DATA ascii
-13.14 -37.07 -1.55 0.03 
-13.85 -36.84 -1.55 0.03 
-14.55 -36.59 -1.55 0.03 
-15.25 -36.33 -1.56 0.03 
-15.95 -36.06 -1.56 0.03 
-16.63 -35.77 -1.56 0.03 
-17.32 -35.47 -1.56 0.03 
-18.00 -35.16 -1.56 0.03 
-18.67 -34.83 -1.56 0.03 
-19.34 -34.49 -1.56 0.03 
-7.60 -12.98 -0.59 0.86 
-7.76 -12.70 -0.59 0.79 
-7.96 -12.48 -0.58 0.79 
-21.93 -33.00 -1.56 0.03 
-22.57 -32.59 -1.56 0.03 
-23.19 -32.18 -1.57 0.03 
-23.81 -31.75 -1.57 0.03 
-24.42 -31.31 -1.57 0.03 
-25.02 -30.85 -1.57 0.03 
-25.61 -30.39 -1.57 0.03 
-26.19 -29.91 -1.57 0.03 
-26.76 -29.42 -1.57 0.03 
-27.33 -28.92 -1.57 0.03 
-27.88 -28.41 -1.57 0.03 
-28.43 -27.89 -1.57 0.03 
-28.96 -27.36 -1.57 0.03 
-29.49 -26.82 -1.57 0.03 
-32.99 -28.88 -1.73 0.03 
-33.54 -28.27 -1.73 0.03 
-33.61 -27.25 -1.71 0.25 
-34.61 -27.00 -1.73 0.03 
-35.13 -26.35 -1.73 0.03 
-35.63 -25.68 -1.73 0.03 
-29.34 -20.32 -1.41 0.74 
-13.45 -8.94 -0.64 0.75 
-37.07 -23.64 -1.74 0.03 
-22.74 -13.91 -1.05 0.87 
-37.96 -22.24 -1.74 0.03 
-38.38 -21.52 -1.74 0.03 
-38.79 -20.80 -1.74 0.03 
-39.19 -20.06 -1.74 0.03 
-39.57 -19.32 -1.74 0.03 
-33.96 -15.79 -1.48 0.70 
-33.92 -15.00 -1.46 0.77 
-33.90 -14.23 -1.45 0.80 
-23.57 -9.37 -1.00 0.29 
-35.39 -13.30 -1.49 0.33 
-40.72 -14.43 -1.71 0.80 
-40.80 -13.60 -1.70 0.83 
-13.74 -4.29 -0.57 0.91 
-13.85 -4.04 -0.57 0.39 
-13.90 -3.77 -0.57 0.48 
-14.42 -3.62 -0.59 0.52 
-42.99 -9.93 -1.74 0.03 
-43.17 -9.12 -1.74 0.03 
-43.34 -8.30 -1.74 0.03 
-43.49 -7.48 -1.74 0.03 
-43.62 -6.66 -1.74 0.03 
-43.74 -5.83 -1.74 0.03 
-10.41 -1.19 -0.41 0.29 
-10.31 -0.98 -0.41 0.29 
-10.19 -0.77 -0.40 0.26 
-10.16 -0.58 -0.40 0.28 
-10.16 -0.38 -0.40 0.31 
-10.17 -0.19 -0.40 0.31 
-10.14 -0.00 -0.41 0.28 
-10.18 0.19 -0.41 0.26 
-10.32 0.39 -0.42 0.26 
-10.43 0.59 -0.42 0.28 
-42.64 3.23 -1.74 0.03 
-19.83 1.88 -0.81 0.26 
-17.93 2.04 -0.73 0.14 
-16.85 2.25 -0.69 0.45 
-16.74 2.55 -0.69 0.77 
-16.73 2.88 -0.69 0.77 
-16.74 3.21 -0.69 0.74 
-16.78 3.55 -0.70 0.73 
-17.19 3.97 -0.72 0.09 
-39.15 9.83 -1.64 0.24 
-37.46 10.16 -1.58 0.03 
-37.25 10.87 -1.58 0.03 
-37.03 11.57 -1.58 0.03 
-36.79 12.26 -1.58 0.03 
-36.55 12.95 -1.58 0.03 
-15.45 5.81 -0.67 0.10 
-14.41 5.73 -0.63 0.32 
-7.51 3.15 -0.33 0.10 
-7.43 3.29 -0.33 0.07 
-7.47 3.47 -0.33 0.04 
-12.17 5.94 -0.55 0.49 
-11.91 6.10 -0.54 0.68 
-11.80 6.33 -0.54 0.72 
-11.77 6.60 -0.55 0.65 
-11.79 6.90 -0.56 0.56 
-11.92 7.29 -0.57 0.27 
-19.13 12.20 -0.92 0.88 
-18.81 12.50 -0.92 0.89 
-18.48 12.80 -0.91 0.89 
-18.16 13.09 -0.91 0.90 
-17.85 13.39 -0.91 0.90 
-17.99 14.03 -0.93 0.15 
-30.94 25.09 -1.62 0.03 
-19.22 16.20 -1.02 0.10 
-18.63 16.32 -1.01 0.82 
-18.48 16.81 -1.02 0.63 
-13.57 12.82 -0.76 0.25 
-13.12 12.87 -0.75 0.90 
-12.99 13.24 -0.75 0.62 
-26.02 27.55 -1.54 0.27 
-27.16 29.86 -1.64 0.03 
-26.63 30.42 -1.64 0.03 
-13.76 16.32 -0.87 0.70 
-13.37 16.49 -0.86 0.43 
-13.19 16.92 -0.87 0.43 
-24.38 32.51 -1.65 0.03 
-23.79 33.00 -1.65 0.03 
-23.19 33.49 -1.66 0.03 
-22.57 33.95 -1.66 0.03 
-11.60 18.18 -0.88 0.58 
-10.03 16.40 -0.78 0.42 
-9.75 16.65 -0.78 0.82 
-20.01 35.69 -1.66 0.03 
-19.35 36.09 -1.67 0.03 
-8.89 17.37 -0.79 0.86 
-8.59 17.60 -0.80 0.90 
-8.22 17.67 -0.79 0.04 
-16.60 37.54 -1.67 0.03 
-15.89 37.86 -1.67 0.03 
-15.18 38.17 -1.67 0.03 
-14.46 38.46 -1.67 0.03 
-13.73 38.74 -1.67 0.03 
-6.16 18.48 -0.79 0.90 
-2.01 6.43 -0.27 0.09 
-1.84 6.32 -0.27 0.81 
-1.71 6.32 -0.27 0.81 
-1.59 6.33 -0.27 0.82 
-1.47 6.35 -0.26 0.82 
-1.35 6.37 -0.26 0.82 
-1.22 6.38 -0.26 0.80 
-1.10 6.38 -0.26 0.81 
-0.97 6.38 -0.26 0.81 
-0.85 6.39 -0.26 0.81 
-0.73 6.39 -0.26 0.81 
-0.61 6.40 -0.26 0.81 
-0.49 6.41 -0.26 0.82 
-0.36 6.41 -0.26 0.82 
-0.24 6.42 -0.26 0.82 
-0.13 6.63 -0.27 0.16 
0.00 13.30 -0.54 0.83 
0.77 40.80 -1.66 0.03 
1.54 40.74 -1.66 0.03 
2.31 40.66 -1.66 0.03 
3.08 40.57 -1.65 0.03 
3.84 40.46 -1.65 0.03 
2.19 19.19 -0.79 0.65 
5.35 40.18 -1.65 0.03 
6.11 40.02 -1.65 0.03 
6.85 39.85 -1.64 0.03 
7.60 39.67 -1.64 0.03 
8.34 39.46 -1.64 0.03 
9.07 39.24 -1.64 0.03 
9.79 39.00 -1.64 0.03 
10.51 38.75 -1.63 0.03 
11.23 38.48 -1.63 0.03 
11.94 38.20 -1.63 0.03 
12.64 37.92 -1.63 0.03 
13.33 37.61 -1.62 0.03 
14.02 37.29 -1.62 0.03 
14.69 36.95 -1.62 0.03 
15.36 36.60 -1.61 0.03 
16.02 36.24 -1.61 0.03 
10.30 22.15 -0.99 0.64 
8.54 17.50 -0.79 0.48 
8.94 17.47 -0.80 0.91 
9.22 17.20 -0.79 0.80 
19.27 34.37 -1.60 0.03 
19.90 33.97 -1.60 0.03 
20.52 33.56 -1.60 0.03 
21.13 33.13 -1.60 0.03 
21.74 32.70 -1.60 0.03 
22.33 32.26 -1.60 0.03 
22.91 31.79 -1.59 0.03 
23.47 31.29 -1.59 0.03 
24.01 30.79 -1.59 0.03 
24.55 30.27 -1.59 0.03 
25.07 29.75 -1.58 0.03 
14.05 16.04 -0.87 0.55 
14.15 15.56 -0.86 0.80 
14.48 15.32 -0.86 0.61 
27.04 27.56 -1.57 0.03 
27.51 26.99 -1.57 0.03 
27.98 26.43 -1.57 0.03 
28.43 25.86 -1.56 0.03 
28.86 25.27 -1.56 0.03 
29.28 24.67 -1.56 0.03 
29.68 24.07 -1.55 0.03 
30.07 23.46 -1.55 0.03 
19.75 14.81 -1.00 0.26 
14.26 10.28 -0.71 0.91 
20.07 13.90 -0.99 0.44 
31.52 20.95 -1.54 0.03 
31.85 20.31 -1.54 0.03 
32.16 19.67 -1.53 0.03 
32.47 19.02 -1.53 0.03 
18.96 10.63 -0.88 0.58 
19.15 10.27 -0.88 0.90 
24.44 12.51 -1.12 0.68 
33.60 16.40 -1.52 0.03 
33.84 15.74 -1.52 0.03 
34.07 15.07 -1.52 0.03 
34.29 14.39 -1.51 0.03 
34.49 13.72 -1.51 0.03 
34.68 13.04 -1.51 0.03 
29.87 10.59 -1.29 0.39 
30.27 10.09 -1.30 0.18 
35.16 10.99 -1.50 0.03 
35.30 10.30 -1.50 0.03 
35.41 9.61 -1.49 0.03 
35.52 8.92 -1.49 0.03 
35.61 8.23 -1.49 0.03 
35.68 7.54 -1.48 0.03 
35.74 6.85 -1.48 0.03 
35.85 6.17 -1.48 0.04 
32.20 4.91 -1.32 0.64 
32.06 4.27 -1.32 0.84 
36.14 4.12 -1.48 0.04 
36.22 3.44 -1.48 0.04 
36.27 2.75 -1.48 0.04 
36.32 2.06 -1.48 0.04 
36.35 1.38 -1.48 0.04 
36.38 0.69 -1.48 0.04 
36.38 -0.00 -1.48 0.04 
36.38 -0.69 -1.48 0.04 
36.36 -1.38 -1.48 0.04 
37.13 -2.11 -1.51 0.53 
37.96 -2.88 -1.55 0.53 
38.79 -3.68 -1.58 0.53 
39.60 -4.52 -1.62 0.04 
39.69 -5.29 -1.63 0.04 
39.59 -6.04 -1.63 0.04 
39.47 -6.79 -1.63 0.04 
39.35 -7.54 -1.63 0.04 
39.20 -8.28 -1.63 0.04 
39.05 -9.02 -1.63 0.04 
38.88 -9.76 -1.63 0.04 
38.69 -10.50 -1.63 0.04 
38.50 -11.23 -1.63 0.04 
38.29 -11.96 -1.63 0.04 
38.06 -12.69 -1.63 0.04 
37.83 -13.41 -1.63 0.04 
37.58 -14.13 -1.63 0.04 
37.31 -14.84 -1.63 0.04 
37.04 -15.55 -1.63 0.04 
36.75 -16.25 -1.63 0.04 
36.44 -16.95 -1.63 0.04 
36.13 -17.64 -1.64 0.04 
35.80 -18.33 -1.64 0.04 
35.46 -19.01 -1.64 0.04 
35.11 -19.68 -1.64 0.04 
34.74 -20.35 -1.64 0.04 
34.36 -21.01 -1.64 0.04 
33.97 -21.67 -1.64 0.04 
33.57 -22.32 -1.64 0.04 
33.15 -22.96 -1.64 0.04 
32.73 -23.59 -1.64 0.04 
32.29 -24.21 -1.64 0.04 
28.95 -22.58 -1.49 0.04 
28.53 -23.13 -1.49 0.04 
28.10 -23.68 -1.49 0.04 
27.66 -24.22 -1.50 0.04 
27.21 -24.75 -1.50 0.04 
26.75 -25.27 -1.50 0.04 
26.28 -25.79 -1.50 0.04 
25.80 -26.29 -1.50 0.04 
25.31 -26.79 -1.50 0.04 
24.81 -27.28 -1.50 0.04 
18.76 -21.42 -1.16 0.88 
18.48 -21.93 -1.17 0.54 
23.26 -28.68 -1.50 0.04 
22.72 -29.14 -1.50 0.04 
6.51 -8.68 -0.44 0.80 
21.63 -30.01 -1.50 0.04 
21.07 -30.43 -1.50 0.04 
20.50 -30.84 -1.51 0.04 
19.92 -31.24 -1.51 0.04 
19.34 -31.63 -1.51 0.04 
18.75 -32.01 -1.51 0.04 
18.15 -32.37 -1.51 0.04 
17.54 -32.73 -1.51 0.04 
16.93 -33.08 -1.51 0.04 
5.47 -11.20 -0.51 0.68 
5.35 -11.51 -0.52 0.57 
6.16 -13.93 -0.62 0.34 
6.23 -14.84 -0.65 0.32 
13.77 -34.63 -1.52 0.04 
13.12 -34.91 -1.52 0.04 
12.47 -35.17 -1.52 0.04 
11.81 -35.42 -1.52 0.04 
11.14 -35.66 -1.52 0.04 
10.47 -35.89 -1.52 0.04 
9.80 -36.10 -1.52 0.04 
9.12 -36.30 -1.52 0.04 
8.43 -36.49 -1.52 0.04 
7.75 -36.67 -1.52 0.04 
7.05 -36.83 -1.52 0.04 
6.36 -36.98 -1.53 0.04 
5.66 -37.12 -1.53 0.04 
4.96 -37.24 -1.53 0.04 
4.26 -37.35 -1.53 0.03 
3.55 -37.45 -1.53 0.03 
2.85 -37.54 -1.53 0.03 
2.14 -37.61 -1.53 0.03 
1.43 -37.67 -1.53 0.03 
0.71 -37.71 -1.53 0.03 
0.00 -37.74 -1.53 0.03 
-0.71 -37.76 -1.54 0.03 
-1.43 -37.76 -1.54 0.03 
-2.15 -37.75 -1.54 0.03 
-0.95 -12.51 -0.51 0.30 
-3.58 -37.69 -1.54 0.03 
-4.29 -37.64 -1.54 0.03 
-5.01 -37.57 -1.54 0.03 
-5.72 -37.50 -1.54 0.03 
-6.43 -37.40 -1.54 0.03 
-7.14 -37.30 -1.54 0.03 
-7.85 -37.18 -1.55 0.03 
-8.56 -37.05 -1.55 0.03 
-9.27 -36.90 -1.55 0.03 
-9.97 -36.74 -1.55 0.03 
-10.67 -36.57 -1.55 0.03 
-11.37 -36.38 -1.55 0.03 
-12.06 -36.18 -1.55 0.03 
-12.75 -35.97 -1.55 0.03 
-13.44 -35.74 -1.55 0.03 
-14.12 -35.50 -1.55 0.03 
-14.80 -35.25 -1.55 0.03 
-15.47 -34.98 -1.56 0.03 
-16.14 -34.70 -1.56 0.03 
-16.80 -34.41 -1.56 0.03 
-17.46 -34.10 -1.56 0.03 
-18.11 -33.78 -1.56 0.03 
-18.75 -33.45 -1.56 0.03 
-7.60 -12.98 -0.61 0.83 
-7.77 -12.70 -0.61 0.78 
-7.96 -12.48 -0.60 0.74 
-21.27 -32.00 -1.56 0.03 
-21.89 -31.61 -1.56 0.03 
-22.49 -31.21 -1.56 0.03 
-23.09 -30.79 -1.57 0.03 
-23.68 -30.36 -1.57 0.03 
-24.26 -29.92 -1.57 0.03 
-24.83 -29.47 -1.57 0.03 
-25.40 -29.01 -1.57 0.03 
-25.95 -28.53 -1.57 0.03 
-26.50 -28.05 -1.57 0.03 
-27.04 -27.56 -1.57 0.03 
-27.57 -27.05 -1.57 0.03 
-28.08 -26.53 -1.57 0.03 
-28.59 -26.01 -1.57 0.03 
-29.09 -25.47 -1.57 0.03 
-29.58 -24.93 -1.57 0.03 
-33.05 -26.80 -1.73 0.03 
-33.56 -26.18 -1.73 0.03 
-34.07 -25.55 -1.73 0.03 
-34.55 -24.91 -1.73 0.03 
-29.34 -20.32 -1.45 0.74 
-13.45 -8.94 -0.66 0.75 
-35.94 -22.93 -1.73 0.03 
-22.74 -13.91 -1.08 0.87 
-36.81 -21.56 -1.73 0.03 
-37.22 -20.87 -1.74 0.03 
-37.62 -20.16 -1.74 0.03 
-38.00 -19.45 -1.74 0.03 
-38.37 -18.73 -1.74 0.03 
-34.03 -15.83 -1.53 0.02 
-33.92 -15.00 -1.51 0.77 
-33.90 -14.23 -1.50 0.80 
-23.57 -9.37 -1.03 0.29 
-35.42 -13.32 -1.54 0.26 
-40.29 -14.28 -1.74 0.03 
-40.56 -13.52 -1.74 0.03 
-13.74 -4.29 -0.59 0.91 
-13.81 -4.03 -0.59 0.39 
-13.87 -3.76 -0.58 0.48 
-14.42 -3.62 -0.60 0.56 
-41.68 -9.63 -1.74 0.03 
-41.86 -8.84 -1.74 0.03 
-42.02 -8.05 -1.74 0.03 
-42.16 -7.25 -1.74 0.03 
-42.30 -6.45 -1.74 0.03 
-42.41 -5.65 -1.74 0.03 
-10.37 -1.18 -0.42 0.29 
-10.27 -0.97 -0.42 0.26 
-10.15 -0.77 -0.41 0.26 
-10.12 -0.58 -0.41 0.28 
-10.12 -0.38 -0.41 0.31 
-10.13 -0.19 -0.41 0.31 
-10.11 -0.00 -0.42 0.31 
-10.14 0.19 -0.42 0.28 
-10.27 0.39 -0.43 0.26 
-10.39 0.59 -0.44 0.29 
-41.38 3.14 -1.74 0.03 
-19.79 1.88 -0.83 0.26 
-17.86 2.04 -0.75 0.14 
-16.83 2.24 -0.71 0.45 
-16.72 2.55 -0.71 0.92 
-16.72 2.88 -0.71 0.92 
-16.74 3.21 -0.71 0.89 
-16.78 3.54 -0.72 0.88 
-17.08 3.95 -0.73 0.09 
-39.12 9.82 -1.69 0.24 
-36.62 9.94 -1.59 0.26 
-36.15 10.55 -1.58 0.03 
-35.94 11.23 -1.58 0.03 
-35.71 11.90 -1.58 0.03 
-35.47 12.57 -1.58 0.03 
-15.31 5.75 -0.68 0.15 
-7.56 3.01 -0.34 0.17 
-7.42 3.12 -0.34 0.10 
-7.34 3.25 -0.34 0.15 
-7.34 3.41 -0.34 0.14 
-12.15 5.93 -0.57 0.49 
-11.90 6.09 -0.56 0.68 
-11.79 6.32 -0.56 0.72 
-11.76 6.59 -0.56 0.65 
-11.77 6.90 -0.57 0.56 
-11.88 7.26 -0.58 0.27 
-19.13 12.20 -0.95 0.88 
-18.81 12.50 -0.95 0.89 
-18.48 12.80 -0.94 0.89 
-18.16 13.09 -0.94 0.90 
-17.85 13.39 -0.93 0.90 
-17.99 14.03 -0.96 0.15 
-29.94 24.27 -1.61 0.03 
-19.33 16.29 -1.06 0.08 
-18.64 16.32 -1.04 0.73 
-18.49 16.82 -1.05 0.56 
-13.57 12.82 -0.78 0.25 
-13.12 12.87 -0.77 0.90 
-12.99 13.24 -0.78 0.62 
-26.02 27.55 -1.59 0.27 
-26.27 28.88 -1.63 0.03 
-25.76 29.42 -1.64 0.03 
-13.76 16.33 -0.89 0.70 
-13.38 16.50 -0.89 0.84 
-13.21 16.93 -0.90 0.43 
-23.58 31.44 -1.64 0.03 
-23.00 31.91 -1.65 0.03 
-22.42 32.38 -1.65 0.03 
-21.82 32.83 -1.65 0.03 
-11.61 18.20 -0.90 0.49 
-14.18 23.19 -1.14 0.77 
-9.75 16.65 -0.81 0.83 
-19.34 34.50 -1.66 0.03 
-8.96 16.71 -0.79 0.04 
-8.89 17.37 -0.82 0.86 
-8.59 17.59 -0.82 0.90 
-8.18 17.59 -0.81 0.72 
-16.05 36.28 -1.66 0.03 
-15.36 36.60 -1.66 0.03 
-14.67 36.89 -1.66 0.03 
-13.98 37.18 -1.66 0.03 
-6.51 18.36 -0.82 0.45 
-6.16 18.48 -0.82 0.90 
-1.98 6.35 -0.28 0.09 
-1.84 6.31 -0.28 0.81 
-1.71 6.31 -0.27 0.81 
-1.59 6.32 -0.27 0.82 
-1.47 6.34 -0.27 0.82 
-1.34 6.36 -0.27 0.82 
-1.22 6.37 -0.27 0.80 
-1.10 6.37 -0.27 0.81 
-0.97 6.38 -0.27 0.81 
-0.85 6.38 -0.27 0.81 
-0.73 6.39 -0.27 0.81 
-0.61 6.39 -0.27 0.82 
-0.49 6.40 -0.27 0.82 
-0.36 6.41 -0.27 0.82 
-0.24 6.41 -0.27 0.82 
-0.12 6.59 -0.28 0.16 
-0.00 7.00 -0.29 0.05 
0.75 39.45 -1.65 0.03 
1.49 39.39 -1.65 0.03 
2.23 39.31 -1.65 0.03 
2.98 39.23 -1.65 0.03 
3.71 39.13 -1.65 0.03 
2.19 19.18 -0.81 0.77 
5.18 38.86 -1.64 0.03 
5.91 38.71 -1.64 0.03 
6.63 38.54 -1.64 0.03 
7.35 38.37 -1.64 0.03 
8.06 38.18 -1.63 0.03 
8.77 37.96 -1.63 0.03 
9.48 37.73 -1.63 0.03 
10.17 37.49 -1.63 0.03 
10.86 37.23 -1.62 0.03 
11.55 36.96 -1.62 0.03 
12.23 36.70 -1.62 0.03 
12.91 36.41 -1.62 0.03 
13.57 36.09 -1.61 0.03 
14.22 35.77 -1.61 0.03 
14.87 35.43 -1.61 0.03 
15.51 35.08 -1.61 0.03 
10.31 22.17 -1.02 0.64 
8.15 16.68 -0.78 0.04 
8.94 17.46 -0.82 0.91 
8.76 16.35 -0.78 0.04 
18.65 33.26 -1.60 0.03 
19.25 32.87 -1.59 0.03 
19.85 32.46 -1.59 0.03 
20.44 32.05 -1.59 0.03 
21.02 31.62 -1.59 0.03 
21.60 31.19 -1.59 0.03 
22.16 30.75 -1.59 0.03 
22.72 30.29 -1.59 0.03 
23.26 29.83 -1.58 0.03 
23.80 29.35 -1.58 0.03 
24.32 28.85 -1.58 0.03 
14.06 16.06 -0.89 0.55 
14.16 15.57 -0.88 0.80 
14.49 15.33 -0.88 0.61 
26.24 26.74 -1.57 0.03 
26.69 26.19 -1.57 0.03 
27.13 25.63 -1.56 0.03 
27.56 25.07 -1.56 0.03 
27.98 24.49 -1.56 0.03 
28.38 23.92 -1.55 0.03 
28.77 23.33 -1.55 0.03 
29.17 22.75 -1.55 0.03 
29.55 22.16 -1.55 0.03 
14.26 10.28 -0.74 0.91 
20.10 13.91 -1.02 0.43 
30.60 20.34 -1.54 0.04 
30.92 19.72 -1.54 0.04 
31.23 19.09 -1.53 0.04 
31.52 18.47 -1.53 0.04 
18.96 10.63 -0.91 0.58 
19.15 10.27 -0.91 0.90 
24.46 12.52 -1.15 0.68 
32.58 15.91 -1.52 0.04 
32.81 15.26 -1.51 0.04 
33.03 14.61 -1.51 0.04 
33.24 13.95 -1.51 0.04 
33.43 13.30 -1.51 0.04 
33.62 12.64 -1.50 0.04 
29.83 10.57 -1.32 0.39 
30.20 10.07 -1.33 0.64 
34.09 10.65 -1.50 0.04 
34.22 9.98 -1.49 0.04 
34.34 9.32 -1.49 0.04 
34.44 8.65 -1.49 0.03 
34.52 7.98 -1.48 0.03 
34.61 7.31 -1.48 0.04 
34.74 6.65 -1.48 0.04 
34.86 6.00 -1.48 0.04 
32.20 4.91 -1.36 0.64 
32.07 4.27 -1.35 0.84 
35.14 4.01 -1.48 0.04 
35.21 3.34 -1.48 0.04 
35.27 2.67 -1.48 0.04 
35.31 2.01 -1.48 0.04 
35.35 1.34 -1.48 0.04 
35.37 0.67 -1.48 0.04 
35.38 0.00 -1.48 0.04 
35.44 -0.67 -1.48 0.39 
36.28 -1.37 -1.52 0.52 
37.12 -2.11 -1.56 0.53 
37.95 -2.88 -1.59 0.53 
38.61 -3.66 -1.62 0.05 
38.68 -4.41 -1.63 0.04 
38.59 -5.14 -1.63 0.04 
38.49 -5.87 -1.63 0.04 
38.38 -6.60 -1.63 0.04 
38.25 -7.33 -1.63 0.04 
38.12 -8.05 -1.63 0.04 
37.96 -8.77 -1.63 0.04 
37.80 -9.49 -1.63 0.04 
37.62 -10.21 -1.63 0.04 
37.43 -10.92 -1.63 0.04 
37.22 -11.63 -1.63 0.04 
37.01 -12.33 -1.63 0.04 
36.78 -13.04 -1.63 0.04 
36.53 -13.73 -1.63 0.04 
36.28 -14.43 -1.63 0.04 
36.01 -15.11 -1.63 0.04 
35.73 -15.80 -1.64 0.04 
35.43 -16.48 -1.64 0.04 
35.12 -17.15 -1.64 0.04 
34.80 -17.82 -1.64 0.04 
34.47 -18.48 -1.64 0.04 
34.13 -19.13 -1.64 0.04 
33.77 -19.78 -1.64 0.04 
33.40 -20.43 -1.64 0.04 
33.02 -21.06 -1.64 0.04 
32.63 -21.69 -1.64 0.04 
32.23 -22.31 -1.64 0.04 
31.81 -22.93 -1.64 0.04 
28.54 -21.40 -1.49 0.04 
28.14 -21.95 -1.49 0.04 
27.73 -22.49 -1.49 0.04 
27.32 -23.02 -1.50 0.04 
25.88 -22.66 -1.44 0.65 
26.45 -24.06 -1.50 0.04 
26.00 -24.56 -1.50 0.04 
25.54 -25.06 -1.50 0.04 
25.08 -25.55 -1.50 0.04 
24.60 -26.04 -1.50 0.04 
24.11 -26.51 -1.50 0.04 
18.75 -21.42 -1.19 0.88 
18.48 -21.93 -1.20 0.54 
22.60 -27.88 -1.50 0.04 
22.08 -28.32 -1.50 0.04 
6.51 -8.68 -0.45 0.80 
21.02 -29.16 -1.50 0.04 
20.47 -29.57 -1.51 0.04 
19.92 -29.97 -1.51 0.04 
19.36 -30.36 -1.51 0.04 
18.79 -30.73 -1.51 0.04 
18.22 -31.10 -1.51 0.04 
17.64 -31.46 -1.51 0.04 
17.05 -31.80 -1.51 0.04 
16.45 -32.14 -1.51 0.04 
5.46 -11.19 -0.52 0.64 
5.35 -11.51 -0.53 0.59 
6.16 -13.93 -0.64 0.34 
6.23 -14.84 -0.67 0.32 
13.38 -33.65 -1.52 0.04 
12.75 -33.92 -1.52 0.04 
12.11 -34.17 -1.52 0.04 
11.47 -34.41 -1.52 0.04 
10.82 -34.65 -1.52 0.04 
10.17 -34.87 -1.52 0.04 
9.52 -35.07 -1.52 0.04 
8.86 -35.27 -1.52 0.04 
8.19 -35.45 -1.52 0.04 
7.52 -35.62 -1.52 0.04 
6.85 -35.78 -1.53 0.04 
6.18 -35.93 -1.53 0.04 
5.50 -36.06 -1.53 0.04 
4.82 -36.18 -1.53 0.04 
4.14 -36.29 -1.53 0.04 
3.45 -36.38 -1.53 0.04 
2.77 -36.46 -1.53 0.04 
2.08 -36.53 -1.53 0.04 
1.39 -36.58 -1.53 0.04 
0.69 -36.63 -1.53 0.04 
0.00 -36.66 -1.53 0.04 
-0.69 -36.67 -1.54 0.04 
-1.39 -36.68 -1.54 0.04 
-2.08 -36.67 -1.54 0.04 
-0.95 -12.49 -0.52 0.50 
-3.47 -36.60 -1.54 0.04 
-4.17 -36.55 -1.54 0.04 
-4.86 -36.49 -1.54 0.04 
-5.56 -36.41 -1.54 0.04 
-6.25 -36.32 -1.54 0.04 
-6.94 -36.22 -1.54 0.04 
-7.63 -36.11 -1.54 0.04 
-8.31 -35.98 -1.55 0.04 
-9.00 -35.83 -1.55 0.04 
-9.68 -35.68 -1.55 0.04 
-10.36 -35.51 -1.55 0.04 
-11.04 -35.33 -1.55 0.04 
-11.71 -35.13 -1.55 0.04 
-12.38 -34.92 -1.55 0.04 
-13.05 -34.70 -1.55 0.04 
-13.71 -34.47 -1.55 0.04 
-14.36 -34.22 -1.55 0.04 
-15.02 -33.96 -1.55 0.04 
-15.67 -33.69 -1.56 0.04 
-16.31 -33.41 -1.56 0.04 
-16.95 -33.11 -1.56 0.04 
-17.58 -32.80 -1.56 0.04 
-18.21 -32.48 -1.56 0.04 
-7.61 -12.98 -0.63 0.68 
-7.77 -12.70 -0.62 0.76 
-7.96 -12.48 -0.62 0.68 
-20.65 -31.07 -1.56 0.04 
-21.25 -30.69 -1.56 0.04 
-21.83 -30.29 -1.56 0.04 
-22.41 -29.89 -1.56 0.04 
-22.99 -29.47 -1.56 0.04 
-23.55 -29.05 -1.57 0.04 
-24.11 -28.61 -1.57 0.04 
-24.65 -28.16 -1.57 0.04 
-25.19 -27.70 -1.57 0.04 
-25.72 -27.23 -1.57 0.04 
-26.25 -26.75 -1.57 0.04 
-26.76 -26.26 -1.57 0.04 
-27.26 -25.75 -1.57 0.04 
-27.75 -25.24 -1.57 0.04 
-28.24 -24.72 -1.57 0.04 
-28.71 -24.19 -1.57 0.04 
-29.17 -23.65 -1.57 0.04 
-29.62 -23.11 -1.57 0.04 
-33.06 -24.80 -1.73 0.03 
-33.54 -24.17 -1.73 0.03 
-29.34 -20.31 -1.49 0.74 
-13.45 -8.94 -0.68 0.75 
-34.89 -22.25 -1.73 0.03 
-22.74 -13.91 -1.12 0.87 
-35.72 -20.93 -1.73 0.03 
-36.12 -20.25 -1.73 0.03 
-36.51 -19.57 -1.73 0.03 
-36.88 -18.88 -1.73 0.03 
-37.24 -18.18 -1.73 0.03 
-37.58 -17.48 -1.74 0.03 
-37.91 -16.77 -1.74 0.03 
-38.23 -16.05 -1.74 0.03 
-23.56 -9.37 -1.06 0.29 
-38.82 -14.60 -1.74 0.03 
-39.10 -13.86 -1.74 0.03 
-39.36 -13.12 -1.74 0.03 
-39.61 -12.37 -1.74 0.03 
-13.77 -4.02 -0.60 0.39 
-13.84 -3.76 -0.60 0.48 
-14.34 -3.60 -0.62 0.37 
-40.45 -9.35 -1.74 0.03 
-40.62 -8.58 -1.74 0.03 
-40.78 -7.81 -1.74 0.03 
-40.92 -7.04 -1.74 0.03 
-41.04 -6.26 -1.74 0.03 
-41.16 -5.48 -1.74 0.03 
-10.33 -1.18 -0.44 0.29 
-10.23 -0.97 -0.43 0.26 
-10.10 -0.77 -0.42 0.27 
-10.08 -0.57 -0.42 0.31 
-10.09 -0.38 -0.42 0.31 
-10.09 -0.19 -0.42 0.31 
-10.07 -0.00 -0.43 0.31 
-10.10 0.19 -0.43 0.28 
-10.23 0.39 -0.44 0.26 
-10.35 0.59 -0.45 0.29 
-40.19 3.05 -1.74 0.04 
-19.76 1.88 -0.85 0.19 
-17.79 2.03 -0.77 0.14 
-16.80 2.24 -0.73 0.40 
-16.73 2.55 -0.73 0.92 
-16.72 2.88 -0.73 0.92 
-16.74 3.21 -0.73 0.89 
-16.78 3.54 -0.74 0.88 
-16.95 3.92 -0.75 0.07 
-38.88 9.76 -1.73 0.04 
-36.60 9.93 -1.63 0.26 
-35.12 10.25 -1.58 0.04 
-34.91 10.91 -1.57 0.04 
-34.69 11.56 -1.57 0.04 
-34.45 12.21 -1.57 0.04 
-15.21 5.72 -0.70 0.15 
-7.51 2.99 -0.35 0.17 
-7.34 3.08 -0.34 0.16 
-7.29 3.22 -0.34 0.16 
-7.28 3.38 -0.35 0.14 
-7.36 3.59 -0.35 0.03 
-11.88 6.08 -0.57 0.68 
-11.78 6.31 -0.58 0.72 
-11.74 6.58 -0.58 0.65 
-11.75 6.89 -0.59 0.56 
-11.85 7.24 -0.60 0.45 
-19.02 12.13 -0.97 0.88 
-18.81 12.50 -0.97 0.89 
-18.48 12.80 -0.97 0.89 
-18.16 13.09 -0.96 0.90 
-17.85 13.39 -0.96 0.90 
-23.78 18.55 -1.30 0.87 
-29.00 23.51 -1.61 0.03 
-28.60 24.10 -1.61 0.03 
-18.66 16.34 -1.07 0.73 
-18.52 16.84 -1.08 0.24 
-13.57 12.82 -0.80 0.25 
-13.12 12.87 -0.79 0.90 
-12.99 13.24 -0.80 0.62 
-25.92 27.44 -1.63 0.03 
-25.44 27.96 -1.63 0.03 
-24.94 28.48 -1.63 0.03 
-13.77 16.34 -0.92 0.70 
-13.38 16.50 -0.92 0.84 
-13.22 16.95 -0.93 0.43 
-22.82 30.43 -1.64 0.03 
-22.26 30.89 -1.64 0.03 
-21.70 31.34 -1.64 0.03 
-21.12 31.77 -1.64 0.03 
-11.62 18.22 -0.93 0.35 
-14.18 23.19 -1.17 0.77 
-9.75 16.65 -0.83 0.83 
-18.72 33.39 -1.65 0.03 
-8.90 16.61 -0.81 0.30 
-8.39 16.39 -0.79 0.04 
-8.07 16.54 -0.79 0.04 
-7.79 16.75 -0.80 0.57 
-15.53 35.11 -1.65 0.03 
-14.87 35.41 -1.65 0.03 
-14.20 35.70 -1.65 0.03 
-13.52 35.97 -1.65 0.03 
-6.50 18.35 -0.84 0.64 
-6.16 18.48 -0.84 0.90 
-1.97 6.31 -0.28 0.80 
-1.84 6.31 -0.28 0.81 
-1.71 6.31 -0.28 0.81 
-1.59 6.32 -0.28 0.82 
-1.46 6.34 -0.28 0.82 
-1.34 6.36 -0.28 0.82 
-1.22 6.37 -0.28 0.80 
-1.10 6.37 -0.28 0.81 
-0.97 6.37 -0.28 0.81 
-0.85 6.38 -0.28 0.81 
-0.73 6.38 -0.28 0.81 
-0.61 6.39 -0.28 0.82 
-0.49 6.39 -0.28 0.82 
-0.36 6.40 -0.28 0.82 
-0.24 6.41 -0.28 0.79 
-0.12 6.51 -0.28 0.08 
0.00 6.83 -0.29 0.05 
0.72 38.18 -1.64 0.03 
1.44 38.13 -1.64 0.03 
2.16 38.06 -1.64 0.03 
2.88 37.98 -1.64 0.03 
3.60 37.88 -1.64 0.03 
2.19 19.18 -0.83 0.85 
5.01 37.63 -1.63 0.03 
5.72 37.48 -1.63 0.03 
3.09 17.94 -0.78 0.87 
3.43 17.93 -0.79 0.91 
3.76 17.79 -0.78 0.04 
8.50 36.77 -1.62 0.03 
9.18 36.55 -1.62 0.03 
9.85 36.31 -1.62 0.03 
10.52 36.06 -1.62 0.03 
11.19 35.80 -1.62 0.03 
11.85 35.54 -1.61 0.03 
12.50 35.28 -1.61 0.03 
13.15 34.97 -1.61 0.03 
13.78 34.66 -1.61 0.03 
14.41 34.33 -1.60 0.03 
15.03 34.00 -1.60 0.03 
10.32 22.19 -1.05 0.64 
8.13 16.65 -0.80 0.79 
8.39 16.38 -0.79 0.93 
8.73 16.29 -0.80 0.80 
18.06 32.22 -1.59 0.03 
18.65 31.84 -1.59 0.03 
19.23 31.45 -1.59 0.03 
19.80 31.04 -1.59 0.03 
20.36 30.63 -1.58 0.03 
20.91 30.21 -1.58 0.03 
21.46 29.77 -1.58 0.03 
22.00 29.33 -1.58 0.03 
22.52 28.88 -1.58 0.03 
23.04 28.42 -1.58 0.03 
23.55 27.94 -1.57 0.03 
14.08 16.08 -0.92 0.15 
14.17 15.58 -0.91 0.80 
14.50 15.34 -0.91 0.61 
25.48 25.96 -1.57 0.03 
25.92 25.43 -1.56 0.04 
26.35 24.89 -1.56 0.04 
26.76 24.34 -1.56 0.04 
27.17 23.79 -1.56 0.04 
27.56 23.23 -1.55 0.04 
27.95 22.66 -1.55 0.04 
28.32 22.09 -1.55 0.04 
28.68 21.51 -1.54 0.04 
14.26 10.28 -0.76 0.91 
20.12 13.93 -1.05 0.43 
29.69 19.73 -1.54 0.04 
30.00 19.13 -1.53 0.04 
30.30 18.53 -1.53 0.04 
30.59 17.92 -1.53 0.03 
18.96 10.63 -0.94 0.58 
19.15 10.27 -0.94 0.90 
24.49 12.54 -1.18 0.45 
31.63 15.44 -1.52 0.03 
31.86 14.82 -1.51 0.03 
32.08 14.18 -1.51 0.03 
32.28 13.55 -1.51 0.03 
32.46 12.91 -1.50 0.03 
32.64 12.27 -1.50 0.03 
29.80 10.56 -1.36 0.45 
30.19 10.06 -1.37 0.75 
33.08 10.33 -1.49 0.04 
33.21 9.69 -1.49 0.04 
33.32 9.04 -1.49 0.03 
33.40 8.39 -1.48 0.03 
33.54 7.75 -1.48 0.04 
33.68 7.11 -1.48 0.04 
33.81 6.48 -1.48 0.04 
33.92 5.83 -1.48 0.04 
32.20 4.91 -1.40 0.64 
32.07 4.27 -1.39 0.84 
34.19 3.90 -1.48 0.04 
34.26 3.25 -1.48 0.04 
34.32 2.60 -1.48 0.04 
34.36 1.95 -1.48 0.04 
34.39 1.30 -1.48 0.04 
34.41 0.65 -1.48 0.04 
34.58 -0.00 -1.49 0.41 
35.42 -0.67 -1.53 0.52 
36.27 -1.37 -1.56 0.52 
37.10 -2.11 -1.60 0.53 
37.66 -2.86 -1.63 0.05 
37.70 -3.58 -1.63 0.04 
37.63 -4.29 -1.63 0.04 
37.55 -5.00 -1.63 0.04 
37.45 -5.71 -1.63 0.04 
37.34 -6.42 -1.63 0.04 
37.22 -7.13 -1.63 0.04 
37.09 -7.83 -1.63 0.04 
36.94 -8.54 -1.63 0.04 
36.78 -9.24 -1.63 0.04 
36.60 -9.93 -1.63 0.04 
36.42 -10.63 -1.63 0.04 
36.22 -11.32 -1.63 0.04 
36.01 -12.00 -1.63 0.04 
35.78 -12.68 -1.63 0.04 
35.54 -13.36 -1.64 0.04 
35.29 -14.04 -1.64 0.04 
35.03 -14.71 -1.64 0.04 
34.76 -15.37 -1.64 0.04 
34.47 -16.03 -1.64 0.04 
34.17 -16.68 -1.64 0.04 
33.86 -17.33 -1.64 0.04 
33.54 -17.98 -1.64 0.04 
33.20 -18.62 -1.64 0.04 
32.86 -19.25 -1.64 0.04 
32.50 -19.87 -1.64 0.04 
32.13 -20.49 -1.64 0.04 
31.75 -21.10 -1.64 0.04 
31.35 -21.71 -1.64 0.04 
28.14 -20.28 -1.49 0.04 
27.77 -20.82 -1.49 0.04 
27.38 -21.35 -1.50 0.04 
26.98 -21.88 -1.50 0.04 
26.57 -22.39 -1.50 0.04 
25.87 -22.65 -1.48 0.80 
25.73 -23.40 -1.50 0.04 
25.29 -23.90 -1.50 0.04 
24.85 -24.38 -1.50 0.04 
24.39 -24.86 -1.50 0.04 
23.93 -25.33 -1.50 0.04 
23.46 -25.79 -1.50 0.04 
18.75 -21.42 -1.23 0.88 
18.48 -21.93 -1.23 0.54 
21.99 -27.12 -1.50 0.04 
21.48 -27.54 -1.50 0.04 
6.51 -8.68 -0.47 0.80 
20.44 -28.36 -1.51 0.04 
19.91 -28.76 -1.51 0.04 
19.38 -29.15 -1.51 0.04 
18.83 -29.52 -1.51 0.04 
18.28 -29.89 -1.51 0.04 
17.72 -30.25 -1.51 0.04 
17.15 -30.59 -1.51 0.04 
16.58 -30.93 -1.51 0.04 
16.00 -31.26 -1.51 0.04 
5.46 -11.19 -0.54 0.66 
5.35 -11.50 -0.55 0.61 
6.16 -13.93 -0.66 0.34 
6.23 -14.84 -0.69 0.32 
13.01 -32.72 -1.52 0.04 
12.40 -32.98 -1.52 0.04 
11.78 -33.23 -1.52 0.04 
11.15 -33.46 -1.52 0.04 
10.52 -33.69 -1.52 0.04 
9.89 -33.90 -1.52 0.04 
9.25 -34.10 -1.52 0.04 
8.61 -34.29 -1.52 0.04 
7.97 -34.47 -1.52 0.04 
7.32 -34.63 -1.52 0.04 
6.66 -34.79 -1.53 0.04 
6.01 -34.93 -1.53 0.04 
5.35 -35.06 -1.53 0.04 
4.69 -35.17 -1.53 0.04 
4.02 -35.28 -1.53 0.04 
3.36 -35.37 -1.53 0.04 
2.69 -35.45 -1.53 0.04 
2.02 -35.51 -1.53 0.04 
1.35 -35.57 -1.53 0.04 
0.67 -35.61 -1.53 0.04 
0.00 -35.63 -1.53 0.04 
-0.67 -35.65 -1.54 0.04 
-1.35 -35.65 -1.54 0.04 
-2.03 -35.64 -1.54 0.04 
-0.95 -12.49 -0.54 0.57 
-3.38 -35.58 -1.54 0.04 
-4.05 -35.53 -1.54 0.04 
-4.73 -35.47 -1.54 0.04 
-5.40 -35.39 -1.54 0.04 
-6.07 -35.31 -1.54 0.04 
-6.74 -35.20 -1.54 0.04 
-7.41 -35.09 -1.54 0.04 
-8.08 -34.96 -1.55 0.04 
-8.75 -34.83 -1.55 0.04 
-9.41 -34.67 -1.55 0.04 
-10.07 -34.51 -1.55 0.04 
-10.73 -34.33 -1.55 0.04 
-11.38 -34.14 -1.55 0.04 
-12.03 -33.94 -1.55 0.04 
-12.68 -33.72 -1.55 0.04 
-13.32 -33.49 -1.55 0.04 
-13.96 -33.25 -1.55 0.04 
-14.59 -33.00 -1.55 0.04 
-15.22 -32.74 -1.55 0.04 
-15.85 -32.46 -1.56 0.04 
-16.47 -32.17 -1.56 0.04 
-17.08 -31.87 -1.56 0.04 
-17.69 -31.56 -1.56 0.04 
-7.61 -13.00 -0.65 0.37 
-7.77 -12.71 -0.64 0.75 
-7.96 -12.48 -0.64 0.60 
-20.07 -30.19 -1.56 0.04 
-20.64 -29.82 -1.56 0.04 
-21.21 -29.43 -1.56 0.04 
-21.78 -29.04 -1.56 0.04 
-22.33 -28.63 -1.56 0.04 
-22.88 -28.22 -1.56 0.04 
-23.42 -27.79 -1.57 0.04 
-23.95 -27.36 -1.57 0.04 
-24.48 -26.91 -1.57 0.04 
-24.99 -26.45 -1.57 0.04 
-25.50 -25.98 -1.57 0.04 
-25.99 -25.51 -1.57 0.04 
-26.48 -25.02 -1.57 0.04 
-26.96 -24.52 -1.57 0.04 
-27.43 -24.02 -1.57 0.04 
-27.89 -23.50 -1.57 0.04 
-28.34 -22.98 -1.57 0.04 
-28.78 -22.44 -1.57 0.04 
-29.21 -21.90 -1.57 0.04 
-29.62 -21.35 -1.57 0.04 
-29.34 -20.31 -1.54 0.74 
-13.45 -8.94 -0.70 0.75 
-33.89 -21.61 -1.73 0.04 
-22.79 -13.94 -1.15 0.07 
-34.70 -20.33 -1.73 0.04 
-35.09 -19.67 -1.73 0.04 
-35.46 -19.01 -1.73 0.04 
-35.82 -18.34 -1.73 0.04 
-36.17 -17.66 -1.73 0.04 
-36.51 -16.98 -1.73 0.04 
-36.83 -16.29 -1.73 0.04 
-37.14 -15.59 -1.73 0.04 
-23.56 -9.37 -1.09 0.29 
-37.71 -14.18 -1.73 0.04 
-37.98 -13.46 -1.74 0.04 
-38.23 -12.74 -1.74 0.04 
-38.47 -12.02 -1.74 0.04 
-13.74 -4.01 -0.62 0.39 
-13.81 -3.75 -0.62 0.48 
-14.32 -3.59 -0.64 0.36 
-39.28 -9.08 -1.74 0.04 
-39.45 -8.33 -1.74 0.04 
-39.60 -7.59 -1.74 0.04 
-39.74 -6.84 -1.74 0.04 
-39.87 -6.08 -1.74 0.04 
-39.97 -5.33 -1.74 0.04 
-10.29 -1.17 -0.45 0.29 
-10.18 -0.97 -0.44 0.26 
-10.06 -0.76 -0.43 0.27 
-10.05 -0.57 -0.43 0.31 
-10.05 -0.38 -0.43 0.31 
-10.06 -0.19 -0.43 0.31 
-10.03 -0.00 -0.44 0.31 
-10.06 0.19 -0.45 0.28 
-10.19 0.39 -0.45 0.26 
-10.31 0.59 -0.46 0.29 
-39.07 2.96 -1.73 0.04 
-19.75 1.87 -0.88 0.20 
-17.72 2.02 -0.79 0.14 
-16.77 2.24 -0.75 0.40 
-16.73 2.55 -0.75 0.92 
-16.72 2.88 -0.75 0.92 
-16.74 3.21 -0.75 0.89 
-16.78 3.54 -0.76 0.87 
-16.85 3.89 -0.77 0.42 
-37.91 9.52 -1.73 0.04 
-36.57 9.92 -1.68 0.26 
-34.36 10.02 -1.58 0.28 
-33.94 10.60 -1.57 0.04 
-33.72 11.24 -1.57 0.04 
-33.49 11.87 -1.57 0.04 
-15.10 5.68 -0.71 0.07 
-7.47 2.97 -0.36 0.17 
-7.29 3.06 -0.35 0.21 
-7.23 3.20 -0.35 0.15 
-7.22 3.36 -0.35 0.14 
-7.23 3.53 -0.36 0.10 
-11.87 6.08 -0.59 0.68 
-11.76 6.31 -0.59 0.72 
-11.73 6.58 -0.60 0.65 
-11.74 6.88 -0.60 0.56 
-11.83 7.23 -0.61 0.45 
-19.23 12.27 -1.01 0.88 
-18.81 12.50 -1.00 0.89 
-18.48 12.80 -1.00 0.89 
-18.16 13.09 -0.99 0.90 
-28.86 21.64 -1.60 0.03 
-23.77 18.54 -1.33 0.85 
-28.12 22.80 -1.60 0.03 
-27.73 23.36 -1.60 0.03 
-18.67 16.35 -1.10 0.73 
-18.56 16.88 -1.11 0.24 
-13.56 12.81 -0.83 0.25 
-13.12 12.87 -0.81 0.90 
-12.99 13.24 -0.82 0.62 
-25.13 26.60 -1.62 0.03 
-24.65 27.10 -1.62 0.03 
-24.17 27.60 -1.62 0.03 
-13.78 16.35 -0.95 0.70 
-13.39 16.51 -0.94 0.84 
-13.23 16.96 -0.95 0.43 
-22.11 29.49 -1.63 0.03 
-21.57 29.93 -1.63 0.03 
-21.02 30.36 -1.63 0.03 
-20.47 30.79 -1.64 0.03 
-14.49 22.72 -1.19 0.45 
-14.18 23.19 -1.20 0.76 
-9.75 16.65 -0.85 0.84 
-18.14 32.35 -1.64 0.03 
-8.96 16.72 -0.84 0.11 
-8.38 16.37 -0.81 0.91 
-8.04 16.48 -0.81 0.92 
-7.79 16.76 -0.82 0.25 
-15.04 34.01 -1.65 0.03 
-14.40 34.31 -1.65 0.03 
-13.75 34.58 -1.65 0.03 
-13.10 34.85 -1.65 0.03 
-6.50 18.34 -0.86 0.72 
-6.16 18.48 -0.86 0.89 
-1.97 6.31 -0.29 0.80 
-1.84 6.30 -0.29 0.81 
-1.71 6.30 -0.29 0.81 
-1.58 6.31 -0.29 0.82 
-1.46 6.33 -0.29 0.82 
-1.34 6.35 -0.29 0.82 
-1.22 6.36 -0.29 0.80 
-1.09 6.36 -0.29 0.81 
-0.97 6.37 -0.28 0.81 
-0.85 6.37 -0.28 0.81 
-0.73 6.38 -0.28 0.82 
-0.61 6.38 -0.28 0.82 
-0.48 6.39 -0.28 0.82 
-0.36 6.39 -0.28 0.82 
-0.24 6.40 -0.28 0.79 
-0.12 6.43 -0.28 0.09 
0.00 6.76 -0.30 0.08 
0.70 37.00 -1.64 0.03 
1.40 36.94 -1.64 0.03 
2.10 36.88 -1.63 0.03 
2.79 36.80 -1.63 0.03 
3.48 36.71 -1.63 0.03 
2.19 19.18 -0.85 0.89 
4.86 36.47 -1.63 0.03 
2.67 17.52 -0.78 0.04 
3.09 17.94 -0.81 0.87 
3.43 17.92 -0.81 0.91 
3.73 17.68 -0.80 0.72 
8.24 35.64 -1.62 0.03 
8.90 35.43 -1.62 0.03 
9.55 35.21 -1.61 0.03 
10.20 34.97 -1.61 0.03 
10.85 34.72 -1.61 0.03 
11.49 34.46 -1.61 0.03 
12.12 34.20 -1.61 0.03 
12.75 33.92 -1.60 0.03 
13.37 33.62 -1.60 0.03 
13.98 33.31 -1.60 0.03 
14.58 32.98 -1.60 0.03 
10.33 22.21 -1.08 0.64 
8.15 16.69 -0.82 0.36 
8.40 16.41 -0.82 0.43 
8.75 16.33 -0.82 0.36 
17.52 31.25 -1.59 0.03 
18.09 30.88 -1.58 0.03 
18.65 30.49 -1.58 0.03 
19.20 30.10 -1.58 0.03 
19.74 29.70 -1.58 0.03 
20.28 29.29 -1.58 0.03 
20.81 28.87 -1.57 0.03 
21.32 28.44 -1.57 0.03 
21.83 28.00 -1.57 0.03 
22.33 27.55 -1.57 0.03 
22.83 27.09 -1.57 0.03 
14.12 16.13 -0.95 0.15 
14.17 15.58 -0.93 0.80 
14.50 15.35 -0.93 0.61 
24.69 25.16 -1.56 0.03 
25.13 24.66 -1.56 0.03 
25.56 24.15 -1.56 0.03 
25.97 23.63 -1.55 0.03 
26.38 23.10 -1.55 0.03 
26.78 22.56 -1.55 0.03 
27.16 22.02 -1.55 0.03 
27.53 21.47 -1.55 0.03 
27.88 20.91 -1.54 0.04 
14.26 10.27 -0.78 0.91 
20.15 13.95 -1.08 0.43 
28.87 19.19 -1.53 0.04 
29.17 18.61 -1.53 0.04 
29.46 18.02 -1.53 0.04 
29.75 17.42 -1.53 0.04 
18.96 10.63 -0.96 0.58 
19.15 10.27 -0.96 0.90 
24.54 12.56 -1.22 0.44 
30.75 15.01 -1.51 0.04 
30.97 14.40 -1.51 0.04 
31.18 13.79 -1.51 0.04 
31.38 13.17 -1.51 0.03 
31.55 12.55 -1.50 0.03 
31.72 11.92 -1.50 0.03 
29.80 10.56 -1.40 0.45 
30.19 10.06 -1.41 0.75 
32.13 10.04 -1.49 0.04 
32.24 9.41 -1.49 0.04 
32.36 8.78 -1.48 0.04 
32.51 8.16 -1.48 0.04 
32.66 7.55 -1.48 0.04 
32.79 6.93 -1.48 0.04 
32.92 6.31 -1.48 0.04 
33.03 5.68 -1.48 0.04 
32.20 4.91 -1.44 0.64 
32.07 4.27 -1.43 0.84 
33.30 3.80 -1.48 0.04 
33.36 3.17 -1.48 0.04 
33.42 2.53 -1.48 0.04 
33.46 1.90 -1.48 0.04 
33.49 1.27 -1.48 0.04 
33.72 0.64 -1.49 0.53 
34.56 -0.00 -1.53 0.53 
35.41 -0.67 -1.57 0.52 
36.25 -1.37 -1.61 0.52 
36.73 -2.09 -1.63 0.05 
36.77 -2.79 -1.63 0.04 
36.71 -3.48 -1.63 0.04 
36.64 -4.18 -1.63 0.04 
36.56 -4.87 -1.63 0.04 
36.47 -5.56 -1.63 0.04 
36.36 -6.25 -1.63 0.04 
36.24 -6.94 -1.63 0.04 
36.11 -7.63 -1.63 0.04 
35.97 -8.31 -1.63 0.04 
35.81 -8.99 -1.63 0.04 
35.64 -9.67 -1.63 0.04 
35.46 -10.35 -1.63 0.04 
35.27 -11.02 -1.64 0.04 
35.06 -11.69 -1.64 0.04 
34.84 -12.35 -1.64 0.04 
34.61 -13.01 -1.64 0.04 
34.37 -13.67 -1.64 0.04 
34.11 -14.32 -1.64 0.04 
33.84 -14.97 -1.64 0.04 
33.56 -15.61 -1.64 0.04 
33.27 -16.24 -1.64 0.04 
32.97 -16.88 -1.64 0.04 
32.65 -17.50 -1.64 0.04 
32.33 -18.12 -1.64 0.04 
31.99 -18.74 -1.64 0.04 
31.64 -19.35 -1.64 0.04 
31.28 -19.95 -1.64 0.04 
30.91 -20.55 -1.64 0.04 
30.52 -21.13 -1.64 0.04 
27.40 -19.75 -1.49 0.04 
27.03 -20.27 -1.50 0.04 
26.65 -20.79 -1.50 0.04 
26.27 -21.30 -1.50 0.04 
25.87 -21.80 -1.50 0.04 
25.46 -22.29 -1.50 0.04 
25.05 -22.78 -1.50 0.04 
24.62 -23.26 -1.50 0.04 
24.19 -23.73 -1.50 0.04 
23.74 -24.20 -1.50 0.04 
23.29 -24.65 -1.50 0.04 
22.83 -25.10 -1.50 0.04 
18.75 -21.42 -1.26 0.88 
18.48 -21.93 -1.27 0.54 
21.40 -26.39 -1.50 0.04 
20.91 -26.81 -1.50 0.04 
6.51 -8.68 -0.48 0.80 
19.90 -27.61 -1.51 0.04 
19.38 -27.99 -1.51 0.04 
18.86 -28.37 -1.51 0.04 
18.33 -28.74 -1.51 0.04 
17.79 -29.09 -1.51 0.04 
17.25 -29.44 -1.51 0.04 
16.69 -29.78 -1.51 0.04 
16.14 -30.10 -1.51 0.04 
15.57 -30.42 -1.51 0.04 
5.47 -11.20 -0.55 0.46 
5.35 -11.50 -0.56 0.62 
6.16 -13.93 -0.67 0.34 
6.23 -14.84 -0.71 0.32 
12.66 -31.84 -1.52 0.04 
12.06 -32.09 -1.52 0.04 
11.46 -32.33 -1.52 0.04 
10.85 -32.56 -1.52 0.04 
10.24 -32.78 -1.52 0.04 
9.62 -32.99 -1.52 0.04 
9.00 -33.18 -1.52 0.04 
8.38 -33.37 -1.52 0.04 
7.75 -33.54 -1.52 0.04 
7.12 -33.70 -1.52 0.04 
6.48 -33.85 -1.53 0.04 
5.85 -33.99 -1.53 0.04 
5.20 -34.11 -1.53 0.04 
4.56 -34.22 -1.53 0.04 
3.91 -34.32 -1.53 0.04 
3.27 -34.41 -1.53 0.04 
2.62 -34.49 -1.53 0.04 
1.96 -34.55 -1.53 0.04 
1.31 -34.60 -1.53 0.04 
0.66 -34.64 -1.53 0.04 
0.00 -34.67 -1.53 0.04 
-0.66 -34.68 -1.54 0.04 
-1.31 -34.68 -1.54 0.04 
-1.97 -34.67 -1.54 0.04 
-0.95 -12.49 -0.55 0.57 
-3.28 -34.61 -1.54 0.04 
-3.94 -34.56 -1.54 0.04 
-4.60 -34.50 -1.54 0.04 
-5.25 -34.43 -1.54 0.04 
-5.91 -34.34 -1.54 0.04 
-6.56 -34.24 -1.54 0.04 
-7.21 -34.13 -1.54 0.04 
-7.86 -34.01 -1.54 0.04 
-8.51 -33.87 -1.55 0.04 
-9.15 -33.72 -1.55 0.04 
-9.79 -33.56 -1.55 0.04 
-10.43 -33.39 -1.55 0.04 
-11.07 -33.20 -1.55 0.04 
-11.70 -33.01 -1.55 0.04 
-12.33 -32.80 -1.55 0.04 
-12.95 -32.58 -1.55 0.04 
-13.58 -32.34 -1.55 0.04 
-14.19 -32.09 -1.55 0.04 
-14.81 -31.84 -1.55 0.04 
-15.41 -31.57 -1.55 0.04 
-16.02 -31.29 -1.56 0.04 
-16.61 -30.99 -1.56 0.04 
-17.20 -30.69 -1.56 0.04 
-17.79 -30.37 -1.56 0.04 
-7.77 -12.71 -0.66 0.73 
-7.95 -12.47 -0.65 0.53 
-19.51 -29.35 -1.56 0.04 
-20.07 -28.99 -1.56 0.04 
-20.63 -28.62 -1.56 0.04 
-21.18 -28.24 -1.56 0.04 
-21.72 -27.84 -1.56 0.04 
-22.25 -27.44 -1.56 0.04 
-22.77 -27.02 -1.56 0.04 
-23.29 -26.60 -1.56 0.04 
-23.80 -26.16 -1.57 0.04 
-24.30 -25.72 -1.57 0.04 
-24.79 -25.26 -1.57 0.04 
-25.27 -24.80 -1.57 0.04 
-25.75 -24.33 -1.57 0.04 
-26.21 -23.84 -1.57 0.04 
-26.67 -23.35 -1.57 0.04 
-27.11 -22.85 -1.57 0.04 
-27.55 -22.34 -1.57 0.04 
-27.98 -21.82 -1.57 0.04 
-28.39 -21.29 -1.57 0.04 
-28.80 -20.76 -1.57 0.04 
-29.20 -20.22 -1.57 0.04 
-13.45 -8.94 -0.71 0.75 
-29.96 -19.11 -1.57 0.04 
-22.86 -13.98 -1.19 0.41 
-33.73 -19.76 -1.73 0.04 
-34.11 -19.12 -1.73 0.04 
-34.47 -18.48 -1.73 0.04 
-34.82 -17.83 -1.73 0.04 
-35.16 -17.17 -1.73 0.04 
-35.49 -16.50 -1.73 0.04 
-35.80 -15.83 -1.73 0.04 
-36.10 -15.15 -1.73 0.04 
-23.56 -9.37 -1.12 0.29 
-36.66 -13.78 -1.73 0.04 
-36.92 -13.09 -1.73 0.04 
-37.16 -12.39 -1.73 0.04 
-37.40 -11.68 -1.73 0.04 
-13.72 -4.00 -0.63 0.68 
-13.79 -3.74 -0.63 0.48 
-14.30 -3.59 -0.65 0.32 
-38.19 -8.82 -1.73 0.04 
-38.35 -8.10 -1.73 0.04 
-38.50 -7.37 -1.73 0.04 
-38.63 -6.64 -1.74 0.04 
-38.75 -5.91 -1.74 0.04 
-38.86 -5.18 -1.74 0.04 
-10.25 -1.17 -0.46 0.29 
-10.14 -0.96 -0.45 0.26 
-10.02 -0.76 -0.44 0.28 
-10.01 -0.57 -0.44 0.32 
-10.02 -0.38 -0.44 0.32 
-10.02 -0.19 -0.44 0.32 
-10.00 -0.00 -0.45 0.32 
-10.02 0.19 -0.46 0.28 
-10.14 0.38 -0.46 0.26 
-10.27 0.58 -0.47 0.29 
-38.01 2.88 -1.73 0.04 
-19.74 1.87 -0.90 0.19 
-17.64 2.01 -0.81 0.14 
-16.75 2.23 -0.77 0.74 
-16.72 2.55 -0.77 0.89 
-16.72 2.88 -0.77 0.92 
-16.74 3.21 -0.77 0.89 
-16.77 3.54 -0.78 0.87 
-16.84 3.89 -0.79 0.42 
-36.92 9.27 -1.73 0.04 
-36.54 9.92 -1.72 0.26 
-34.33 10.02 -1.63 0.28 
-33.02 10.31 -1.57 0.04 
-32.81 10.94 -1.57 0.04 
-32.59 11.55 -1.57 0.04 
-15.05 5.66 -0.73 0.34 
-7.42 2.95 -0.36 0.18 
-7.25 3.04 -0.36 0.21 
-7.18 3.17 -0.36 0.16 
-7.16 3.33 -0.36 0.14 
-7.16 3.50 -0.36 0.13 
-11.86 6.07 -0.61 0.68 
-11.75 6.30 -0.61 0.72 
-11.71 6.57 -0.61 0.65 
-11.72 6.87 -0.62 0.56 
-11.81 7.22 -0.63 0.45 
-19.08 12.17 -1.03 0.78 
-18.81 12.50 -1.03 0.89 
-18.48 12.80 -1.02 0.89 
-18.16 13.09 -1.02 0.90 
-28.01 21.00 -1.59 0.04 
-23.76 18.53 -1.37 0.85 
-27.28 22.12 -1.60 0.04 
-26.90 22.67 -1.60 0.04 
-18.69 16.36 -1.13 0.73 
-18.61 16.93 -1.14 0.24 
-13.56 12.81 -0.85 0.25 
-13.11 12.87 -0.84 0.90 
-12.99 13.24 -0.84 0.62 
-24.38 25.80 -1.61 0.03 
-23.92 26.29 -1.62 0.03 
-23.44 26.77 -1.62 0.03 
-13.79 16.36 -0.97 0.70 
-13.40 16.52 -0.97 0.84 
-13.24 16.98 -0.98 0.43 
-21.45 28.60 -1.63 0.03 
-20.92 29.03 -1.63 0.03 
-20.39 29.45 -1.63 0.03 
-19.85 29.86 -1.63 0.03 
-14.49 22.72 -1.22 0.45 
-14.18 23.19 -1.24 0.76 
-9.75 16.64 -0.88 0.85 
-17.59 31.37 -1.63 0.03 
-17.00 31.72 -1.64 0.03 
-8.40 16.42 -0.84 0.32 
-8.06 16.51 -0.84 0.42 
-7.82 16.82 -0.84 0.25 
-14.59 32.98 -1.64 0.03 
-13.96 33.27 -1.64 0.03 
-13.34 33.53 -1.64 0.03 
-12.70 33.79 -1.64 0.03 
-6.50 18.34 -0.88 0.70 
-6.16 18.47 -0.89 0.89 
-1.97 6.30 -0.30 0.81 
-1.84 6.30 -0.30 0.81 
-1.71 6.30 -0.30 0.81 
-1.58 6.30 -0.30 0.82 
-1.46 6.33 -0.30 0.82 
-1.34 6.35 -0.29 0.82 
-1.22 6.36 -0.29 0.81 
-1.09 6.36 -0.29 0.81 
-0.97 6.36 -0.29 0.81 
-0.85 6.37 -0.29 0.82 
-0.73 6.37 -0.29 0.82 
-0.61 6.38 -0.29 0.82 
-0.48 6.38 -0.29 0.82 
-0.36 6.39 -0.29 0.82 
-0.24 6.39 -0.29 0.79 
-0.12 6.41 -0.29 0.80 
0.00 6.66 -0.30 0.08 
0.68 35.88 -1.63 0.03 
1.36 35.83 -1.63 0.03 
2.03 35.77 -1.63 0.03 
2.71 35.69 -1.63 0.03 
3.38 35.61 -1.63 0.03 
2.19 19.18 -0.88 0.92 
4.71 35.38 -1.62 0.03 
2.61 17.13 -0.79 0.29 
3.08 17.94 -0.83 0.87 
3.43 17.92 -0.83 0.91 
3.56 16.86 -0.78 0.04 
7.99 34.59 -1.61 0.04 
8.63 34.38 -1.61 0.04 
9.27 34.17 -1.61 0.04 
9.90 33.94 -1.61 0.04 
10.53 33.69 -1.60 0.04 
11.15 33.44 -1.60 0.04 
11.76 33.19 -1.60 0.04 
12.38 32.93 -1.60 0.04 
12.98 32.64 -1.60 0.04 
13.57 32.34 -1.59 0.04 
14.16 32.02 -1.59 0.04 
10.34 22.23 -1.11 0.64 
8.17 16.73 -0.85 0.72 
8.42 16.45 -0.84 0.43 
8.77 16.37 -0.84 0.73 
17.01 30.33 -1.58 0.04 
17.56 29.97 -1.58 0.04 
18.10 29.60 -1.58 0.04 
18.64 29.22 -1.58 0.04 
19.16 28.83 -1.57 0.04 
19.68 28.43 -1.57 0.04 
20.19 28.02 -1.57 0.04 
20.70 27.60 -1.57 0.04 
21.19 27.17 -1.57 0.04 
21.68 26.73 -1.56 0.04 
22.15 26.29 -1.56 0.04 
14.16 16.17 -0.98 0.15 
14.18 15.59 -0.96 0.80 
14.51 15.36 -0.96 0.61 
23.96 24.41 -1.55 0.04 
24.38 23.93 -1.55 0.04 
24.80 23.43 -1.55 0.04 
25.20 22.92 -1.55 0.04 
25.60 22.41 -1.55 0.04 
25.98 21.89 -1.54 0.04 
26.35 21.37 -1.54 0.04 
26.71 20.83 -1.54 0.04 
27.06 20.29 -1.54 0.04 
14.25 10.27 -0.80 0.91 
20.18 13.97 -1.12 0.43 
15.34 10.19 -0.84 0.65 
28.33 18.07 -1.53 0.04 
28.62 17.50 -1.52 0.04 
28.89 16.92 -1.52 0.04 
18.96 10.63 -0.99 0.58 
19.15 10.27 -0.99 0.90 
24.59 12.59 -1.26 0.44 
29.87 14.58 -1.51 0.04 
30.08 13.99 -1.51 0.04 
30.28 13.39 -1.50 0.04 
30.46 12.79 -1.50 0.04 
30.64 12.18 -1.50 0.04 
30.80 11.58 -1.50 0.04 
29.81 10.57 -1.44 0.35 
30.21 10.07 -1.45 0.60 
31.21 9.75 -1.49 0.04 
31.36 9.15 -1.49 0.04 
31.53 8.55 -1.49 0.04 
31.68 7.96 -1.48 0.04 
31.82 7.35 -1.48 0.04 
31.96 6.75 -1.48 0.04 
32.08 6.14 -1.48 0.04 
32.19 5.54 -1.48 0.04 
32.19 4.91 -1.48 0.64 
32.07 4.27 -1.47 0.84 
32.45 3.70 -1.48 0.04 
32.51 3.09 -1.48 0.04 
32.56 2.47 -1.48 0.04 
32.60 1.85 -1.48 0.04 
32.87 1.24 -1.50 0.53 
33.71 0.64 -1.53 0.53 
34.55 0.00 -1.57 0.53 
35.40 -0.67 -1.61 0.52 
35.83 -1.36 -1.63 0.05 
35.87 -2.04 -1.63 0.04 
35.83 -2.72 -1.63 0.04 
35.77 -3.40 -1.63 0.04 
35.71 -4.07 -1.63 0.04 
35.63 -4.75 -1.63 0.04 
35.53 -5.42 -1.63 0.04 
35.43 -6.09 -1.63 0.04 
35.32 -6.76 -1.63 0.04 
35.19 -7.43 -1.63 0.04 
35.05 -8.10 -1.64 0.04 
34.89 -8.76 -1.64 0.04 
34.73 -9.42 -1.64 0.04 
34.55 -10.08 -1.64 0.04 
34.36 -10.73 -1.64 0.04 
34.16 -11.39 -1.64 0.04 
33.95 -12.03 -1.64 0.04 
33.72 -12.68 -1.64 0.04 
33.48 -13.32 -1.64 0.04 
33.23 -13.95 -1.64 0.04 
32.97 -14.58 -1.64 0.04 
32.70 -15.21 -1.64 0.04 
32.42 -15.83 -1.64 0.04 
32.12 -16.44 -1.64 0.04 
31.81 -17.05 -1.64 0.04 
31.50 -17.66 -1.64 0.04 
31.17 -18.26 -1.64 0.04 
30.82 -18.85 -1.64 0.04 
30.47 -19.44 -1.64 0.04 
30.11 -20.02 -1.64 0.04 
5.60 -3.88 -0.31 0.08 
5.56 -4.01 -0.31 0.07 
26.33 -19.75 -1.50 0.04 
25.97 -20.25 -1.50 0.04 
25.59 -20.75 -1.50 0.04 
25.20 -21.24 -1.50 0.04 
24.80 -21.72 -1.50 0.04 
24.40 -22.19 -1.50 0.04 
23.98 -22.66 -1.50 0.04 
23.56 -23.12 -1.50 0.04 
23.13 -23.57 -1.50 0.04 
22.69 -24.02 -1.50 0.04 
22.24 -24.45 -1.50 0.04 
18.75 -21.42 -1.29 0.88 
18.48 -21.93 -1.30 0.54 
20.85 -25.71 -1.50 0.04 
20.37 -26.11 -1.51 0.04 
6.51 -8.68 -0.49 0.80 
19.38 -26.89 -1.51 0.04 
18.88 -27.27 -1.51 0.04 
18.37 -27.63 -1.51 0.04 
17.85 -27.99 -1.51 0.04 
17.33 -28.34 -1.51 0.04 
16.80 -28.67 -1.51 0.04 
16.26 -29.00 -1.51 0.04 
15.72 -29.32 -1.51 0.04 
15.17 -29.63 -1.51 0.04 
6.78 -13.89 -0.70 0.86 
5.35 -11.50 -0.58 0.61 
6.16 -13.93 -0.69 0.34 
6.23 -14.84 -0.73 0.32 
12.33 -31.01 -1.52 0.04 
11.75 -31.25 -1.52 0.04 
11.16 -31.49 -1.52 0.04 
10.57 -31.71 -1.52 0.04 
9.97 -31.92 -1.52 0.04 
9.37 -32.12 -1.52 0.04 
8.77 -32.31 -1.52 0.04 
8.16 -32.49 -1.52 0.04 
7.55 -32.66 -1.52 0.04 
6.93 -32.81 -1.52 0.04 
6.31 -32.96 -1.53 0.04 
5.69 -33.09 -1.53 0.04 
5.07 -33.21 -1.53 0.04 
4.44 -33.32 -1.53 0.04 
3.81 -33.42 -1.53 0.04 
3.18 -33.50 -1.53 0.04 
2.55 -33.58 -1.53 0.04 
1.91 -33.64 -1.53 0.04 
1.28 -33.69 -1.53 0.04 
0.64 -33.72 -1.53 0.04 
-0.00 -33.75 -1.53 0.04 
-0.64 -33.76 -1.53 0.04 
-1.28 -33.76 -1.54 0.04 
-1.92 -33.75 -1.54 0.04 
-0.95 -12.49 -0.57 0.53 
-3.20 -33.69 -1.54 0.04 
-3.84 -33.65 -1.54 0.04 
-4.48 -33.59 -1.54 0.04 
-5.11 -33.51 -1.54 0.04 
-5.75 -33.43 -1.54 0.04 
-6.38 -33.33 -1.54 0.04 
-7.02 -33.22 -1.54 0.04 
-7.65 -33.10 -1.54 0.04 
-8.28 -32.97 -1.55 0.04 
-8.91 -32.83 -1.55 0.04 
-9.53 -32.67 -1.55 0.04 
-10.15 -32.50 -1.55 0.04 
-10.77 -32.32 -1.55 0.04 
-11.39 -32.13 -1.55 0.04 
-12.00 -31.92 -1.55 0.04 
-12.61 -31.70 -1.55 0.04 
-13.21 -31.48 -1.55 0.04 
-13.81 -31.24 -1.55 0.04 
-14.41 -30.98 -1.55 0.04 
-15.00 -30.72 -1.55 0.04 
-15.59 -30.45 -1.55 0.04 
-16.17 -30.16 -1.56 0.04 
-16.74 -29.86 -1.56 0.04 
-17.31 -29.56 -1.56 0.04 
-7.78 -12.72 -0.68 0.70 
-7.95 -12.46 -0.67 0.66 
-18.99 -28.56 -1.56 0.04 
-19.53 -28.21 -1.56 0.04 
-20.07 -27.85 -1.56 0.04 
-20.61 -27.48 -1.56 0.04 
-21.13 -27.09 -1.56 0.04 
-21.65 -26.70 -1.56 0.04 
-22.16 -26.30 -1.56 0.04 
-22.66 -25.88 -1.56 0.04 
-23.16 -25.46 -1.56 0.04 
-23.64 -25.02 -1.57 0.04 
-24.12 -24.58 -1.57 0.04 
-24.59 -24.13 -1.57 0.04 
-25.05 -23.67 -1.57 0.04 
-25.50 -23.20 -1.57 0.04 
-25.95 -22.72 -1.57 0.04 
-26.38 -22.23 -1.57 0.04 
-26.81 -21.74 -1.57 0.04 
-27.22 -21.23 -1.57 0.04 
-27.63 -20.72 -1.57 0.04 
-28.02 -20.20 -1.57 0.04 
-28.41 -19.67 -1.57 0.04 
-13.45 -8.94 -0.73 0.75 
-29.15 -18.59 -1.57 0.04 
-29.50 -18.04 -1.57 0.04 
-29.84 -17.48 -1.57 0.04 
-33.18 -18.60 -1.73 0.04 
-33.54 -17.98 -1.73 0.04 
-33.88 -17.34 -1.73 0.04 
-34.21 -16.70 -1.73 0.04 
-34.52 -16.06 -1.73 0.04 
-34.83 -15.40 -1.73 0.04 
-35.12 -14.74 -1.73 0.04 
-23.55 -9.37 -1.15 0.29 
-35.66 -13.41 -1.73 0.04 
-35.92 -12.73 -1.73 0.04 
-36.16 -12.05 -1.73 0.04 
-36.38 -11.37 -1.73 0.04 
-13.70 -4.00 -0.65 0.69 
-13.75 -3.73 -0.65 0.93 
-14.29 -3.59 -0.67 0.26 
-37.15 -8.59 -1.73 0.04 
-37.31 -7.88 -1.73 0.04 
-37.45 -7.17 -1.73 0.04 
-37.58 -6.46 -1.73 0.04 
-37.70 -5.75 -1.73 0.04 
-37.80 -5.04 -1.73 0.04 
-10.21 -1.16 -0.47 0.29 
-10.10 -0.96 -0.46 0.26 
-9.98 -0.76 -0.46 0.28 
-9.98 -0.57 -0.45 0.32 
-9.98 -0.38 -0.45 0.32 
-9.99 -0.19 -0.45 0.32 
-9.97 -0.00 -0.46 0.32 
-9.98 0.19 -0.47 0.29 
-10.10 0.38 -0.47 0.26 
-10.24 0.58 -0.48 0.29 
-37.00 2.81 -1.73 0.04 
-19.73 1.87 -0.92 0.19 
-17.58 2.00 -0.83 0.14 
-16.75 2.23 -0.79 0.74 
-16.71 2.55 -0.79 0.89 
-16.73 2.88 -0.79 0.92 
-16.74 3.21 -0.80 0.89 
-16.77 3.54 -0.80 0.87 
-16.82 3.89 -0.81 0.42 
-35.94 9.03 -1.73 0.04 
-35.69 9.68 -1.73 0.04 
-34.31 10.01 -1.67 0.28 
-32.33 10.10 -1.58 0.29 
-31.94 10.65 -1.57 0.04 
-31.73 11.25 -1.57 0.04 
-7.71 2.90 -0.38 0.37 
-7.39 2.94 -0.37 0.37 
-7.21 3.03 -0.36 0.21 
-7.13 3.15 -0.36 0.16 
-7.11 3.30 -0.37 0.33 
-7.11 3.47 -0.37 0.28 
-11.85 6.06 -0.62 0.68 
-11.74 6.29 -0.62 0.72 
-11.70 6.56 -0.63 0.65 
-11.71 6.86 -0.63 0.57 
-11.79 7.21 -0.64 0.45 
-19.06 12.16 -1.05 0.82 
-18.81 12.50 -1.05 0.89 
-18.48 12.80 -1.05 0.89 
-18.16 13.09 -1.04 0.90 
-27.21 20.40 -1.59 0.04 
-23.76 18.53 -1.41 0.85 
-26.50 21.49 -1.59 0.04 
-26.13 22.02 -1.59 0.04 
-18.70 16.38 -1.16 0.73 
-18.65 16.97 -1.18 0.24 
-13.56 12.81 -0.87 0.25 
-13.11 12.87 -0.86 0.90 
-12.99 13.24 -0.87 0.62 
-23.67 25.05 -1.61 0.04 
-23.22 25.53 -1.61 0.04 
-22.76 26.00 -1.61 0.04 
-13.79 16.37 -1.00 0.70 
-13.40 16.53 -0.99 0.84 
-13.25 16.99 -1.01 0.43 
-20.82 27.77 -1.62 0.04 
-20.31 28.18 -1.62 0.04 
-19.80 28.59 -1.62 0.04 
-19.27 28.98 -1.62 0.04 
-11.62 18.22 -1.01 0.31 
-14.18 23.19 -1.27 0.76 
-9.75 16.64 -0.90 0.85 
-17.07 30.45 -1.63 0.04 
-16.50 30.79 -1.63 0.04 
-8.43 16.46 -0.86 0.65 
-8.08 16.55 -0.86 0.79 
-7.84 16.87 -0.87 0.52 
-14.16 32.01 -1.63 0.04 
-13.55 32.29 -1.63 0.04 
-12.94 32.55 -1.63 0.04 
-12.33 32.79 -1.63 0.04 
-6.51 18.35 -0.91 0.58 
-2.21 6.64 -0.33 0.08 
-1.97 6.30 -0.31 0.81 
-1.84 6.30 -0.31 0.81 
-1.71 6.29 -0.30 0.82 
-1.58 6.30 -0.30 0.82 
-1.46 6.32 -0.30 0.82 
-1.34 6.34 -0.30 0.82 
-1.22 6.35 -0.30 0.81 
-1.09 6.35 -0.30 0.81 
-0.97 6.36 -0.30 0.82 
-0.85 6.36 -0.30 0.82 
-0.73 6.37 -0.30 0.82 
-0.60 6.37 -0.30 0.82 
-0.48 6.38 -0.30 0.82 
-0.36 6.38 -0.30 0.82 
-0.24 6.39 -0.30 0.79 
-0.12 6.41 -0.30 0.80 
-0.00 6.57 -0.31 0.08 
0.13 7.05 -0.33 0.05 
1.32 34.78 -1.62 0.04 
1.97 34.72 -1.62 0.04 
2.63 34.65 -1.62 0.04 
3.28 34.57 -1.62 0.04 
2.19 19.18 -0.90 0.92 
4.58 34.35 -1.62 0.04 
2.61 17.14 -0.81 0.11 
2.89 16.83 -0.80 0.92 
3.20 16.72 -0.79 0.88 
3.55 16.79 -0.80 0.58 
7.76 33.59 -1.61 0.04 
8.39 33.40 -1.61 0.04 
9.00 33.19 -1.60 0.04 
9.62 32.96 -1.60 0.04 
10.23 32.73 -1.60 0.04 
10.83 32.48 -1.60 0.04 
11.43 32.24 -1.60 0.04 
12.02 31.98 -1.59 0.04 
12.61 31.71 -1.59 0.04 
13.19 31.42 -1.59 0.04 
13.76 31.11 -1.59 0.04 
10.35 22.25 -1.14 0.64 
8.17 16.74 -0.87 0.72 
8.42 16.46 -0.86 0.85 
8.78 16.38 -0.87 0.73 
16.52 29.47 -1.58 0.04 
17.06 29.12 -1.57 0.04 
17.59 28.76 -1.57 0.04 
18.11 28.39 -1.57 0.04 
18.62 28.01 -1.57 0.04 
19.12 27.62 -1.57 0.04 
19.62 27.22 -1.57 0.04 
20.11 26.81 -1.56 0.04 
20.59 26.40 -1.56 0.04 
21.06 25.97 -1.56 0.04 
21.52 25.54 -1.56 0.04 
14.21 16.22 -1.01 0.12 
14.19 15.60 -0.98 0.80 
14.52 15.37 -0.99 0.61 
23.27 23.72 -1.55 0.04 
23.69 23.24 -1.55 0.04 
24.09 22.76 -1.55 0.04 
24.48 22.27 -1.54 0.04 
24.86 21.77 -1.54 0.04 
25.24 21.27 -1.54 0.04 
25.60 20.75 -1.54 0.04 
25.95 20.24 -1.54 0.04 
26.28 19.71 -1.53 0.04 
14.25 10.27 -0.82 0.91 
20.20 13.99 -1.15 0.43 
15.33 10.19 -0.86 0.65 
27.52 17.55 -1.52 0.04 
27.80 17.00 -1.52 0.04 
28.07 16.44 -1.52 0.04 
18.96 10.63 -1.01 0.58 
19.16 10.27 -1.01 0.90 
24.63 12.61 -1.29 0.44 
29.02 14.17 -1.51 0.04 
29.23 13.59 -1.50 0.04 
29.43 13.01 -1.50 0.04 
29.61 12.43 -1.50 0.04 
29.78 11.84 -1.50 0.04 
29.94 11.26 -1.49 0.04 
29.86 10.58 -1.48 0.35 
30.22 10.07 -1.49 0.04 
30.41 9.50 -1.49 0.04 
30.58 8.92 -1.49 0.04 
30.74 8.34 -1.49 0.04 
30.89 7.76 -1.49 0.04 
31.03 7.17 -1.49 0.04 
31.16 6.58 -1.49 0.04 
31.28 5.99 -1.49 0.04 
31.38 5.40 -1.49 0.04 
31.48 4.80 -1.49 0.04 
31.56 4.21 -1.49 0.04 
31.64 3.61 -1.49 0.04 
31.70 3.01 -1.49 0.04 
31.75 2.41 -1.49 0.04 
32.04 1.82 -1.50 0.53 
32.86 1.24 -1.53 0.53 
33.70 0.64 -1.57 0.53 
34.54 0.00 -1.61 0.53 
34.95 -0.66 -1.63 0.05 
35.00 -1.33 -1.63 0.04 
34.97 -1.99 -1.63 0.04 
34.93 -2.65 -1.63 0.04 
34.88 -3.31 -1.63 0.04 
34.81 -3.97 -1.63 0.04 
34.74 -4.63 -1.63 0.04 
34.65 -5.29 -1.64 0.04 
34.55 -5.94 -1.64 0.04 
34.43 -6.60 -1.64 0.04 
34.31 -7.25 -1.64 0.04 
34.17 -7.90 -1.64 0.04 
34.02 -8.54 -1.64 0.04 
33.86 -9.19 -1.64 0.04 
33.69 -9.83 -1.64 0.04 
33.50 -10.47 -1.64 0.04 
33.31 -11.10 -1.64 0.04 
33.10 -11.73 -1.64 0.04 
32.88 -12.36 -1.64 0.04 
32.65 -12.98 -1.64 0.04 
32.40 -13.60 -1.64 0.04 
32.15 -14.22 -1.64 0.04 
31.88 -14.83 -1.64 0.04 
31.60 -15.43 -1.64 0.04 
31.32 -16.03 -1.64 0.04 
31.02 -16.63 -1.64 0.04 
30.71 -17.21 -1.64 0.04 
30.38 -17.80 -1.64 0.04 
30.05 -18.38 -1.64 0.04 
29.71 -18.95 -1.64 0.04 
5.61 -3.73 -0.31 0.11 
5.52 -3.82 -0.31 0.08 
5.47 -3.94 -0.31 0.07 
5.50 -4.12 -0.32 0.05 
25.31 -19.74 -1.50 0.04 
24.94 -20.23 -1.50 0.04 
24.57 -20.70 -1.50 0.04 
24.18 -21.17 -1.50 0.04 
23.78 -21.63 -1.50 0.04 
23.38 -22.09 -1.50 0.04 
22.97 -22.54 -1.50 0.04 
22.55 -22.98 -1.50 0.04 
22.12 -23.41 -1.50 0.04 
21.68 -23.83 -1.50 0.04 
18.75 -21.41 -1.33 0.88 
18.48 -21.93 -1.34 0.54 
20.32 -25.06 -1.51 0.04 
19.85 -25.45 -1.51 0.04 
6.51 -8.68 -0.51 0.80 
18.89 -26.21 -1.51 0.04 
18.40 -26.58 -1.51 0.04 
17.90 -26.93 -1.51 0.04 
17.40 -27.28 -1.51 0.04 
16.89 -27.62 -1.51 0.04 
16.37 -27.95 -1.51 0.04 
15.85 -28.26 -1.51 0.04 
15.32 -28.57 -1.51 0.04 
14.78 -28.87 -1.51 0.04 
5.61 -11.49 -0.60 0.04 
5.35 -11.50 -0.59 0.58 
6.16 -13.93 -0.71 0.34 
6.23 -14.84 -0.75 0.32 
12.02 -30.22 -1.52 0.04 
