VERSION 0.7
FIELDS x y z intensity
SIZE 4 4 4 8
TYPE F F F F
COUNT 1 1 1 1
WIDTH 2059
HEIGHT 1
VIEWPOINT 0.0 0.0 0.0 1.0 0.0 0.0 0.0
POINTS 2059
DATA ascii
10.58 3.98 -1.72 0.14 
10.66 3.78 -1.72 0.14 
10.73 3.58 -1.72 0.14 
10.80 3.37 -1.72 0.14 
10.86 3.17 -1.72 0.14 
10.92 2.96 -1.72 0.14 
10.98 2.76 -1.72 0.14 
11.03 2.55 -1.72 0.14 
11.07 2.34 -1.72 0.14 
11.12 2.13 -1.72 0.14 
11.16 1.92 -1.72 0.14 
11.19 1.71 -1.72 0.14 
11.22 1.50 -1.72 0.14 
11.25 1.28 -1.72 0.14 
11.27 1.07 -1.72 0.14 
11.29 0.86 -1.72 0.14 
11.31 0.64 -1.72 0.14 
11.32 0.43 -1.72 0.14 
11.33 0.21 -1.72 0.14 
11.33 -0.00 -1.72 0.14 
11.33 -0.21 -1.72 0.14 
11.32 -0.43 -1.72 0.14 
11.31 -0.64 -1.72 0.14 
11.30 -0.86 -1.72 0.14 
11.28 -1.07 -1.72 0.14 
11.26 -1.28 -1.72 0.14 
11.23 -1.50 -1.72 0.14 
11.20 -1.71 -1.72 0.14 
11.16 -1.92 -1.72 0.14 
11.12 -2.13 -1.72 0.14 
11.08 -2.34 -1.72 0.14 
11.03 -2.55 -1.72 0.14 
10.98 -2.76 -1.72 0.14 
10.93 -2.97 -1.72 0.14 
10.87 -3.17 -1.72 0.14 
10.81 -3.38 -1.72 0.14 
10.74 -3.58 -1.72 0.14 
10.67 -3.78 -1.72 0.14 
10.59 -3.98 -1.72 0.14 
10.51 -4.18 -1.72 0.14 
10.43 -4.38 -1.72 0.14 
10.35 -4.58 -1.72 0.14 
10.26 -4.77 -1.72 0.14 
6.47 -3.16 -1.09 0.30 
6.14 -3.14 -1.05 0.42 
5.86 -3.14 -1.01 0.46 
5.60 -3.14 -0.98 0.44 
5.37 -3.15 -0.94 0.52 
5.17 -3.16 -0.92 0.60 
4.99 -3.18 -0.90 0.64 
4.84 -3.22 -0.88 0.75 
4.76 -3.29 -0.88 0.94 
4.69 -3.38 -0.88 0.87 
4.65 -3.48 -0.88 0.80 
4.62 -3.60 -0.89 0.76 
4.60 -3.73 -0.90 0.78 
4.60 -3.88 -0.91 0.67 
8.48 -7.43 -1.71 0.14 
8.34 -7.58 -1.71 0.14 
8.18 -7.73 -1.71 0.15 
8.02 -7.87 -1.70 0.15 
7.84 -7.99 -1.70 0.58 
7.51 -7.94 -1.66 0.62 
7.20 -7.92 -1.62 0.64 
6.91 -7.89 -1.59 0.65 
6.62 -7.86 -1.56 0.66 
6.44 -7.94 -1.55 0.14 
6.29 -8.06 -1.55 0.14 
6.13 -8.17 -1.55 0.14 
5.97 -8.28 -1.55 0.14 
5.81 -8.39 -1.55 0.14 
5.65 -8.50 -1.55 0.14 
5.49 -8.60 -1.55 0.14 
5.32 -8.70 -1.55 0.14 
5.15 -8.80 -1.55 0.14 
4.98 -8.89 -1.55 0.14 
4.81 -8.98 -1.55 0.14 
4.64 -9.06 -1.55 0.14 
4.47 -9.15 -1.54 0.14 
4.29 -9.23 -1.54 0.14 
4.11 -9.30 -1.54 0.14 
3.94 -9.37 -1.54 0.14 
3.76 -9.44 -1.54 0.14 
3.57 -9.51 -1.54 0.14 
3.39 -9.57 -1.54 0.14 
3.21 -9.63 -1.54 0.14 
3.03 -9.69 -1.54 0.14 
2.84 -9.74 -1.54 0.14 
2.65 -9.78 -1.54 0.14 
2.47 -9.83 -1.54 0.14 
2.28 -9.87 -1.54 0.14 
2.09 -9.91 -1.54 0.14 
1.90 -9.94 -1.54 0.14 
1.71 -9.97 -1.54 0.14 
1.53 -10.00 -1.53 0.14 
1.34 -10.02 -1.53 0.14 
1.14 -10.04 -1.53 0.14 
0.95 -10.05 -1.53 0.14 
0.76 -10.07 -1.53 0.14 
0.57 -10.07 -1.53 0.14 
0.38 -10.08 -1.53 0.14 
0.19 -10.08 -1.53 0.14 
0.00 -10.08 -1.53 0.14 
-0.19 -10.07 -1.53 0.14 
-0.38 -10.06 -1.53 0.14 
-0.57 -10.05 -1.53 0.14 
-0.76 -10.03 -1.53 0.14 
-0.95 -10.01 -1.53 0.14 
-1.14 -9.99 -1.53 0.14 
-1.33 -9.96 -1.52 0.14 
-1.51 -9.93 -1.52 0.14 
-1.70 -9.89 -1.52 0.14 
-1.89 -9.85 -1.52 0.14 
-2.07 -9.81 -1.52 0.14 
-2.26 -9.77 -1.52 0.14 
-2.44 -9.72 -1.52 0.14 
-2.62 -9.67 -1.52 0.14 
-2.80 -9.61 -1.52 0.14 
-2.98 -9.55 -1.52 0.14 
-3.16 -9.49 -1.52 0.14 
-3.34 -9.43 -1.52 0.15 
-3.52 -9.36 -1.52 0.15 
-3.69 -9.28 -1.52 0.15 
-3.87 -9.21 -1.52 0.15 
-4.04 -9.13 -1.52 0.15 
-4.21 -9.05 -1.51 0.15 
-4.38 -8.96 -1.51 0.15 
-4.54 -8.88 -1.51 0.15 
-4.71 -8.78 -1.51 0.15 
-4.87 -8.69 -1.51 0.15 
-5.03 -8.59 -1.51 0.15 
-5.19 -8.49 -1.51 0.15 
-5.35 -8.39 -1.51 0.15 
-5.51 -8.28 -1.51 0.15 
-5.66 -8.18 -1.51 0.15 
-5.81 -8.06 -1.51 0.15 
-5.96 -7.95 -1.51 0.15 
-6.17 -7.91 -1.52 0.74 
-6.41 -7.91 -1.55 0.73 
-6.67 -7.91 -1.57 0.72 
-6.93 -7.92 -1.60 0.71 
-7.21 -7.92 -1.63 0.69 
-7.46 -7.89 -1.65 0.16 
-7.61 -7.76 -1.65 0.16 
-7.77 -7.62 -1.65 0.16 
-7.92 -7.48 -1.65 0.15 
-8.06 -7.33 -1.65 0.15 
-8.19 -7.17 -1.65 0.15 
-8.32 -7.01 -1.65 0.15 
-8.45 -6.85 -1.65 0.15 
-8.58 -6.69 -1.65 0.15 
-8.70 -6.53 -1.65 0.15 
-8.82 -6.36 -1.65 0.15 
-8.94 -6.19 -1.65 0.15 
-9.05 -6.02 -1.65 0.15 
-9.16 -5.84 -1.65 0.15 
-9.27 -5.67 -1.65 0.15 
-9.37 -5.49 -1.65 0.15 
-9.47 -5.31 -1.65 0.15 
-9.57 -5.13 -1.65 0.15 
-9.66 -4.94 -1.65 0.15 
-9.75 -4.76 -1.65 0.15 
-9.84 -4.57 -1.65 0.15 
-9.92 -4.39 -1.65 0.15 
-10.00 -4.20 -1.65 0.15 
-10.07 -4.01 -1.65 0.15 
-10.15 -3.81 -1.64 0.15 
-10.21 -3.62 -1.64 0.15 
-10.28 -3.43 -1.64 0.15 
-10.34 -3.23 -1.64 0.15 
-10.40 -3.03 -1.64 0.15 
-10.45 -2.84 -1.64 0.15 
-10.50 -2.64 -1.64 0.15 
-10.55 -2.44 -1.64 0.15 
-10.59 -2.24 -1.64 0.15 
-10.63 -2.04 -1.64 0.15 
-10.67 -1.83 -1.64 0.15 
-10.70 -1.63 -1.64 0.15 
-9.52 -1.27 -1.46 0.71 
-9.53 -1.09 -1.46 0.71 
-10.77 -1.02 -1.64 0.15 
-10.79 -0.82 -1.64 0.15 
-10.80 -0.61 -1.64 0.15 
-10.81 -0.41 -1.64 0.15 
-10.82 -0.20 -1.64 0.15 
-10.73 -0.00 -1.64 0.15 
-10.73 0.20 -1.64 0.15 
-10.72 0.41 -1.64 0.15 
-9.59 0.55 -1.47 0.71 
-9.60 0.73 -1.47 0.71 
-10.68 1.01 -1.64 0.15 
-10.66 1.22 -1.64 0.15 
-10.64 1.42 -1.64 0.15 
-10.61 1.62 -1.64 0.15 
-10.58 1.82 -1.64 0.15 
-10.54 2.02 -1.64 0.15 
-10.50 2.22 -1.64 0.15 
-10.46 2.42 -1.64 0.15 
-10.41 2.61 -1.64 0.15 
-10.36 2.81 -1.64 0.15 
-10.31 3.01 -1.64 0.15 
-10.25 3.20 -1.64 0.15 
-10.19 3.40 -1.64 0.15 
-10.12 3.59 -1.64 0.15 
-10.06 3.78 -1.64 0.15 
-9.98 3.97 -1.64 0.15 
-9.91 4.16 -1.64 0.15 
-9.83 4.35 -1.64 0.15 
-9.75 4.53 -1.64 0.15 
-9.66 4.72 -1.64 0.15 
-5.31 2.72 -0.91 0.45 
-5.10 2.74 -0.89 0.50 
-4.91 2.75 -0.86 0.56 
-4.72 2.77 -0.84 0.55 
-4.55 2.78 -0.82 0.62 
-4.39 2.80 -0.80 0.63 
-4.25 2.83 -0.78 0.69 
-4.13 2.86 -0.77 0.70 
-4.01 2.89 -0.76 0.74 
-3.91 2.93 -0.75 0.87 
-3.85 3.00 -0.75 0.90 
-3.82 3.09 -0.75 0.83 
-3.79 3.19 -0.76 0.74 
-3.77 3.30 -0.77 0.77 
-3.76 3.42 -0.78 0.54 
-3.78 3.57 -0.79 0.58 
-3.85 3.78 -0.83 0.44 
-7.56 7.70 -1.65 0.15 
-7.42 7.85 -1.65 0.15 
-7.27 7.99 -1.65 0.15 
-7.12 8.13 -1.65 0.15 
-6.96 8.26 -1.65 0.15 
-6.81 8.40 -1.65 0.15 
-6.65 8.53 -1.65 0.15 
-6.49 8.65 -1.65 0.15 
-6.33 8.78 -1.66 0.15 
-6.16 8.90 -1.66 0.15 
-5.99 9.02 -1.66 0.15 
-5.82 9.13 -1.66 0.15 
-5.65 9.24 -1.66 0.15 
-5.48 9.35 -1.66 0.15 
-5.30 9.46 -1.66 0.15 
-5.12 9.56 -1.66 0.15 
-4.94 9.66 -1.66 0.15 
-4.76 9.75 -1.66 0.15 
-4.58 9.85 -1.66 0.15 
-4.39 9.94 -1.66 0.15 
-4.21 10.02 -1.66 0.15 
-4.02 10.10 -1.66 0.15 
-3.83 10.18 -1.66 0.15 
-3.64 10.26 -1.66 0.15 
-3.44 10.33 -1.67 0.15 
-3.25 10.39 -1.67 0.15 
-3.05 10.46 -1.67 0.15 
-2.85 10.52 -1.67 0.15 
-2.66 10.57 -1.67 0.15 
-2.46 10.63 -1.67 0.15 
-1.28 6.05 -0.95 0.45 
-1.14 5.98 -0.93 0.88 
-1.02 5.94 -0.92 0.96 
-0.91 5.94 -0.92 0.96 
-0.79 5.95 -0.92 0.96 
-0.68 5.95 -0.92 0.96 
-0.57 6.02 -0.93 0.16 
-0.45 5.99 -0.92 0.97 
-0.34 5.99 -0.92 0.96 
-0.23 5.99 -0.92 0.96 
-0.11 6.00 -0.92 0.96 
0.00 6.00 -0.92 0.96 
0.11 6.01 -0.92 0.96 
0.23 6.01 -0.92 0.96 
0.34 6.02 -0.92 0.96 
0.46 6.03 -0.92 0.95 
0.57 6.04 -0.93 0.95 
0.69 6.04 -0.93 0.95 
0.81 6.05 -0.93 0.95 
0.92 6.06 -0.94 0.94 
1.04 6.07 -0.94 0.94 
1.16 6.07 -0.95 0.93 
1.28 6.08 -0.95 0.93 
1.41 6.09 -0.96 0.93 
1.53 6.09 -0.96 0.92 
1.65 6.10 -0.97 0.93 
1.78 6.10 -0.97 0.92 
1.91 6.11 -0.98 0.94 
2.03 6.10 -0.98 0.94 
2.18 6.15 -1.00 0.37 
2.27 6.04 -0.99 0.89 
2.40 6.04 -0.99 0.88 
2.54 6.05 -1.00 0.88 
2.68 6.05 -1.01 0.87 
2.86 6.16 -1.04 0.23 
2.97 6.09 -1.04 0.78 
3.16 6.18 -1.06 0.40 
5.24 9.77 -1.70 0.14 
5.42 9.67 -1.70 0.14 
5.61 9.57 -1.70 0.14 
5.79 9.47 -1.70 0.14 
5.97 9.36 -1.70 0.14 
6.15 9.25 -1.70 0.14 
6.32 9.13 -1.70 0.14 
6.50 9.02 -1.70 0.14 
6.67 8.90 -1.70 0.14 
6.84 8.77 -1.70 0.14 
7.01 8.64 -1.70 0.14 
7.17 8.51 -1.70 0.14 
7.33 8.38 -1.70 0.14 
7.49 8.24 -1.70 0.14 
7.65 8.10 -1.70 0.14 
7.81 7.96 -1.71 0.14 
7.96 7.81 -1.71 0.14 
8.11 7.66 -1.71 0.14 
8.25 7.51 -1.71 0.14 
8.40 7.35 -1.71 0.14 
8.54 7.19 -1.71 0.14 
8.67 7.03 -1.71 0.14 
8.81 6.87 -1.71 0.14 
8.94 6.70 -1.71 0.14 
9.07 6.54 -1.71 0.14 
9.19 6.36 -1.71 0.14 
9.31 6.19 -1.71 0.14 
9.43 6.01 -1.71 0.14 
9.55 5.84 -1.71 0.14 
9.66 5.66 -1.71 0.14 
9.76 5.47 -1.71 0.14 
9.87 5.29 -1.71 0.14 
9.97 5.10 -1.71 0.14 
10.07 4.91 -1.71 0.14 
10.16 4.72 -1.71 0.14 
10.25 4.53 -1.71 0.14 
10.34 4.34 -1.71 0.14 
10.42 4.14 -1.72 0.14 
10.50 3.95 -1.72 0.14 
10.57 3.75 -1.72 0.14 
10.64 3.55 -1.72 0.14 
10.71 3.35 -1.72 0.14 
10.77 3.14 -1.72 0.14 
10.83 2.94 -1.72 0.14 
10.89 2.73 -1.72 0.14 
10.94 2.53 -1.72 0.14 
10.98 2.32 -1.72 0.14 
11.03 2.11 -1.72 0.14 
11.07 1.90 -1.72 0.14 
11.10 1.69 -1.72 0.14 
11.13 1.48 -1.72 0.14 
11.16 1.27 -1.72 0.14 
11.18 1.06 -1.72 0.14 
11.20 0.85 -1.72 0.14 
11.22 0.64 -1.72 0.14 
11.23 0.43 -1.72 0.14 
11.23 0.21 -1.72 0.14 
11.24 0.00 -1.72 0.14 
11.23 -0.21 -1.72 0.14 
11.23 -0.43 -1.72 0.14 
11.22 -0.64 -1.72 0.14 
11.20 -0.85 -1.72 0.14 
11.19 -1.06 -1.72 0.14 
11.16 -1.27 -1.72 0.14 
11.14 -1.48 -1.72 0.14 
11.11 -1.69 -1.72 0.14 
11.07 -1.90 -1.72 0.14 
11.03 -2.11 -1.72 0.14 
10.99 -2.32 -1.72 0.14 
10.94 -2.53 -1.72 0.14 
10.89 -2.74 -1.72 0.14 
10.84 -2.94 -1.72 0.14 
10.78 -3.15 -1.72 0.14 
10.72 -3.35 -1.72 0.14 
10.65 -3.55 -1.72 0.14 
10.58 -3.75 -1.72 0.14 
10.51 -3.95 -1.72 0.14 
10.43 -4.15 -1.72 0.14 
10.35 -4.34 -1.72 0.14 
10.26 -4.54 -1.72 0.14 
10.17 -4.73 -1.72 0.14 
6.46 -3.16 -1.10 0.30 
6.14 -3.14 -1.05 0.42 
5.86 -3.14 -1.02 0.46 
5.60 -3.14 -0.98 0.44 
5.37 -3.15 -0.95 0.52 
5.17 -3.16 -0.93 0.60 
4.99 -3.18 -0.91 0.64 
4.84 -3.22 -0.89 0.75 
4.75 -3.29 -0.88 0.94 
4.68 -3.38 -0.88 0.87 
4.64 -3.48 -0.89 0.80 
4.61 -3.60 -0.90 0.76 
4.60 -3.73 -0.91 0.78 
4.60 -3.87 -0.92 0.67 
8.41 -7.37 -1.71 0.14 
8.27 -7.52 -1.71 0.14 
8.12 -7.67 -1.71 0.15 
7.95 -7.81 -1.71 0.15 
7.79 -7.94 -1.70 0.15 
7.50 -7.94 -1.67 0.62 
7.20 -7.91 -1.64 0.64 
6.90 -7.88 -1.60 0.65 
6.62 -7.86 -1.57 0.66 
6.39 -7.88 -1.55 0.14 
6.23 -7.99 -1.55 0.14 
6.08 -8.11 -1.55 0.14 
5.92 -8.22 -1.55 0.14 
5.76 -8.33 -1.55 0.14 
5.60 -8.43 -1.55 0.14 
5.44 -8.53 -1.55 0.14 
5.28 -8.63 -1.55 0.14 
5.11 -8.73 -1.55 0.14 
4.94 -8.82 -1.55 0.14 
4.77 -8.91 -1.55 0.14 
4.60 -8.99 -1.55 0.14 
4.43 -9.07 -1.54 0.14 
4.26 -9.15 -1.54 0.14 
4.08 -9.23 -1.54 0.14 
3.90 -9.30 -1.54 0.14 
3.73 -9.37 -1.54 0.14 
3.55 -9.43 -1.54 0.14 
3.37 -9.49 -1.54 0.14 
3.18 -9.55 -1.54 0.14 
3.00 -9.61 -1.54 0.14 
2.82 -9.66 -1.54 0.14 
2.63 -9.71 -1.54 0.14 
2.45 -9.75 -1.54 0.14 
2.26 -9.79 -1.54 0.14 
2.08 -9.83 -1.54 0.14 
1.89 -9.86 -1.54 0.14 
1.70 -9.89 -1.54 0.14 
1.51 -9.92 -1.53 0.14 
1.32 -9.94 -1.53 0.14 
1.14 -9.96 -1.53 0.14 
0.95 -9.97 -1.53 0.14 
0.76 -9.99 -1.53 0.14 
0.57 -9.99 -1.53 0.14 
0.38 -10.00 -1.53 0.14 
0.19 -10.00 -1.53 0.15 
-0.00 -10.00 -1.53 0.15 
-0.19 -9.99 -1.53 0.15 
-0.38 -9.98 -1.53 0.15 
-0.57 -9.97 -1.53 0.15 
-0.75 -9.95 -1.53 0.15 
-0.94 -9.93 -1.53 0.15 
-1.13 -9.91 -1.53 0.15 
-1.32 -9.88 -1.52 0.15 
-1.50 -9.85 -1.52 0.15 
-1.69 -9.81 -1.52 0.15 
-1.87 -9.78 -1.52 0.15 
-2.06 -9.73 -1.52 0.15 
-2.24 -9.69 -1.52 0.15 
-2.42 -9.64 -1.52 0.15 
-2.60 -9.59 -1.52 0.15 
-2.78 -9.54 -1.52 0.15 
-2.96 -9.48 -1.52 0.15 
-3.14 -9.42 -1.52 0.15 
-3.31 -9.35 -1.52 0.15 
-3.49 -9.28 -1.52 0.15 
-3.66 -9.21 -1.52 0.15 
-3.83 -9.14 -1.52 0.15 
-4.01 -9.06 -1.52 0.15 
-4.17 -8.98 -1.51 0.15 
-4.34 -8.89 -1.51 0.15 
-4.51 -8.81 -1.51 0.15 
-4.67 -8.72 -1.51 0.15 
-4.83 -8.62 -1.51 0.15 
-4.99 -8.53 -1.51 0.15 
-5.15 -8.43 -1.51 0.15 
-5.31 -8.32 -1.51 0.15 
-5.46 -8.22 -1.51 0.15 
-5.62 -8.11 -1.51 0.15 
-5.77 -8.00 -1.51 0.15 
-5.93 -7.90 -1.51 0.63 
-6.16 -7.90 -1.53 0.74 
-6.41 -7.91 -1.56 0.73 
-6.67 -7.91 -1.58 0.72 
-6.93 -7.92 -1.61 0.71 
-7.20 -7.92 -1.64 0.69 
-7.40 -7.84 -1.65 0.16 
-7.56 -7.70 -1.65 0.16 
-7.71 -7.57 -1.65 0.16 
-7.86 -7.42 -1.65 0.15 
-7.99 -7.27 -1.65 0.15 
-8.13 -7.12 -1.65 0.15 
-8.26 -6.96 -1.65 0.15 
-8.39 -6.80 -1.65 0.15 
-8.51 -6.64 -1.65 0.15 
-8.63 -6.47 -1.65 0.15 
-8.75 -6.31 -1.65 0.15 
-8.87 -6.14 -1.65 0.15 
-8.98 -5.97 -1.65 0.15 
-9.09 -5.80 -1.65 0.15 
-9.19 -5.62 -1.65 0.15 
-9.30 -5.45 -1.65 0.15 
-9.40 -5.27 -1.65 0.15 
-9.49 -5.09 -1.65 0.15 
-9.58 -4.91 -1.65 0.15 
-9.67 -4.72 -1.65 0.15 
-9.76 -4.54 -1.65 0.15 
-9.84 -4.35 -1.65 0.15 
-9.92 -4.16 -1.65 0.15 
-9.99 -3.97 -1.65 0.15 
-10.07 -3.78 -1.65 0.15 
-10.13 -3.59 -1.64 0.15 
-10.20 -3.40 -1.64 0.15 
-10.26 -3.21 -1.64 0.15 
-10.32 -3.01 -1.64 0.15 
-10.37 -2.81 -1.64 0.15 
-10.42 -2.62 -1.64 0.15 
-10.47 -2.42 -1.64 0.15 
-10.51 -2.22 -1.64 0.15 
-10.55 -2.02 -1.64 0.15 
-10.58 -1.82 -1.64 0.15 
-10.62 -1.62 -1.64 0.15 
-9.53 -1.27 -1.47 0.71 
-9.53 -1.09 -1.47 0.71 
-10.69 -1.01 -1.64 0.15 
-10.70 -0.81 -1.64 0.15 
-10.72 -0.61 -1.64 0.15 
-10.73 -0.41 -1.64 0.15 
-10.73 -0.20 -1.64 0.15 
-10.65 0.00 -1.64 0.15 
-10.65 0.20 -1.64 0.15 
-10.64 0.40 -1.64 0.15 
-9.60 0.55 -1.48 0.71 
-9.61 0.73 -1.49 0.71 
-10.60 1.01 -1.64 0.15 
-10.58 1.21 -1.64 0.15 
-10.56 1.41 -1.64 0.15 
-10.53 1.61 -1.64 0.15 
-10.50 1.81 -1.64 0.15 
-10.46 2.00 -1.64 0.15 
-10.42 2.20 -1.64 0.15 
-10.38 2.40 -1.64 0.15 
-10.33 2.59 -1.64 0.15 
-10.28 2.79 -1.64 0.15 
-10.23 2.98 -1.64 0.15 
-10.17 3.18 -1.64 0.15 
-10.11 3.37 -1.64 0.15 
-10.05 3.56 -1.64 0.15 
-9.98 3.75 -1.64 0.15 
-9.91 3.94 -1.64 0.15 
-9.83 4.13 -1.64 0.15 
-9.75 4.31 -1.64 0.15 
-9.67 4.50 -1.64 0.15 
-9.59 4.68 -1.65 0.15 
-5.31 2.72 -0.92 0.45 
-5.10 2.73 -0.89 0.50 
-4.90 2.75 -0.87 0.56 
-4.72 2.77 -0.84 0.55 
-4.55 2.78 -0.82 0.62 
-4.39 2.80 -0.80 0.63 
-4.25 2.83 -0.79 0.69 
-4.12 2.86 -0.77 0.70 
-4.01 2.89 -0.76 0.74 
-3.91 2.93 -0.75 0.93 
-3.85 3.00 -0.75 0.90 
-3.81 3.09 -0.76 0.83 
-3.79 3.19 -0.76 0.74 
-3.77 3.30 -0.77 0.77 
-3.76 3.42 -0.78 0.54 
-3.77 3.56 -0.80 0.59 
-3.85 3.78 -0.83 0.44 
-7.50 7.64 -1.65 0.15 
-7.36 7.79 -1.65 0.15 
-7.21 7.93 -1.65 0.15 
-7.06 8.06 -1.65 0.15 
-6.91 8.20 -1.65 0.15 
-6.76 8.33 -1.65 0.15 
-6.60 8.46 -1.65 0.15 
-6.44 8.59 -1.66 0.15 
-6.28 8.71 -1.66 0.15 
-6.11 8.83 -1.66 0.15 
-5.95 8.95 -1.66 0.15 
-5.78 9.06 -1.66 0.15 
-5.61 9.17 -1.66 0.15 
-5.44 9.28 -1.66 0.15 
-5.26 9.38 -1.66 0.15 
-5.08 9.49 -1.66 0.15 
-4.91 9.58 -1.66 0.15 
-4.73 9.68 -1.66 0.15 
-4.54 9.77 -1.66 0.15 
-4.36 9.86 -1.66 0.15 
-4.17 9.94 -1.66 0.15 
-3.99 10.02 -1.66 0.15 
-3.80 10.10 -1.66 0.15 
-3.61 10.17 -1.66 0.15 
-3.41 10.25 -1.67 0.15 
-3.22 10.31 -1.67 0.15 
-3.03 10.38 -1.67 0.15 
-2.83 10.43 -1.67 0.15 
-2.63 10.49 -1.67 0.15 
-2.44 10.54 -1.67 0.15 
-1.28 6.04 -0.95 0.45 
-1.14 5.97 -0.94 0.88 
-1.02 5.94 -0.93 0.95 
-0.91 5.94 -0.93 0.96 
-0.79 5.95 -0.93 0.96 
-0.68 5.95 -0.92 0.96 
-0.57 5.98 -0.93 0.16 
-0.45 5.99 -0.93 0.96 
-0.34 5.99 -0.93 0.96 
-0.23 5.99 -0.92 0.96 
-0.11 6.00 -0.93 0.96 
0.00 6.00 -0.93 0.96 
0.11 6.01 -0.93 0.96 
0.23 6.01 -0.93 0.96 
0.34 6.02 -0.93 0.96 
0.46 6.03 -0.93 0.95 
0.57 6.04 -0.93 0.95 
0.69 6.04 -0.94 0.95 
0.81 6.05 -0.94 0.94 
0.92 6.06 -0.95 0.94 
1.04 6.07 -0.95 0.94 
1.16 6.07 -0.95 0.93 
1.28 6.08 -0.96 0.93 
1.41 6.09 -0.96 0.93 
1.53 6.09 -0.97 0.92 
1.65 6.10 -0.97 0.93 
1.78 6.10 -0.98 0.92 
1.91 6.11 -0.99 0.91 
2.03 6.10 -0.99 0.94 
2.18 6.14 -1.00 0.37 
2.27 6.04 -0.99 0.89 
2.40 6.04 -1.00 0.88 
2.54 6.05 -1.01 0.88 
2.68 6.05 -1.02 0.87 
2.87 6.18 -1.05 0.23 
2.97 6.09 -1.04 0.78 
3.16 6.17 -1.07 0.38 
5.19 9.69 -1.70 0.14 
5.38 9.59 -1.70 0.14 
5.56 9.49 -1.70 0.14 
5.74 9.39 -1.70 0.14 
5.92 9.28 -1.70 0.14 
6.10 9.17 -1.70 0.14 
6.27 9.06 -1.70 0.14 
6.45 8.94 -1.70 0.14 
6.62 8.82 -1.70 0.14 
6.79 8.70 -1.70 0.14 
6.95 8.57 -1.70 0.14 
7.11 8.44 -1.70 0.14 
7.28 8.31 -1.70 0.14 
7.43 8.17 -1.70 0.14 
7.59 8.03 -1.70 0.14 
7.74 7.89 -1.71 0.14 
7.89 7.75 -1.71 0.14 
8.04 7.60 -1.71 0.14 
8.19 7.45 -1.71 0.14 
8.33 7.29 -1.71 0.14 
8.47 7.14 -1.71 0.14 
8.60 6.98 -1.71 0.14 
8.74 6.81 -1.71 0.14 
8.87 6.65 -1.71 0.14 
8.99 6.48 -1.71 0.14 
9.12 6.31 -1.71 0.14 
9.24 6.14 -1.71 0.14 
9.35 5.97 -1.71 0.14 
9.47 5.79 -1.71 0.14 
9.58 5.61 -1.71 0.14 
9.69 5.43 -1.71 0.14 
9.79 5.25 -1.71 0.14 
9.89 5.06 -1.71 0.14 
9.98 4.88 -1.71 0.14 
10.08 4.69 -1.71 0.14 
10.17 4.50 -1.71 0.14 
10.25 4.30 -1.71 0.14 
10.33 4.11 -1.72 0.14 
10.41 3.91 -1.72 0.14 
10.48 3.72 -1.72 0.14 
10.56 3.52 -1.72 0.14 
10.62 3.32 -1.72 0.14 
10.68 3.12 -1.72 0.14 
10.74 2.91 -1.72 0.14 
10.80 2.71 -1.72 0.14 
10.85 2.51 -1.72 0.14 
10.90 2.30 -1.72 0.14 
10.94 2.10 -1.72 0.14 
10.98 1.89 -1.72 0.14 
11.01 1.68 -1.72 0.14 
11.04 1.47 -1.72 0.14 
11.07 1.26 -1.72 0.14 
11.09 1.05 -1.72 0.14 
11.11 0.84 -1.72 0.14 
11.13 0.63 -1.72 0.14 
11.14 0.42 -1.72 0.14 
11.14 0.21 -1.72 0.14 
11.14 -0.00 -1.72 0.14 
11.14 -0.21 -1.72 0.14 
11.14 -0.42 -1.72 0.14 
11.13 -0.63 -1.72 0.14 
11.11 -0.84 -1.72 0.14 
11.10 -1.05 -1.72 0.14 
11.07 -1.26 -1.72 0.14 
11.05 -1.47 -1.72 0.14 
11.02 -1.68 -1.72 0.14 
10.98 -1.89 -1.72 0.14 
10.94 -2.10 -1.72 0.14 
10.90 -2.30 -1.72 0.14 
10.86 -2.51 -1.72 0.14 
10.81 -2.71 -1.72 0.14 
10.75 -2.92 -1.72 0.14 
10.69 -3.12 -1.72 0.14 
10.63 -3.32 -1.72 0.14 
10.56 -3.52 -1.72 0.14 
10.50 -3.72 -1.72 0.14 
10.42 -3.92 -1.72 0.14 
10.34 -4.11 -1.72 0.14 
10.26 -4.31 -1.72 0.14 
10.18 -4.50 -1.72 0.14 
10.09 -4.69 -1.72 0.14 
6.46 -3.15 -1.11 0.30 
6.13 -3.14 -1.06 0.42 
5.86 -3.14 -1.02 0.46 
5.60 -3.14 -0.99 0.48 
5.37 -3.15 -0.96 0.52 
5.17 -3.16 -0.93 0.60 
4.99 -3.18 -0.91 0.64 
4.84 -3.22 -0.90 0.75 
4.75 -3.29 -0.89 0.94 
4.68 -3.37 -0.89 0.87 
4.64 -3.48 -0.89 0.80 
4.61 -3.60 -0.90 0.76 
4.60 -3.73 -0.91 0.78 
4.59 -3.87 -0.93 0.67 
8.34 -7.31 -1.71 0.14 
8.20 -7.46 -1.71 0.14 
8.05 -7.61 -1.71 0.15 
7.89 -7.75 -1.71 0.15 
7.73 -7.88 -1.70 0.15 
7.50 -7.94 -1.68 0.62 
7.19 -7.91 -1.65 0.64 
6.90 -7.88 -1.62 0.65 
6.62 -7.85 -1.58 0.66 
6.35 -7.83 -1.55 0.57 
6.18 -7.93 -1.55 0.14 
6.03 -8.04 -1.55 0.14 
5.88 -8.15 -1.55 0.14 
5.72 -8.26 -1.55 0.14 
5.56 -8.36 -1.55 0.14 
5.40 -8.46 -1.55 0.14 
5.23 -8.56 -1.55 0.14 
5.07 -8.66 -1.55 0.14 
4.90 -8.75 -1.55 0.14 
4.74 -8.83 -1.55 0.14 
4.57 -8.92 -1.55 0.14 
4.39 -9.00 -1.54 0.14 
4.22 -9.08 -1.54 0.14 
4.05 -9.15 -1.54 0.14 
3.87 -9.22 -1.54 0.14 
3.70 -9.29 -1.54 0.14 
3.52 -9.36 -1.54 0.15 
3.34 -9.42 -1.54 0.15 
3.16 -9.48 -1.54 0.15 
2.98 -9.53 -1.54 0.15 
2.80 -9.58 -1.54 0.15 
2.61 -9.63 -1.54 0.15 
2.43 -9.67 -1.54 0.15 
2.24 -9.71 -1.54 0.15 
2.06 -9.75 -1.54 0.15 
1.87 -9.78 -1.54 0.15 
1.69 -9.81 -1.54 0.15 
1.50 -9.84 -1.53 0.15 
1.31 -9.86 -1.53 0.15 
1.13 -9.88 -1.53 0.15 
0.94 -9.89 -1.53 0.15 
0.75 -9.91 -1.53 0.15 
0.56 -9.91 -1.53 0.15 
0.38 -9.92 -1.53 0.15 
0.19 -9.92 -1.53 0.15 
-0.00 -9.92 -1.53 0.15 
-0.19 -9.91 -1.53 0.15 
-0.38 -9.90 -1.53 0.15 
-0.56 -9.89 -1.53 0.15 
-0.75 -9.87 -1.53 0.15 
-0.94 -9.85 -1.53 0.15 
-1.12 -9.83 -1.53 0.15 
-1.31 -9.80 -1.52 0.15 
-1.49 -9.77 -1.52 0.15 
-1.67 -9.74 -1.52 0.15 
-1.86 -9.70 -1.52 0.15 
-2.04 -9.66 -1.52 0.15 
-2.22 -9.61 -1.52 0.15 
-2.40 -9.57 -1.52 0.15 
-2.58 -9.51 -1.52 0.15 
-2.76 -9.46 -1.52 0.15 
-2.94 -9.40 -1.52 0.15 
-3.11 -9.34 -1.52 0.15 
-3.29 -9.28 -1.52 0.15 
-3.46 -9.21 -1.52 0.15 
-3.63 -9.14 -1.52 0.15 
-3.80 -9.06 -1.52 0.15 
-3.97 -8.99 -1.52 0.15 
-4.14 -8.91 -1.51 0.15 
-4.31 -8.82 -1.51 0.15 
-4.47 -8.74 -1.51 0.15 
-4.63 -8.65 -1.51 0.15 
-4.80 -8.55 -1.51 0.15 
-4.95 -8.46 -1.51 0.15 
-5.11 -8.36 -1.51 0.15 
-5.27 -8.26 -1.51 0.15 
-5.42 -8.15 -1.51 0.15 
-5.57 -8.05 -1.51 0.15 
-5.72 -7.94 -1.51 0.15 
-5.92 -7.90 -1.52 0.75 
-6.16 -7.90 -1.55 0.74 
-6.41 -7.91 -1.57 0.73 
-6.66 -7.91 -1.60 0.72 
-6.93 -7.91 -1.62 0.71 
-7.19 -7.91 -1.65 0.16 
-7.35 -7.78 -1.65 0.16 
-7.50 -7.65 -1.65 0.16 
-7.66 -7.51 -1.65 0.16 
-7.80 -7.37 -1.65 0.15 
-7.93 -7.21 -1.65 0.15 
-8.06 -7.06 -1.65 0.15 
-8.19 -6.90 -1.65 0.15 
-8.32 -6.75 -1.65 0.15 
-8.44 -6.59 -1.65 0.15 
-8.57 -6.42 -1.65 0.15 
-8.68 -6.26 -1.65 0.15 
-8.80 -6.09 -1.65 0.15 
-8.91 -5.92 -1.65 0.15 
-9.02 -5.75 -1.65 0.15 
-9.12 -5.58 -1.65 0.15 
-9.22 -5.40 -1.65 0.15 
-9.32 -5.23 -1.65 0.15 
-9.42 -5.05 -1.65 0.15 
-9.51 -4.87 -1.65 0.15 
-9.60 -4.69 -1.65 0.15 
-9.68 -4.50 -1.65 0.15 
-9.76 -4.32 -1.65 0.15 
-9.84 -4.13 -1.65 0.15 
-9.92 -3.94 -1.65 0.15 
-9.99 -3.75 -1.65 0.15 
-10.06 -3.56 -1.65 0.15 
-10.12 -3.37 -1.64 0.15 
-10.18 -3.18 -1.64 0.15 
-10.24 -2.99 -1.64 0.15 
-10.29 -2.79 -1.64 0.15 
-10.34 -2.60 -1.64 0.15 
-10.39 -2.40 -1.64 0.15 
-10.43 -2.20 -1.64 0.15 
-10.47 -2.00 -1.64 0.15 
-10.50 -1.81 -1.64 0.15 
-10.53 -1.61 -1.64 0.15 
-9.54 -1.27 -1.48 0.71 
-9.54 -1.09 -1.48 0.71 
-10.60 -1.01 -1.64 0.15 
-10.62 -0.81 -1.64 0.15 
-10.63 -0.60 -1.64 0.15 
-10.64 -0.40 -1.64 0.15 
-10.65 -0.20 -1.64 0.15 
-10.57 0.00 -1.64 0.15 
-1.33 0.03 -0.21 0.16 
-1.33 0.05 -0.21 0.16 
-1.33 0.08 -0.21 0.16 
-1.33 0.10 -0.21 0.16 
-1.33 0.13 -0.21 0.16 
-1.33 0.15 -0.21 0.16 
-10.48 1.40 -1.64 0.15 
-10.45 1.59 -1.64 0.15 
-10.42 1.79 -1.64 0.15 
-10.38 1.99 -1.64 0.15 
-10.34 2.18 -1.64 0.15 
-10.30 2.38 -1.64 0.15 
-1.33 0.33 -0.21 0.15 
-1.33 0.36 -0.21 0.15 
-1.33 0.39 -0.21 0.15 
-1.32 0.41 -0.22 0.15 
-1.32 0.44 -0.22 0.13 
-9.97 3.53 -1.64 0.15 
-9.90 3.72 -1.64 0.15 
-9.83 3.91 -1.64 0.15 
-9.76 4.09 -1.64 0.15 
-9.68 4.28 -1.64 0.15 
-9.60 4.46 -1.65 0.15 
-9.51 4.64 -1.65 0.15 
-5.30 2.71 -0.93 0.45 
-5.10 2.73 -0.90 0.50 
-4.90 2.75 -0.87 0.56 
-4.72 2.77 -0.85 0.55 
-4.55 2.78 -0.83 0.62 
-4.39 2.80 -0.81 0.63 
-4.25 2.82 -0.79 0.71 
-4.12 2.85 -0.78 0.72 
-4.01 2.89 -0.77 0.74 
-3.91 2.93 -0.76 0.93 
-3.84 3.00 -0.76 0.90 
-3.81 3.09 -0.76 0.83 
-3.78 3.19 -0.77 0.74 
-3.77 3.30 -0.78 0.77 
-3.75 3.41 -0.79 0.54 
-3.77 3.56 -0.81 0.59 
-3.85 3.77 -0.84 0.45 
-7.44 7.59 -1.65 0.15 
-7.30 7.73 -1.65 0.15 
-7.15 7.87 -1.65 0.15 
-7.01 8.00 -1.65 0.15 
-6.86 8.14 -1.65 0.15 
-6.70 8.27 -1.65 0.15 
-6.55 8.39 -1.65 0.15 
-6.39 8.52 -1.66 0.15 
-6.23 8.64 -1.66 0.15 
-6.07 8.76 -1.66 0.15 
-5.90 8.88 -1.66 0.15 
-5.73 8.99 -1.66 0.15 
-5.57 9.10 -1.66 0.15 
-5.39 9.21 -1.66 0.15 
-5.22 9.31 -1.66 0.15 
-5.05 9.41 -1.66 0.15 
-4.87 9.51 -1.66 0.15 
-4.69 9.60 -1.66 0.15 
-4.51 9.69 -1.66 0.15 
-4.33 9.78 -1.66 0.15 
-4.14 9.86 -1.66 0.15 
-3.95 9.94 -1.66 0.15 
-3.77 10.02 -1.66 0.15 
-3.58 10.10 -1.66 0.15 
-3.39 10.17 -1.67 0.15 
-3.20 10.23 -1.67 0.15 
-3.00 10.29 -1.67 0.15 
-2.81 10.35 -1.67 0.15 
-2.61 10.41 -1.67 0.15 
-2.42 10.46 -1.67 0.15 
-1.28 6.04 -0.96 0.45 
-1.14 5.97 -0.94 0.88 
-1.02 5.94 -0.94 0.95 
-0.91 5.94 -0.93 0.96 
-0.79 5.95 -0.93 0.96 
-0.68 5.95 -0.93 0.96 
-0.57 5.95 -0.93 0.96 
-0.45 5.99 -0.93 0.96 
-0.34 5.99 -0.93 0.96 
-0.23 5.99 -0.93 0.96 
-0.11 6.00 -0.93 0.96 
0.00 6.00 -0.93 0.96 
0.11 6.01 -0.93 0.96 
0.23 6.01 -0.94 0.96 
0.34 6.02 -0.94 0.96 
0.46 6.03 -0.94 0.95 
0.57 6.04 -0.94 0.95 
0.69 6.04 -0.95 0.95 
0.81 6.05 -0.95 0.94 
0.92 6.06 -0.95 0.94 
1.04 6.07 -0.96 0.94 
1.16 6.07 -0.96 0.93 
1.28 6.08 -0.97 0.93 
1.41 6.09 -0.97 0.93 
1.53 6.09 -0.98 0.92 
1.65 6.10 -0.98 0.93 
1.78 6.10 -0.99 0.92 
1.91 6.11 -0.99 0.91 
2.03 6.10 -1.00 0.94 
2.17 6.13 -1.01 0.37 
2.27 6.04 -1.00 0.89 
2.40 6.04 -1.01 0.88 
2.54 6.05 -1.02 0.88 
2.68 6.05 -1.03 0.87 
2.82 6.05 -1.04 0.86 
2.97 6.09 -1.05 0.78 
3.16 6.17 -1.08 0.38 
5.15 9.61 -1.70 0.15 
5.34 9.52 -1.70 0.15 
5.52 9.42 -1.70 0.15 
5.70 9.32 -1.70 0.15 
5.87 9.21 -1.70 0.15 
6.05 9.10 -1.70 0.15 
6.22 8.99 -1.70 0.15 
6.40 8.87 -1.70 0.15 
6.56 8.75 -1.70 0.15 
6.73 8.63 -1.70 0.15 
6.90 8.50 -1.70 0.15 
7.06 8.38 -1.70 0.14 
7.22 8.24 -1.70 0.14 
7.37 8.11 -1.70 0.14 
7.53 7.97 -1.70 0.14 
7.68 7.83 -1.70 0.14 
7.83 7.68 -1.71 0.14 
7.98 7.54 -1.71 0.14 
8.12 7.39 -1.71 0.14 
8.26 7.23 -1.71 0.14 
8.40 7.08 -1.71 0.14 
8.53 6.92 -1.71 0.14 
8.67 6.76 -1.71 0.14 
8.80 6.60 -1.71 0.14 
8.92 6.43 -1.71 0.14 
9.04 6.26 -1.71 0.14 
9.16 6.09 -1.71 0.14 
9.28 5.92 -1.71 0.14 
9.39 5.74 -1.71 0.14 
9.50 5.57 -1.71 0.14 
9.61 5.39 -1.71 0.14 
9.71 5.20 -1.71 0.14 
9.81 5.02 -1.71 0.14 
9.90 4.84 -1.71 0.14 
10.00 4.65 -1.71 0.14 
10.08 4.46 -1.71 0.14 
10.17 4.27 -1.71 0.14 
10.25 4.08 -1.71 0.14 
10.33 3.88 -1.72 0.14 
10.40 3.69 -1.72 0.14 
10.47 3.49 -1.72 0.14 
10.54 3.29 -1.72 0.14 
10.60 3.09 -1.72 0.14 
10.66 2.89 -1.72 0.14 
10.71 2.69 -1.72 0.14 
10.76 2.49 -1.72 0.14 
10.81 2.28 -1.72 0.14 
10.85 2.08 -1.72 0.14 
10.89 1.87 -1.72 0.14 
10.92 1.67 -1.72 0.14 
10.95 1.46 -1.72 0.14 
10.98 1.25 -1.72 0.14 
11.00 1.04 -1.72 0.14 
11.02 0.84 -1.72 0.14 
11.04 0.63 -1.72 0.14 
11.05 0.42 -1.72 0.14 
11.05 0.21 -1.72 0.14 
11.05 0.00 -1.72 0.14 
11.05 -0.21 -1.72 0.14 
11.05 -0.42 -1.72 0.14 
11.04 -0.63 -1.72 0.14 
11.02 -0.84 -1.72 0.14 
11.01 -1.04 -1.72 0.14 
10.98 -1.25 -1.72 0.14 
10.96 -1.46 -1.72 0.14 
10.93 -1.67 -1.72 0.14 
10.89 -1.87 -1.72 0.14 
10.86 -2.08 -1.72 0.14 
10.81 -2.28 -1.72 0.14 
10.77 -2.49 -1.72 0.14 
10.72 -2.69 -1.72 0.14 
10.66 -2.89 -1.72 0.14 
10.61 -3.09 -1.72 0.14 
10.55 -3.29 -1.72 0.14 
10.48 -3.49 -1.72 0.14 
10.41 -3.69 -1.72 0.14 
10.34 -3.89 -1.72 0.14 
10.26 -4.08 -1.72 0.14 
10.18 -4.27 -1.72 0.14 
10.10 -4.46 -1.72 0.14 
10.01 -4.65 -1.72 0.14 
6.45 -3.15 -1.12 0.30 
6.13 -3.14 -1.07 0.42 
5.85 -3.14 -1.03 0.46 
5.60 -3.14 -1.00 0.48 
5.37 -3.15 -0.97 0.52 
5.17 -3.16 -0.94 0.60 
4.99 -3.18 -0.92 0.64 
4.84 -3.21 -0.90 0.75 
4.75 -3.29 -0.90 0.94 
4.68 -3.37 -0.90 0.87 
4.64 -3.48 -0.90 0.80 
4.61 -3.59 -0.91 0.76 
4.59 -3.72 -0.92 0.78 
4.59 -3.87 -0.93 0.68 
8.28 -7.25 -1.71 0.14 
8.14 -7.40 -1.71 0.14 
7.99 -7.55 -1.71 0.14 
7.83 -7.69 -1.71 0.15 
7.67 -7.82 -1.70 0.15 
7.50 -7.94 -1.70 0.62 
7.19 -7.91 -1.66 0.64 
6.90 -7.88 -1.63 0.65 
6.62 -7.85 -1.60 0.66 
6.35 -7.83 -1.57 0.68 
6.13 -7.87 -1.55 0.15 
5.98 -7.98 -1.55 0.15 
5.83 -8.09 -1.55 0.15 
5.67 -8.19 -1.55 0.15 
5.51 -8.30 -1.55 0.15 
5.35 -8.40 -1.55 0.15 
5.19 -8.49 -1.55 0.15 
5.03 -8.59 -1.55 0.15 
4.86 -8.68 -1.55 0.15 
4.70 -8.76 -1.55 0.15 
4.53 -8.85 -1.55 0.15 
4.36 -8.93 -1.54 0.15 
4.19 -9.01 -1.54 0.15 
4.02 -9.08 -1.54 0.15 
3.84 -9.15 -1.54 0.15 
3.67 -9.22 -1.54 0.15 
3.49 -9.28 -1.54 0.15 
3.31 -9.34 -1.54 0.15 
3.13 -9.40 -1.54 0.15 
2.95 -9.45 -1.54 0.15 
2.77 -9.51 -1.54 0.15 
2.59 -9.55 -1.54 0.15 
2.41 -9.60 -1.54 0.15 
2.23 -9.64 -1.54 0.15 
2.04 -9.67 -1.54 0.15 
1.86 -9.70 -1.54 0.15 
1.67 -9.73 -1.54 0.15 
1.49 -9.76 -1.53 0.15 
1.30 -9.78 -1.53 0.15 
1.12 -9.80 -1.53 0.15 
0.93 -9.82 -1.53 0.15 
0.75 -9.83 -1.53 0.15 
0.56 -9.84 -1.53 0.15 
0.37 -9.84 -1.53 0.15 
0.19 -9.84 -1.53 0.15 
-0.00 -9.84 -1.53 0.15 
-0.19 -9.83 -1.53 0.15 
-0.37 -9.82 -1.53 0.15 
-0.56 -9.81 -1.53 0.15 
-0.74 -9.79 -1.53 0.15 
-0.93 -9.77 -1.53 0.15 
-1.11 -9.75 -1.53 0.15 
-1.30 -9.72 -1.52 0.15 
-1.48 -9.69 -1.52 0.15 
-1.66 -9.66 -1.52 0.15 
-1.84 -9.62 -1.52 0.15 
-2.02 -9.58 -1.52 0.15 
-2.20 -9.54 -1.52 0.15 
-2.38 -9.49 -1.52 0.15 
-2.56 -9.44 -1.52 0.15 
-2.74 -9.39 -1.52 0.15 
-2.91 -9.33 -1.52 0.15 
-3.09 -9.27 -1.52 0.15 
-3.26 -9.20 -1.52 0.15 
-3.43 -9.14 -1.52 0.15 
-3.61 -9.07 -1.52 0.15 
-3.77 -8.99 -1.52 0.15 
-3.94 -8.92 -1.52 0.15 
-4.11 -8.84 -1.51 0.15 
-4.27 -8.75 -1.51 0.15 
-4.44 -8.67 -1.51 0.15 
-4.60 -8.58 -1.51 0.15 
-4.76 -8.49 -1.51 0.15 
-4.92 -8.39 -1.51 0.15 
-5.07 -8.29 -1.51 0.15 
-5.23 -8.19 -1.51 0.15 
-5.38 -8.09 -1.51 0.15 
-5.53 -7.98 -1.51 0.15 
-5.69 -7.89 -1.51 0.64 
-5.92 -7.89 -1.53 0.75 
-6.16 -7.90 -1.56 0.74 
-6.41 -7.90 -1.58 0.73 
-6.66 -7.91 -1.61 0.72 
-6.93 -7.91 -1.63 0.71 
-7.14 -7.85 -1.65 0.16 
-7.30 -7.72 -1.65 0.16 
-7.45 -7.59 -1.65 0.16 
-7.60 -7.46 -1.65 0.15 
-7.74 -7.31 -1.65 0.15 
-7.87 -7.16 -1.65 0.15 
-8.00 -7.01 -1.65 0.15 
-8.13 -6.85 -1.65 0.15 
-8.26 -6.69 -1.65 0.15 
-8.38 -6.54 -1.65 0.15 
-8.50 -6.37 -1.65 0.15 
-8.62 -6.21 -1.65 0.15 
-8.73 -6.04 -1.65 0.15 
-8.84 -5.88 -1.65 0.15 
-8.95 -5.71 -1.65 0.15 
-9.05 -5.53 -1.65 0.15 
-9.15 -5.36 -1.65 0.15 
-9.25 -5.19 -1.65 0.15 
-9.34 -5.01 -1.65 0.15 
-9.44 -4.83 -1.65 0.15 
-9.52 -4.65 -1.65 0.15 
-9.61 -4.47 -1.65 0.15 
-9.69 -4.28 -1.65 0.15 
-9.77 -4.10 -1.65 0.15 
-9.84 -3.91 -1.65 0.15 
-9.91 -3.73 -1.65 0.15 
-9.98 -3.54 -1.65 0.15 
-10.04 -3.35 -1.65 0.15 
-10.10 -3.16 -1.64 0.15 
-10.16 -2.96 -1.64 0.15 
-10.21 -2.77 -1.64 0.15 
-10.26 -2.58 -1.64 0.15 
-10.31 -2.38 -1.64 0.15 
-10.35 -2.19 -1.64 0.15 
-10.39 -1.99 -1.64 0.15 
-10.42 -1.79 -1.64 0.15 
-10.45 -1.59 -1.64 0.15 
-9.55 -1.27 -1.50 0.71 
-9.55 -1.09 -1.49 0.71 
-10.52 -1.00 -1.64 0.15 
-10.54 -0.80 -1.64 0.15 
-10.55 -0.60 -1.64 0.15 
-10.56 -0.40 -1.64 0.15 
-10.57 -0.20 -1.64 0.15 
-1.33 -0.00 -0.21 0.16 
-1.32 0.03 -0.21 0.16 
-1.32 0.05 -0.21 0.16 
-1.32 0.07 -0.21 0.16 
-1.32 0.10 -0.21 0.16 
-1.32 0.13 -0.21 0.16 
-1.32 0.15 -0.21 0.16 
-1.32 0.18 -0.21 0.16 
-1.32 0.20 -0.21 0.16 
-1.32 0.23 -0.21 0.16 
-1.32 0.25 -0.21 0.16 
-1.32 0.28 -0.21 0.16 
-1.32 0.31 -0.21 0.16 
-1.32 0.33 -0.21 0.16 
-1.32 0.36 -0.21 0.16 
-1.32 0.38 -0.21 0.15 
-1.31 0.41 -0.22 0.15 
-1.31 0.44 -0.22 0.13 
-9.89 3.51 -1.64 0.15 
-9.83 3.69 -1.64 0.15 
-9.75 3.88 -1.64 0.15 
-9.68 4.06 -1.64 0.15 
-9.60 4.25 -1.65 0.15 
-9.52 4.43 -1.65 0.15 
-9.44 4.61 -1.65 0.15 
-5.30 2.71 -0.93 0.45 
-5.10 2.73 -0.91 0.50 
-4.90 2.75 -0.88 0.56 
-4.72 2.77 -0.86 0.55 
-4.55 2.78 -0.83 0.62 
-4.39 2.80 -0.82 0.63 
-4.25 2.82 -0.80 0.71 
-4.12 2.85 -0.79 0.72 
-4.00 2.89 -0.77 0.74 
-3.91 2.93 -0.77 0.93 
-3.84 3.00 -0.76 0.90 
-3.81 3.09 -0.77 0.83 
-3.78 3.18 -0.77 0.74 
-3.76 3.30 -0.78 0.77 
-3.75 3.41 -0.79 0.70 
-3.76 3.56 -0.81 0.59 
-3.84 3.77 -0.84 0.45 
-7.39 7.53 -1.65 0.15 
-7.24 7.67 -1.65 0.15 
-7.10 7.81 -1.65 0.15 
-6.95 7.94 -1.65 0.15 
-6.80 8.07 -1.65 0.15 
-6.65 8.20 -1.65 0.15 
-6.50 8.33 -1.66 0.15 
-6.34 8.45 -1.66 0.15 
-6.18 8.58 -1.66 0.15 
-6.02 8.69 -1.66 0.15 
-5.86 8.81 -1.66 0.15 
-5.69 8.92 -1.66 0.15 
-5.52 9.03 -1.66 0.15 
-5.35 9.14 -1.66 0.15 
-5.18 9.24 -1.66 0.15 
-5.01 9.34 -1.66 0.15 
-4.83 9.44 -1.66 0.15 
-4.65 9.53 -1.66 0.15 
-4.47 9.62 -1.66 0.15 
-4.29 9.71 -1.66 0.15 
-4.11 9.79 -1.66 0.15 
-3.92 9.87 -1.66 0.15 
-3.74 9.94 -1.66 0.15 
-3.55 10.02 -1.66 0.15 
-3.36 10.09 -1.67 0.15 
-3.17 10.15 -1.67 0.15 
-2.98 10.21 -1.67 0.15 
-2.79 10.27 -1.67 0.15 
-2.59 10.33 -1.67 0.15 
-2.40 10.38 -1.67 0.15 
-1.27 6.03 -0.97 0.45 
-1.14 5.97 -0.95 0.88 
-1.02 5.94 -0.94 0.95 
-0.91 5.94 -0.94 0.96 
-0.79 5.95 -0.94 0.96 
-0.68 5.95 -0.94 0.96 
-0.57 5.95 -0.94 0.96 
-0.45 5.99 -0.94 0.96 
-0.34 5.99 -0.94 0.96 
-0.23 5.99 -0.94 0.96 
-0.11 6.00 -0.94 0.96 
0.00 6.00 -0.94 0.96 
0.11 6.01 -0.94 0.96 
0.23 6.01 -0.94 0.96 
0.34 6.02 -0.94 0.96 
0.46 6.03 -0.95 0.95 
0.57 6.04 -0.95 0.95 
0.69 6.04 -0.95 0.95 
0.81 6.05 -0.96 0.94 
0.92 6.06 -0.96 0.94 
1.04 6.07 -0.96 0.94 
1.16 6.07 -0.97 0.93 
1.28 6.08 -0.97 0.93 
1.41 6.09 -0.98 0.93 
1.53 6.09 -0.98 0.92 
1.65 6.10 -0.99 0.93 
1.78 6.10 -1.00 0.92 
1.91 6.11 -1.00 0.91 
2.03 6.10 -1.01 0.94 
2.17 6.12 -1.02 0.37 
2.27 6.04 -1.01 0.89 
2.40 6.04 -1.02 0.88 
2.54 6.05 -1.03 0.88 
2.68 6.05 -1.04 0.87 
2.82 6.05 -1.05 0.86 
2.97 6.09 -1.06 0.78 
3.16 6.17 -1.09 0.38 
5.11 9.54 -1.70 0.15 
5.29 9.44 -1.70 0.15 
5.47 9.35 -1.70 0.15 
5.65 9.24 -1.70 0.15 
5.83 9.14 -1.70 0.15 
6.00 9.03 -1.70 0.15 
6.17 8.92 -1.70 0.15 
6.34 8.80 -1.70 0.15 
6.51 8.68 -1.70 0.15 
6.68 8.56 -1.70 0.15 
6.84 8.44 -1.70 0.15 
7.00 8.31 -1.70 0.15 
7.16 8.18 -1.70 0.15 
7.32 8.04 -1.70 0.15 
7.47 7.91 -1.70 0.15 
7.62 7.77 -1.70 0.15 
7.77 7.62 -1.71 0.15 
7.91 7.48 -1.71 0.15 
8.06 7.33 -1.71 0.15 
8.20 7.18 -1.71 0.15 
8.33 7.02 -1.71 0.15 
8.47 6.87 -1.71 0.15 
8.60 6.71 -1.71 0.15 
8.73 6.54 -1.71 0.15 
8.85 6.38 -1.71 0.15 
8.97 6.21 -1.71 0.15 
9.09 6.04 -1.71 0.15 
9.21 5.87 -1.71 0.15 
9.32 5.70 -1.71 0.15 
9.43 5.52 -1.71 0.15 
9.53 5.34 -1.71 0.15 
9.63 5.16 -1.71 0.15 
9.73 4.98 -1.71 0.15 
9.83 4.80 -1.71 0.15 
9.92 4.61 -1.71 0.15 
10.00 4.42 -1.71 0.15 
10.09 4.23 -1.71 0.15 
10.17 4.04 -1.71 0.15 
10.24 3.85 -1.71 0.15 
10.32 3.66 -1.72 0.15 
10.39 3.46 -1.72 0.15 
10.45 3.27 -1.72 0.14 
10.51 3.07 -1.72 0.14 
10.57 2.87 -1.72 0.14 
10.62 2.67 -1.72 0.14 
10.68 2.47 -1.72 0.14 
10.72 2.26 -1.72 0.14 
10.76 2.06 -1.72 0.14 
10.80 1.86 -1.72 0.14 
10.84 1.65 -1.72 0.14 
10.87 1.45 -1.72 0.14 
10.89 1.24 -1.72 0.14 
10.91 1.04 -1.72 0.14 
10.93 0.83 -1.72 0.14 
10.95 0.62 -1.72 0.14 
10.96 0.41 -1.72 0.14 
10.96 0.21 -1.72 0.14 
10.97 -0.00 -1.72 0.14 
10.96 -0.21 -1.72 0.14 
10.96 -0.41 -1.72 0.14 
10.95 -0.62 -1.72 0.14 
10.94 -0.83 -1.72 0.14 
10.92 -1.04 -1.72 0.14 
10.90 -1.24 -1.72 0.14 
10.87 -1.45 -1.72 0.14 
10.84 -1.65 -1.72 0.14 
10.81 -1.86 -1.72 0.14 
10.77 -2.06 -1.72 0.14 
10.73 -2.27 -1.72 0.14 
10.68 -2.47 -1.72 0.14 
10.63 -2.67 -1.72 0.14 
10.58 -2.87 -1.72 0.14 
10.52 -3.07 -1.72 0.14 
10.46 -3.27 -1.72 0.14 
10.40 -3.47 -1.72 0.14 
10.33 -3.66 -1.72 0.14 
10.26 -3.86 -1.72 0.14 
10.18 -4.05 -1.72 0.14 
10.10 -4.24 -1.72 0.14 
10.02 -4.43 -1.72 0.14 
9.93 -4.62 -1.72 0.15 
6.44 -3.15 -1.12 0.30 
6.13 -3.14 -1.08 0.42 
5.85 -3.14 -1.04 0.46 
5.60 -3.14 -1.01 0.48 
5.37 -3.14 -0.97 0.52 
5.17 -3.16 -0.95 0.60 
4.99 -3.18 -0.93 0.64 
4.84 -3.21 -0.91 0.75 
4.75 -3.29 -0.90 0.94 
4.67 -3.37 -0.90 0.87 
4.63 -3.47 -0.91 0.80 
4.60 -3.59 -0.91 0.76 
4.59 -3.72 -0.93 0.78 
4.58 -3.86 -0.94 0.68 
4.68 -4.10 -0.97 0.57 
8.07 -7.34 -1.71 0.15 
7.93 -7.49 -1.71 0.15 
7.78 -7.63 -1.71 0.15 
7.62 -7.76 -1.70 0.16 
7.45 -7.89 -1.70 0.16 
7.19 -7.90 -1.67 0.64 
6.90 -7.88 -1.64 0.65 
6.61 -7.85 -1.61 0.67 
6.34 -7.82 -1.58 0.68 
6.09 -7.80 -1.55 0.58 
5.94 -7.91 -1.55 0.15 
5.78 -8.02 -1.55 0.15 
5.63 -8.13 -1.55 0.15 
5.47 -8.23 -1.55 0.15 
5.31 -8.33 -1.55 0.15 
5.15 -8.43 -1.55 0.15 
4.99 -8.52 -1.55 0.15 
4.83 -8.61 -1.55 0.15 
4.66 -8.69 -1.55 0.15 
4.49 -8.78 -1.54 0.15 
4.32 -8.86 -1.54 0.15 
4.16 -8.94 -1.54 0.15 
3.98 -9.01 -1.54 0.15 
3.81 -9.08 -1.54 0.15 
3.64 -9.15 -1.54 0.15 
3.46 -9.21 -1.54 0.15 
3.29 -9.27 -1.54 0.15 
3.11 -9.33 -1.54 0.15 
2.93 -9.38 -1.54 0.15 
2.75 -9.43 -1.54 0.15 
2.57 -9.48 -1.54 0.15 
2.39 -9.52 -1.54 0.15 
2.21 -9.56 -1.54 0.15 
2.03 -9.60 -1.54 0.15 
1.84 -9.63 -1.54 0.15 
1.66 -9.66 -1.54 0.15 
1.48 -9.68 -1.53 0.15 
1.29 -9.71 -1.53 0.15 
1.11 -9.72 -1.53 0.15 
0.92 -9.74 -1.53 0.15 
0.74 -9.75 -1.53 0.15 
0.55 -9.76 -1.53 0.15 
0.37 -9.76 -1.53 0.15 
0.18 -9.76 -1.53 0.15 
0.00 -9.76 -1.53 0.15 
-0.18 -9.76 -1.53 0.15 
-0.37 -9.75 -1.53 0.15 
-0.55 -9.73 -1.53 0.15 
-0.74 -9.72 -1.53 0.15 
-0.92 -9.70 -1.53 0.15 
-1.10 -9.67 -1.53 0.15 
-1.29 -9.65 -1.52 0.15 
-1.47 -9.62 -1.52 0.15 
-1.65 -9.58 -1.52 0.15 
-1.83 -9.55 -1.52 0.15 
-2.01 -9.51 -1.52 0.15 
-2.19 -9.46 -1.52 0.15 
-2.36 -9.42 -1.52 0.15 
-2.54 -9.37 -1.52 0.15 
-2.72 -9.31 -1.52 0.15 
-2.89 -9.26 -1.52 0.15 
-3.07 -9.20 -1.52 0.15 
-3.24 -9.13 -1.52 0.15 
-3.41 -9.07 -1.52 0.15 
-3.58 -9.00 -1.52 0.15 
-3.75 -8.92 -1.52 0.15 
-3.91 -8.85 -1.52 0.15 
-4.08 -8.77 -1.51 0.15 
-4.24 -8.69 -1.51 0.15 
-4.40 -8.60 -1.51 0.15 
-4.56 -8.51 -1.51 0.15 
-4.72 -8.42 -1.51 0.15 
-4.88 -8.33 -1.51 0.15 
-5.03 -8.23 -1.51 0.15 
-5.19 -8.13 -1.51 0.15 
-5.34 -8.03 -1.51 0.15 
-5.49 -7.92 -1.51 0.15 
-5.69 -7.89 -1.52 0.77 
-5.92 -7.89 -1.55 0.75 
-6.16 -7.90 -1.57 0.74 
-6.41 -7.90 -1.59 0.73 
-6.66 -7.90 -1.62 0.72 
-6.92 -7.91 -1.65 0.71 
-7.09 -7.80 -1.65 0.16 
-7.24 -7.67 -1.65 0.16 
-7.40 -7.54 -1.65 0.16 
-7.54 -7.40 -1.65 0.15 
-7.68 -7.25 -1.65 0.15 
-7.81 -7.10 -1.65 0.15 
-7.94 -6.95 -1.65 0.15 
-8.07 -6.80 -1.65 0.15 
-8.19 -6.64 -1.65 0.15 
-8.31 -6.48 -1.65 0.15 
-8.43 -6.32 -1.65 0.15 
-8.55 -6.16 -1.65 0.15 
-8.66 -6.00 -1.65 0.15 
-8.77 -5.83 -1.65 0.15 
-8.88 -5.66 -1.65 0.15 
-8.98 -5.49 -1.65 0.15 
-9.08 -5.32 -1.65 0.15 
-9.18 -5.15 -1.65 0.15 
-9.27 -4.97 -1.65 0.15 
-9.36 -4.79 -1.65 0.15 
-9.45 -4.61 -1.65 0.15 
-9.53 -4.43 -1.65 0.15 
-9.61 -4.25 -1.65 0.15 
-9.69 -4.07 -1.65 0.15 
-9.76 -3.88 -1.65 0.15 
-9.83 -3.70 -1.65 0.15 
-9.90 -3.51 -1.65 0.15 
-9.96 -3.32 -1.65 0.15 
-10.02 -3.13 -1.65 0.15 
-10.08 -2.94 -1.64 0.15 
-10.13 -2.75 -1.64 0.15 
-10.18 -2.56 -1.64 0.15 
-10.23 -2.36 -1.64 0.15 
-10.27 -2.17 -1.64 0.15 
-10.31 -1.97 -1.64 0.15 
-10.34 -1.78 -1.64 0.15 
-10.37 -1.58 -1.64 0.15 
-9.57 -1.27 -1.51 0.40 
-9.57 -1.09 -1.51 0.40 
-10.44 -0.99 -1.64 0.15 
-10.46 -0.79 -1.64 0.15 
-10.47 -0.60 -1.64 0.15 
-10.48 -0.40 -1.64 0.15 
-1.33 -0.03 -0.21 0.16 
-1.32 -0.00 -0.21 0.16 
-1.31 0.02 -0.21 0.16 
-1.31 0.05 -0.21 0.16 
-1.31 0.07 -0.21 0.16 
-1.31 0.10 -0.21 0.16 
-1.31 0.12 -0.21 0.16 
-1.31 0.15 -0.21 0.16 
-1.31 0.17 -0.21 0.16 
-1.31 0.20 -0.21 0.16 
-1.31 0.23 -0.21 0.16 
-1.31 0.25 -0.21 0.16 
-1.31 0.28 -0.21 0.16 
-1.31 0.30 -0.21 0.16 
-1.31 0.33 -0.21 0.16 
-1.31 0.35 -0.21 0.16 
-1.31 0.38 -0.21 0.16 
-1.30 0.41 -0.22 0.16 
-1.29 0.43 -0.22 0.14 
-9.82 3.48 -1.64 0.15 
-9.75 3.67 -1.64 0.15 
-9.68 3.85 -1.64 0.15 
-9.61 4.03 -1.65 0.15 
-9.53 4.21 -1.65 0.15 
-9.45 4.39 -1.65 0.15 
-9.37 4.57 -1.65 0.15 
-5.29 2.71 -0.94 0.45 
-5.09 2.73 -0.91 0.50 
-4.90 2.75 -0.89 0.56 
-4.72 2.77 -0.86 0.55 
-4.54 2.78 -0.84 0.62 
-4.39 2.80 -0.82 0.63 
-4.25 2.82 -0.81 0.71 
-4.12 2.85 -0.79 0.72 
-4.00 2.89 -0.78 0.75 
-3.91 2.93 -0.77 0.93 
-3.84 3.00 -0.77 0.90 
-3.80 3.08 -0.77 0.83 
-3.78 3.18 -0.78 0.74 
-3.76 3.29 -0.79 0.77 
-3.74 3.41 -0.80 0.70 
-3.76 3.55 -0.82 0.59 
-3.84 3.77 -0.85 0.45 
-7.33 7.47 -1.65 0.15 
-7.19 7.61 -1.65 0.15 
-7.05 7.75 -1.65 0.15 
-6.90 7.88 -1.65 0.15 
-6.75 8.01 -1.65 0.15 
-6.60 8.14 -1.65 0.15 
-6.45 8.27 -1.66 0.15 
-6.29 8.39 -1.66 0.15 
-6.13 8.51 -1.66 0.15 
-5.97 8.63 -1.66 0.15 
-5.81 8.74 -1.66 0.15 
-5.65 8.85 -1.66 0.15 
-5.48 8.96 -1.66 0.15 
-5.31 9.07 -1.66 0.15 
-5.14 9.17 -1.66 0.15 
-4.97 9.27 -1.66 0.15 
-4.79 9.36 -1.66 0.15 
-4.62 9.46 -1.66 0.15 
-4.44 9.54 -1.66 0.15 
-4.26 9.63 -1.66 0.15 
-4.08 9.71 -1.66 0.15 
-3.89 9.79 -1.66 0.15 
-3.71 9.87 -1.66 0.15 
-3.52 9.94 -1.67 0.15 
-3.34 10.01 -1.67 0.15 
-3.15 10.07 -1.67 0.15 
-2.96 10.14 -1.67 0.15 
-2.77 10.19 -1.67 0.15 
-2.57 10.25 -1.67 0.15 
-2.38 10.30 -1.67 0.15 
-1.27 6.03 -0.97 0.45 
-1.14 5.97 -0.96 0.88 
-1.02 5.94 -0.95 0.95 
-0.91 5.94 -0.95 0.96 
-0.79 5.95 -0.95 0.96 
-0.68 5.95 -0.95 0.96 
-0.57 5.95 -0.94 0.96 
-0.45 5.99 -0.95 0.96 
-0.34 5.99 -0.95 0.96 
-0.23 5.99 -0.95 0.96 
-0.11 6.00 -0.95 0.96 
0.00 6.00 -0.95 0.96 
0.11 6.01 -0.95 0.96 
0.23 6.01 -0.95 0.96 
0.34 6.02 -0.95 0.96 
0.46 6.03 -0.95 0.95 
0.57 6.04 -0.96 0.95 
0.69 6.04 -0.96 0.95 
0.81 6.05 -0.96 0.94 
0.92 6.06 -0.97 0.94 
1.04 6.07 -0.97 0.94 
1.16 6.07 -0.98 0.93 
1.28 6.08 -0.98 0.93 
1.41 6.09 -0.99 0.93 
1.53 6.09 -0.99 0.92 
1.65 6.10 -1.00 0.93 
1.78 6.10 -1.00 0.92 
1.91 6.11 -1.01 0.94 
2.03 6.10 -1.01 0.94 
2.16 6.11 -1.02 0.37 
2.27 6.04 -1.02 0.89 
2.40 6.04 -1.03 0.88 
2.54 6.05 -1.04 0.88 
2.68 6.05 -1.04 0.87 
2.82 6.05 -1.05 0.86 
2.97 6.09 -1.07 0.78 
3.16 6.17 -1.09 0.38 
5.07 9.46 -1.70 0.15 
5.25 9.37 -1.70 0.15 
5.43 9.27 -1.70 0.15 
5.61 9.17 -1.70 0.15 
5.78 9.07 -1.70 0.15 
5.96 8.96 -1.70 0.15 
6.13 8.85 -1.70 0.15 
6.29 8.73 -1.70 0.15 
6.46 8.62 -1.70 0.15 
6.63 8.49 -1.70 0.15 
6.79 8.37 -1.70 0.15 
6.95 8.24 -1.70 0.15 
7.10 8.11 -1.70 0.15 
7.26 7.98 -1.70 0.15 
7.41 7.84 -1.70 0.15 
7.56 7.71 -1.70 0.15 
7.71 7.56 -1.71 0.15 
7.85 7.42 -1.71 0.15 
7.99 7.27 -1.71 0.15 
8.13 7.12 -1.71 0.15 
8.27 6.97 -1.71 0.15 
8.40 6.81 -1.71 0.15 
8.53 6.65 -1.71 0.15 
8.66 6.49 -1.71 0.15 
8.78 6.33 -1.71 0.15 
8.90 6.16 -1.71 0.15 
9.02 6.00 -1.71 0.15 
9.13 5.82 -1.71 0.15 
9.24 5.65 -1.71 0.15 
9.35 5.48 -1.71 0.15 
9.46 5.30 -1.71 0.15 
9.56 5.12 -1.71 0.15 
9.65 4.94 -1.71 0.15 
9.75 4.76 -1.71 0.15 
9.84 4.57 -1.71 0.15 
9.92 4.39 -1.71 0.15 
10.01 4.20 -1.71 0.15 
10.09 4.01 -1.71 0.15 
10.16 3.82 -1.71 0.15 
10.24 3.63 -1.71 0.15 
10.30 3.43 -1.72 0.15 
10.37 3.24 -1.72 0.15 
10.43 3.04 -1.72 0.15 
10.49 2.85 -1.72 0.15 
10.54 2.65 -1.72 0.15 
10.59 2.45 -1.72 0.15 
10.64 2.25 -1.72 0.15 
10.68 2.05 -1.72 0.15 
10.72 1.84 -1.72 0.15 
10.75 1.64 -1.72 0.15 
10.78 1.44 -1.72 0.15 
10.81 1.23 -1.72 0.15 
10.83 1.03 -1.72 0.15 
10.85 0.82 -1.72 0.15 
10.86 0.62 -1.72 0.15 
10.87 0.41 -1.72 0.15 
10.88 0.21 -1.72 0.15 
10.88 -0.00 -1.72 0.15 
10.88 -0.21 -1.72 0.15 
10.87 -0.41 -1.72 0.15 
10.86 -0.62 -1.72 0.15 
10.85 -0.82 -1.72 0.15 
10.83 -1.03 -1.72 0.15 
10.81 -1.23 -1.72 0.15 
10.78 -1.44 -1.72 0.15 
10.75 -1.64 -1.72 0.15 
10.72 -1.84 -1.72 0.15 
10.68 -2.05 -1.72 0.15 
10.64 -2.25 -1.72 0.15 
10.60 -2.45 -1.72 0.15 
10.55 -2.65 -1.72 0.15 
10.50 -2.85 -1.72 0.15 
10.44 -3.05 -1.72 0.15 
10.38 -3.24 -1.72 0.15 
10.31 -3.44 -1.72 0.15 
10.25 -3.63 -1.72 0.15 
10.17 -3.82 -1.72 0.15 
10.10 -4.02 -1.72 0.15 
10.02 -4.21 -1.72 0.15 
9.94 -4.39 -1.72 0.15 
9.85 -4.58 -1.72 0.15 
6.43 -3.14 -1.13 0.32 
6.13 -3.14 -1.09 0.42 
5.85 -3.14 -1.05 0.46 
5.60 -3.14 -1.01 0.48 
5.37 -3.14 -0.98 0.52 
5.17 -3.16 -0.96 0.60 
4.99 -3.18 -0.93 0.64 
4.83 -3.21 -0.92 0.75 
4.75 -3.29 -0.91 0.94 
4.67 -3.37 -0.91 0.87 
4.63 -3.47 -0.91 0.80 
4.60 -3.59 -0.92 0.76 
4.59 -3.72 -0.93 0.78 
4.58 -3.86 -0.95 0.69 
4.68 -4.09 -0.98 0.57 
8.01 -7.28 -1.71 0.15 
7.87 -7.43 -1.71 0.15 
7.72 -7.57 -1.71 0.16 
7.56 -7.70 -1.70 0.16 
7.40 -7.83 -1.70 0.16 
7.19 -7.90 -1.69 0.64 
6.89 -7.87 -1.65 0.65 
6.61 -7.85 -1.62 0.67 
6.34 -7.82 -1.59 0.68 
6.08 -7.80 -1.56 0.69 
5.89 -7.85 -1.55 0.15 
5.74 -7.96 -1.55 0.15 
5.58 -8.06 -1.55 0.15 
5.43 -8.17 -1.55 0.15 
5.27 -8.26 -1.55 0.15 
5.11 -8.36 -1.55 0.15 
4.95 -8.45 -1.55 0.15 
4.79 -8.54 -1.55 0.15 
4.62 -8.63 -1.55 0.15 
4.46 -8.71 -1.54 0.15 
4.29 -8.79 -1.54 0.15 
4.12 -8.87 -1.54 0.15 
3.95 -8.94 -1.54 0.15 
3.78 -9.01 -1.54 0.15 
3.61 -9.07 -1.54 0.15 
3.43 -9.14 -1.54 0.15 
3.26 -9.20 -1.54 0.15 
3.08 -9.25 -1.54 0.15 
2.91 -9.31 -1.54 0.15 
2.73 -9.36 -1.54 0.15 
2.55 -9.40 -1.54 0.15 
2.37 -9.45 -1.54 0.15 
2.19 -9.48 -1.54 0.15 
2.01 -9.52 -1.54 0.15 
1.83 -9.55 -1.54 0.15 
1.65 -9.58 -1.54 0.15 
1.47 -9.61 -1.53 0.15 
1.28 -9.63 -1.53 0.15 
1.10 -9.65 -1.53 0.15 
0.92 -9.66 -1.53 0.15 
0.73 -9.67 -1.53 0.15 
0.55 -9.68 -1.53 0.15 
0.37 -9.69 -1.53 0.15 
0.18 -9.69 -1.53 0.15 
0.00 -9.69 -1.53 0.15 
-0.18 -9.68 -1.53 0.15 
-0.37 -9.67 -1.53 0.15 
-0.55 -9.66 -1.53 0.15 
-0.73 -9.64 -1.53 0.15 
-0.91 -9.62 -1.53 0.15 
-1.09 -9.60 -1.53 0.15 
-1.28 -9.57 -1.52 0.15 
-1.46 -9.54 -1.52 0.15 
-1.64 -9.51 -1.52 0.15 
-1.81 -9.47 -1.52 0.15 
-1.99 -9.43 -1.52 0.15 
-2.17 -9.39 -1.52 0.15 
-2.35 -9.34 -1.52 0.15 
-2.52 -9.29 -1.52 0.15 
-2.70 -9.24 -1.52 0.15 
-2.87 -9.18 -1.52 0.15 
-3.04 -9.12 -1.52 0.15 
-3.21 -9.06 -1.52 0.15 
-3.38 -9.00 -1.52 0.15 
-3.55 -8.93 -1.52 0.15 
-3.72 -8.85 -1.52 0.15 
-3.88 -8.78 -1.52 0.15 
-4.05 -8.70 -1.52 0.15 
-4.21 -8.62 -1.51 0.15 
-4.37 -8.53 -1.51 0.15 
-4.53 -8.45 -1.51 0.15 
-4.69 -8.36 -1.51 0.15 
-4.84 -8.26 -1.51 0.15 
-4.99 -8.17 -1.51 0.15 
-5.15 -8.07 -1.51 0.15 
-5.30 -7.97 -1.51 0.15 
-5.46 -7.89 -1.51 0.65 
-5.68 -7.89 -1.54 0.77 
-5.92 -7.89 -1.56 0.75 
-6.16 -7.89 -1.58 0.74 
-6.40 -7.90 -1.61 0.73 
-6.66 -7.90 -1.63 0.72 
-6.89 -7.86 -1.65 0.16 
-7.04 -7.74 -1.65 0.16 
-7.19 -7.61 -1.65 0.16 
-7.34 -7.48 -1.66 0.16 
-7.48 -7.34 -1.66 0.15 
-7.62 -7.20 -1.65 0.15 
-7.75 -7.05 -1.65 0.15 
-7.88 -6.90 -1.65 0.15 
-8.01 -6.75 -1.65 0.15 
-8.13 -6.59 -1.65 0.15 
-8.25 -6.44 -1.65 0.15 
-8.37 -6.28 -1.65 0.15 
-8.48 -6.12 -1.65 0.15 
-8.60 -5.95 -1.65 0.15 
-8.71 -5.79 -1.65 0.15 
-8.81 -5.62 -1.65 0.15 
-8.91 -5.45 -1.65 0.15 
-9.01 -5.28 -1.65 0.15 
-9.11 -5.11 -1.65 0.15 
-9.20 -4.93 -1.65 0.15 
-9.29 -4.76 -1.65 0.15 
-9.38 -4.58 -1.65 0.15 
-9.46 -4.40 -1.65 0.15 
-9.54 -4.22 -1.65 0.15 
-9.62 -4.04 -1.65 0.15 
-9.69 -3.85 -1.65 0.15 
-9.76 -3.67 -1.65 0.15 
-9.83 -3.48 -1.65 0.15 
-9.89 -3.30 -1.65 0.15 
-9.95 -3.11 -1.65 0.15 
-10.00 -2.92 -1.65 0.15 
-10.06 -2.73 -1.65 0.15 
-10.10 -2.54 -1.64 0.15 
-10.15 -2.35 -1.64 0.15 
-10.19 -2.15 -1.64 0.15 
-10.23 -1.96 -1.64 0.15 
-10.26 -1.76 -1.64 0.15 
-10.29 -1.57 -1.64 0.15 
-9.59 -1.28 -1.53 0.40 
-9.59 -1.09 -1.52 0.40 
-1.33 -0.13 -0.21 0.16 
-1.33 -0.10 -0.21 0.16 
-1.33 -0.08 -0.21 0.16 
-1.32 -0.05 -0.21 0.16 
-1.32 -0.03 -0.21 0.16 
-1.31 -0.00 -0.21 0.16 
-1.30 0.02 -0.21 0.17 
-1.30 0.05 -0.21 0.17 
-1.30 0.07 -0.21 0.16 
-1.30 0.10 -0.21 0.16 
-1.30 0.12 -0.21 0.16 
-1.30 0.15 -0.21 0.16 
-1.30 0.17 -0.21 0.16 
-1.30 0.20 -0.21 0.16 
-1.30 0.22 -0.21 0.16 
-1.30 0.25 -0.21 0.16 
-1.30 0.28 -0.21 0.16 
-1.30 0.30 -0.21 0.16 
-1.30 0.33 -0.21 0.16 
-1.30 0.35 -0.21 0.16 
-1.30 0.38 -0.21 0.16 
-1.29 0.40 -0.22 0.14 
-1.28 0.43 -0.22 0.14 
-9.74 3.45 -1.64 0.15 
-9.68 3.64 -1.64 0.15 
-9.61 3.82 -1.65 0.15 
-9.53 4.00 -1.65 0.15 
-9.46 4.18 -1.65 0.15 
-9.38 4.36 -1.65 0.15 
-9.30 4.54 -1.65 0.15 
-5.29 2.71 -0.95 0.45 
-5.09 2.73 -0.92 0.54 
-4.90 2.75 -0.89 0.56 
-4.72 2.76 -0.87 0.55 
-4.54 2.78 -0.85 0.62 
-4.39 2.80 -0.83 0.63 
-4.25 2.82 -0.81 0.71 
-4.12 2.85 -0.80 0.72 
-4.00 2.88 -0.79 0.75 
-3.90 2.93 -0.78 0.93 
-3.84 2.99 -0.77 0.90 
-3.80 3.08 -0.78 0.83 
-3.77 3.18 -0.79 0.74 
-3.76 3.29 -0.79 0.77 
-3.74 3.40 -0.80 0.70 
-3.76 3.55 -0.82 0.59 
-3.84 3.77 -0.86 0.45 
-7.27 7.41 -1.65 0.15 
-7.13 7.55 -1.65 0.15 
-6.99 7.69 -1.65 0.15 
-6.85 7.82 -1.65 0.15 
-6.70 7.95 -1.65 0.15 
-6.55 8.08 -1.65 0.15 
-6.40 8.20 -1.66 0.15 
-6.24 8.33 -1.66 0.15 
-6.09 8.45 -1.66 0.15 
-5.93 8.56 -1.66 0.15 
-5.77 8.68 -1.66 0.15 
-5.60 8.79 -1.66 0.15 
-5.44 8.89 -1.66 0.15 
-5.27 9.00 -1.66 0.15 
-5.10 9.10 -1.66 0.15 
-4.93 9.20 -1.66 0.15 
-4.76 9.29 -1.66 0.15 
-4.58 9.38 -1.66 0.15 
-4.40 9.47 -1.66 0.15 
-4.23 9.56 -1.66 0.15 
-4.05 9.64 -1.66 0.15 
-3.86 9.72 -1.66 0.15 
-3.68 9.79 -1.66 0.15 
-3.50 9.86 -1.67 0.15 
-3.31 9.93 -1.67 0.15 
-3.12 10.00 -1.67 0.15 
-2.93 10.06 -1.67 0.15 
-2.74 10.12 -1.67 0.15 
-2.55 10.17 -1.67 0.15 
-1.52 6.59 -1.08 0.16 
-1.27 6.02 -0.98 0.45 
-1.14 5.96 -0.97 0.88 
-1.02 5.94 -0.96 0.95 
-0.91 5.94 -0.96 0.96 
-0.79 5.95 -0.95 0.96 
-0.68 5.95 -0.95 0.96 
-0.57 5.95 -0.95 0.96 
-0.45 5.99 -0.96 0.96 
-0.34 5.99 -0.95 0.96 
-0.23 5.99 -0.95 0.96 
-0.11 6.00 -0.95 0.96 
0.00 6.00 -0.96 0.96 
0.11 6.01 -0.96 0.96 
0.23 6.01 -0.96 0.96 
0.34 6.02 -0.96 0.96 
0.46 6.03 -0.96 0.95 
0.57 6.04 -0.96 0.95 
0.69 6.04 -0.97 0.95 
0.81 6.05 -0.97 0.94 
0.92 6.06 -0.98 0.94 
1.04 6.07 -0.98 0.94 
1.16 6.07 -0.98 0.93 
1.28 6.08 -0.99 0.93 
1.41 6.09 -0.99 0.93 
1.53 6.09 -1.00 0.92 
1.65 6.10 -1.01 0.93 
1.78 6.10 -1.01 0.92 
1.91 6.10 -1.02 0.94 
2.03 6.10 -1.02 0.94 
2.16 6.10 -1.03 0.37 
2.27 6.04 -1.03 0.89 
2.40 6.04 -1.03 0.88 
2.54 6.05 -1.04 0.88 
2.68 6.05 -1.05 0.87 
2.82 6.05 -1.06 0.86 
2.97 6.09 -1.08 0.78 
3.16 6.17 -1.10 0.38 
5.03 9.39 -1.70 0.15 
5.21 9.30 -1.70 0.15 
5.39 9.20 -1.70 0.15 
5.56 9.10 -1.70 0.15 
5.74 9.00 -1.70 0.15 
5.91 8.89 -1.70 0.15 
6.08 8.78 -1.70 0.15 
6.25 8.67 -1.70 0.15 
6.41 8.55 -1.70 0.15 
6.57 8.43 -1.70 0.15 
6.73 8.31 -1.70 0.15 
6.89 8.18 -1.70 0.15 
7.05 8.05 -1.70 0.15 
7.20 7.92 -1.70 0.15 
7.35 7.78 -1.70 0.15 
7.50 7.64 -1.70 0.15 
7.65 7.50 -1.70 0.15 
7.79 7.36 -1.71 0.15 
7.93 7.21 -1.71 0.15 
8.07 7.06 -1.71 0.15 
8.20 6.91 -1.71 0.15 
8.33 6.76 -1.71 0.15 
8.46 6.60 -1.71 0.15 
8.59 6.44 -1.71 0.15 
8.71 6.28 -1.71 0.15 
8.83 6.11 -1.71 0.15 
8.95 5.95 -1.71 0.15 
9.06 5.78 -1.71 0.15 
9.17 5.61 -1.71 0.15 
9.28 5.43 -1.71 0.15 
9.38 5.26 -1.71 0.15 
9.48 5.08 -1.71 0.15 
9.58 4.90 -1.71 0.15 
9.67 4.72 -1.71 0.15 
9.76 4.54 -1.71 0.15 
9.85 4.35 -1.71 0.15 
9.93 4.17 -1.71 0.15 
10.01 3.98 -1.71 0.15 
10.08 3.79 -1.71 0.15 
10.16 3.60 -1.71 0.15 
10.22 3.41 -1.71 0.15 
10.29 3.21 -1.72 0.15 
10.35 3.02 -1.72 0.15 
10.40 2.82 -1.72 0.15 
10.46 2.63 -1.72 0.15 
10.51 2.43 -1.72 0.15 
10.55 2.23 -1.72 0.15 
10.59 2.03 -1.72 0.15 
10.63 1.83 -1.72 0.15 
10.67 1.63 -1.72 0.15 
10.69 1.43 -1.72 0.15 
10.72 1.22 -1.72 0.15 
10.74 1.02 -1.72 0.15 
10.76 0.82 -1.72 0.15 
10.77 0.61 -1.72 0.15 
10.79 0.41 -1.72 0.15 
10.79 0.20 -1.72 0.15 
10.79 -0.00 -1.72 0.15 
10.79 -0.20 -1.72 0.15 
10.79 -0.41 -1.72 0.15 
10.78 -0.61 -1.72 0.15 
10.76 -0.82 -1.72 0.15 
10.75 -1.02 -1.72 0.15 
10.72 -1.22 -1.72 0.15 
10.70 -1.43 -1.72 0.15 
10.67 -1.63 -1.72 0.15 
10.64 -1.83 -1.72 0.15 
10.60 -2.03 -1.72 0.15 
10.56 -2.23 -1.72 0.15 
10.51 -2.43 -1.72 0.15 
10.47 -2.63 -1.72 0.15 
10.41 -2.83 -1.72 0.15 
10.36 -3.02 -1.72 0.15 
10.30 -3.22 -1.72 0.15 
10.23 -3.41 -1.72 0.15 
10.17 -3.60 -1.72 0.15 
10.09 -3.79 -1.72 0.15 
10.02 -3.98 -1.72 0.15 
9.94 -4.17 -1.72 0.15 
9.86 -4.36 -1.72 0.15 
9.77 -4.54 -1.71 0.15 
6.43 -3.14 -1.14 0.32 
6.12 -3.13 -1.09 0.42 
5.85 -3.13 -1.06 0.46 
5.59 -3.14 -1.02 0.48 
5.37 -3.14 -0.99 0.52 
5.17 -3.16 -0.96 0.60 
4.99 -3.18 -0.94 0.64 
4.83 -3.21 -0.92 0.75 
4.74 -3.28 -0.92 0.88 
4.67 -3.36 -0.92 0.87 
4.62 -3.47 -0.92 0.80 
4.60 -3.59 -0.93 0.76 
4.58 -3.71 -0.94 0.78 
4.57 -3.85 -0.95 0.69 
4.66 -4.08 -0.99 0.12 
7.95 -7.23 -1.71 0.15 
7.81 -7.37 -1.71 0.15 
7.66 -7.52 -1.71 0.16 
7.50 -7.65 -1.70 0.16 
7.35 -7.77 -1.70 0.16 
7.18 -7.90 -1.70 0.16 
6.89 -7.87 -1.66 0.65 
6.61 -7.84 -1.63 0.67 
6.34 -7.82 -1.60 0.68 
