VERSION 0.7
FIELDS x y z intensity
SIZE 4 4 4 8
TYPE F F F F
COUNT 1 1 1 1
WIDTH 1984
HEIGHT 1
VIEWPOINT 0.0 0.0 0.0 1.0 0.0 0.0 0.0
POINTS 1984
DATA ascii
20.45 -8.13 -1.69 0.07 
20.30 -8.52 -1.69 0.07 
20.14 -8.90 -1.69 0.07 
19.97 -9.29 -1.69 0.07 
19.80 -9.67 -1.69 0.07 
19.61 -10.04 -1.69 0.07 
19.43 -10.41 -1.69 0.07 
6.16 -3.45 -0.54 0.38 
5.85 -3.43 -0.52 0.40 
5.59 -3.42 -0.50 0.46 
5.38 -3.43 -0.49 0.60 
5.23 -3.48 -0.48 0.58 
5.17 -3.58 -0.48 0.65 
5.15 -3.71 -0.49 0.64 
5.13 -3.84 -0.49 0.61 
5.11 -3.98 -0.50 0.59 
15.61 -12.66 -1.54 0.07 
15.37 -12.95 -1.54 0.07 
15.13 -13.24 -1.54 0.07 
14.88 -13.53 -1.54 0.07 
14.62 -13.81 -1.54 0.07 
14.36 -14.09 -1.54 0.07 
14.09 -14.36 -1.54 0.07 
13.82 -14.63 -1.54 0.07 
13.55 -14.89 -1.54 0.07 
13.27 -15.15 -1.54 0.07 
12.98 -15.40 -1.54 0.07 
12.69 -15.65 -1.54 0.07 
12.39 -15.89 -1.54 0.07 
12.09 -16.12 -1.54 0.07 
11.79 -16.35 -1.55 0.07 
11.48 -16.58 -1.55 0.07 
11.16 -16.79 -1.55 0.07 
10.85 -17.01 -1.55 0.07 
10.52 -17.21 -1.55 0.07 
10.20 -17.41 -1.55 0.07 
9.87 -17.60 -1.55 0.07 
9.54 -17.79 -1.55 0.07 
4.27 -8.34 -0.72 0.96 
8.86 -18.14 -1.55 0.07 
8.52 -18.31 -1.55 0.07 
8.17 -18.47 -1.55 0.07 
7.82 -18.63 -1.55 0.07 
7.47 -18.77 -1.55 0.07 
7.11 -18.92 -1.55 0.07 
4.18 -11.78 -0.96 0.55 
3.87 -11.61 -0.94 0.65 
4.25 -13.60 -1.09 0.92 
5.66 -19.41 -1.55 0.07 
5.30 -19.51 -1.55 0.07 
4.93 -19.61 -1.55 0.07 
4.55 -19.71 -1.55 0.07 
4.18 -19.79 -1.55 0.07 
3.81 -19.87 -1.55 0.07 
3.43 -19.94 -1.55 0.07 
3.05 -20.00 -1.55 0.07 
2.67 -20.06 -1.55 0.07 
2.29 -20.11 -1.55 0.07 
1.91 -20.15 -1.55 0.07 
1.53 -20.18 -1.55 0.07 
1.15 -20.21 -1.55 0.07 
0.77 -20.23 -1.55 0.07 
0.38 -20.24 -1.55 0.07 
0.00 -20.24 -1.55 0.07 
-0.38 -20.24 -1.55 0.07 
-0.77 -20.23 -1.55 0.07 
-1.15 -20.21 -1.55 0.07 
-1.53 -20.19 -1.55 0.07 
-1.91 -20.16 -1.55 0.07 
-2.29 -20.12 -1.55 0.07 
-2.67 -20.07 -1.55 0.07 
-3.05 -20.01 -1.55 0.07 
-3.43 -19.95 -1.55 0.07 
-3.81 -19.88 -1.55 0.07 
-2.63 -12.45 -0.98 0.67 
-4.56 -19.73 -1.55 0.07 
-4.93 -19.64 -1.55 0.07 
-5.30 -19.54 -1.55 0.07 
-5.67 -19.43 -1.55 0.07 
-6.04 -19.32 -1.55 0.07 
-6.40 -19.20 -1.55 0.07 
-6.76 -19.08 -1.55 0.07 
-7.12 -18.95 -1.55 0.07 
-7.48 -18.81 -1.55 0.07 
-7.83 -18.66 -1.55 0.07 
-8.18 -18.51 -1.55 0.07 
-8.53 -18.35 -1.55 0.07 
-8.88 -18.18 -1.55 0.07 
-9.22 -18.01 -1.55 0.07 
-9.56 -17.83 -1.55 0.07 
-9.89 -17.64 -1.55 0.07 
-10.22 -17.45 -1.55 0.07 
-10.55 -17.25 -1.55 0.07 
-10.87 -17.05 -1.55 0.07 
-11.19 -16.84 -1.55 0.07 
-11.51 -16.62 -1.55 0.07 
-11.82 -16.40 -1.55 0.07 
-12.12 -16.17 -1.55 0.07 
-12.43 -15.93 -1.55 0.07 
-12.72 -15.69 -1.55 0.07 
-13.02 -15.45 -1.55 0.07 
-13.31 -15.20 -1.55 0.07 
-13.59 -14.94 -1.55 0.07 
-13.87 -14.68 -1.55 0.07 
-14.14 -14.41 -1.55 0.07 
-14.41 -14.14 -1.55 0.07 
-14.67 -13.86 -1.55 0.07 
-14.93 -13.58 -1.55 0.07 
-15.18 -13.29 -1.55 0.07 
-15.42 -13.00 -1.55 0.07 
-15.66 -12.70 -1.55 0.07 
-15.90 -12.40 -1.55 0.07 
-16.13 -12.09 -1.55 0.07 
-16.35 -11.78 -1.54 0.07 
-16.57 -11.47 -1.54 0.07 
-16.78 -11.15 -1.54 0.07 
-16.98 -10.83 -1.54 0.07 
-15.59 -9.53 -1.40 0.40 
-17.37 -10.18 -1.54 0.07 
-17.56 -9.84 -1.54 0.07 
-17.74 -9.51 -1.54 0.07 
-17.91 -9.17 -1.54 0.07 
-18.60 -9.08 -1.59 0.33 
-19.71 -9.17 -1.67 0.32 
-20.18 -8.93 -1.69 0.07 
-20.38 -8.55 -1.69 0.07 
-20.53 -8.17 -1.69 0.07 
-20.68 -7.77 -1.69 0.07 
-20.82 -7.38 -1.69 0.07 
-13.38 -4.46 -1.08 0.19 
-13.62 -4.25 -1.09 0.33 
-14.56 -4.25 -1.16 0.71 
-21.29 -5.78 -1.69 0.07 
-21.39 -5.37 -1.69 0.07 
-21.48 -4.96 -1.69 0.07 
-21.57 -4.56 -1.69 0.07 
-21.65 -4.15 -1.69 0.07 
-21.71 -3.73 -1.69 0.07 
-10.26 -1.56 -0.80 0.45 
-10.11 -1.35 -0.78 0.88 
-10.08 -1.15 -0.78 0.89 
-10.06 -0.95 -0.77 0.91 
-10.05 -0.76 -0.77 0.92 
-10.05 -0.57 -0.77 0.92 
-10.09 -0.38 -0.77 0.92 
-10.12 -0.19 -0.78 0.90 
-10.17 -0.00 -0.79 0.87 
-10.24 0.19 -0.80 0.87 
-10.45 0.40 -0.81 0.40 
-21.58 1.23 -1.68 0.07 
-21.55 1.63 -1.68 0.07 
-21.51 2.04 -1.68 0.07 
-21.46 2.45 -1.68 0.07 
-21.41 2.85 -1.68 0.07 
-21.34 3.26 -1.68 0.07 
-12.31 2.12 -0.97 0.30 
-11.65 2.23 -0.92 0.43 
-11.23 2.37 -0.89 0.73 
-11.12 2.57 -0.89 0.83 
-11.10 2.79 -0.89 0.82 
-11.13 3.02 -0.90 0.76 
-16.78 4.89 -1.36 0.33 
-16.00 5.00 -1.31 0.83 
-15.25 5.08 -1.25 0.34 
-14.85 5.26 -1.23 0.82 
-14.65 5.51 -1.22 0.24 
-14.73 5.86 -1.23 0.23 
-14.80 6.21 -1.25 0.23 
-14.88 6.58 -1.27 0.23 
-19.50 9.07 -1.67 0.07 
-19.31 9.43 -1.67 0.08 
-19.06 9.76 -1.67 0.08 
-18.52 9.93 -1.64 0.51 
-17.83 9.99 -1.59 0.52 
-17.17 10.06 -1.55 0.54 
-16.65 10.18 -1.52 0.07 
-16.45 10.49 -1.52 0.07 
-16.25 10.80 -1.52 0.07 
-16.04 11.10 -1.52 0.07 
-7.88 5.68 -0.76 0.22 
-7.54 5.65 -0.73 0.65 
-7.29 5.68 -0.72 0.69 
-7.05 5.72 -0.71 0.71 
-6.82 5.75 -0.69 0.70 
-6.60 5.78 -0.68 0.71 
-6.38 5.81 -0.67 0.72 
-6.17 5.83 -0.66 0.73 
-5.97 5.86 -0.65 0.75 
-5.77 5.88 -0.64 0.68 
-5.58 5.91 -0.63 0.66 
-5.39 5.93 -0.62 0.66 
-5.21 5.95 -0.62 0.68 
-5.03 5.97 -0.61 0.69 
-4.86 5.99 -0.60 0.65 
-4.68 6.00 -0.59 0.66 
-4.51 6.02 -0.59 0.60 
-4.34 6.03 -0.58 0.61 
-4.20 6.06 -0.57 0.74 
-4.06 6.11 -0.57 0.67 
-3.93 6.16 -0.57 0.73 
-3.81 6.24 -0.57 0.77 
-3.71 6.34 -0.57 0.68 
-3.65 6.52 -0.58 0.55 
-3.62 6.76 -0.60 0.48 
-3.62 7.07 -0.62 0.32 
-8.52 17.46 -1.51 0.07 
-8.20 17.62 -1.51 0.07 
-7.86 17.78 -1.51 0.07 
-4.90 11.66 -0.98 0.91 
-7.19 18.08 -1.51 0.07 
-6.44 17.13 -1.42 0.66 
-5.99 16.91 -1.40 0.65 
-6.16 18.47 -1.52 0.07 
-5.81 18.59 -1.52 0.07 
-5.46 18.70 -1.52 0.07 
-3.58 13.19 -1.06 0.69 
-3.33 13.26 -1.06 0.90 
-3.13 13.54 -1.08 0.18 
-4.03 19.07 -1.52 0.07 
-3.67 19.14 -1.52 0.07 
-3.30 19.21 -1.52 0.07 
-2.94 19.27 -1.52 0.07 
-2.57 19.32 -1.52 0.07 
-2.21 19.37 -1.52 0.07 
-1.84 19.41 -1.52 0.07 
-1.47 19.44 -1.52 0.07 
-1.11 19.46 -1.52 0.07 
-0.66 17.46 -1.36 0.79 
-0.37 19.49 -1.52 0.07 
0.00 19.49 -1.52 0.07 
0.37 19.49 -1.52 0.07 
0.74 19.47 -1.52 0.07 
1.11 19.46 -1.52 0.07 
1.47 19.43 -1.52 0.07 
1.84 19.39 -1.52 0.07 
2.21 19.35 -1.52 0.07 
2.57 19.30 -1.52 0.07 
2.94 19.25 -1.52 0.07 
3.30 19.19 -1.52 0.07 
3.66 19.12 -1.52 0.07 
4.02 19.04 -1.52 0.07 
4.38 18.96 -1.51 0.07 
4.74 18.87 -1.51 0.07 
5.09 18.77 -1.51 0.07 
5.45 18.66 -1.51 0.07 
5.42 17.36 -1.42 0.80 
6.14 18.43 -1.51 0.07 
6.49 18.31 -1.51 0.07 
5.68 15.10 -1.26 0.89 
7.17 18.04 -1.51 0.07 
7.51 17.89 -1.51 0.07 
7.85 17.74 -1.51 0.07 
8.18 17.58 -1.51 0.07 
8.50 17.42 -1.51 0.07 
8.83 17.25 -1.51 0.07 
9.15 17.07 -1.51 0.07 
9.47 16.89 -1.51 0.07 
9.79 16.71 -1.51 0.07 
10.10 16.52 -1.51 0.07 
10.42 16.33 -1.51 0.07 
10.72 16.13 -1.51 0.07 
11.03 15.93 -1.51 0.07 
11.33 15.72 -1.51 0.07 
11.63 15.50 -1.51 0.07 
11.92 15.28 -1.51 0.07 
12.21 15.06 -1.51 0.07 
12.49 14.83 -1.51 0.07 
12.77 14.59 -1.51 0.07 
13.05 14.35 -1.51 0.07 
13.32 14.10 -1.51 0.07 
13.59 13.85 -1.51 0.07 
13.85 13.59 -1.51 0.07 
14.11 13.33 -1.51 0.07 
14.36 13.06 -1.51 0.07 
12.20 10.68 -1.26 0.72 
14.85 12.51 -1.51 0.07 
15.09 12.23 -1.51 0.07 
15.32 11.95 -1.51 0.07 
15.54 11.66 -1.51 0.07 
15.76 11.36 -1.51 0.07 
15.98 11.06 -1.51 0.07 
16.19 10.76 -1.51 0.07 
16.39 10.46 -1.51 0.07 
16.59 10.15 -1.51 0.07 
16.78 9.83 -1.51 0.07 
16.97 9.51 -1.51 0.07 
17.15 9.19 -1.52 0.07 
17.33 8.87 -1.52 0.07 
17.78 8.68 -1.54 0.64 
18.29 8.50 -1.57 0.64 
18.81 8.32 -1.60 0.62 
19.35 8.12 -1.63 0.63 
19.83 7.89 -1.66 0.08 
20.04 7.53 -1.67 0.08 
20.21 7.16 -1.67 0.07 
20.35 6.78 -1.67 0.07 
20.48 6.40 -1.67 0.07 
20.60 6.01 -1.67 0.07 
20.71 5.62 -1.67 0.07 
20.82 5.23 -1.67 0.07 
20.92 4.84 -1.67 0.07 
21.02 4.44 -1.67 0.07 
21.10 4.04 -1.67 0.07 
21.18 3.64 -1.67 0.07 
21.25 3.24 -1.67 0.07 
21.31 2.84 -1.67 0.07 
21.37 2.44 -1.67 0.07 
21.42 2.03 -1.68 0.07 
21.46 1.63 -1.68 0.07 
21.49 1.22 -1.68 0.07 
21.52 0.81 -1.68 0.07 
21.53 0.41 -1.68 0.07 
21.54 0.00 -1.68 0.07 
21.55 -0.41 -1.68 0.07 
21.54 -0.82 -1.68 0.07 
21.53 -1.22 -1.68 0.07 
21.51 -1.63 -1.68 0.07 
21.48 -2.04 -1.68 0.07 
21.44 -2.45 -1.68 0.07 
21.40 -2.85 -1.68 0.07 
21.34 -3.26 -1.68 0.07 
21.29 -3.66 -1.68 0.07 
21.22 -4.06 -1.68 0.07 
21.14 -4.47 -1.68 0.07 
21.06 -4.87 -1.68 0.07 
20.97 -5.27 -1.68 0.07 
20.87 -5.66 -1.68 0.07 
20.77 -6.06 -1.68 0.07 
20.66 -6.45 -1.68 0.07 
20.54 -6.84 -1.69 0.07 
20.41 -7.23 -1.69 0.07 
20.27 -7.62 -1.69 0.07 
20.13 -8.01 -1.69 0.07 
19.98 -8.39 -1.69 0.07 
19.82 -8.77 -1.69 0.07 
19.66 -9.14 -1.69 0.07 
19.49 -9.52 -1.69 0.07 
19.31 -9.89 -1.69 0.07 
19.12 -10.25 -1.69 0.07 
6.15 -3.45 -0.55 0.38 
5.84 -3.42 -0.53 0.40 
5.58 -3.41 -0.51 0.46 
5.37 -3.43 -0.50 0.60 
5.22 -3.47 -0.49 0.80 
5.17 -3.58 -0.49 0.65 
5.14 -3.70 -0.49 0.64 
5.12 -3.84 -0.50 0.61 
5.10 -3.98 -0.50 0.59 
5.14 -4.17 -0.52 0.27 
15.13 -12.75 -1.54 0.07 
14.89 -13.04 -1.54 0.07 
14.64 -13.32 -1.54 0.07 
14.39 -13.60 -1.54 0.07 
14.14 -13.87 -1.54 0.07 
13.87 -14.14 -1.54 0.07 
13.61 -14.40 -1.54 0.07 
13.34 -14.66 -1.54 0.07 
13.06 -14.91 -1.54 0.07 
12.78 -15.16 -1.54 0.07 
12.49 -15.40 -1.54 0.07 
12.20 -15.64 -1.54 0.07 
11.90 -15.87 -1.54 0.07 
11.60 -16.10 -1.55 0.07 
11.30 -16.32 -1.55 0.07 
10.99 -16.53 -1.55 0.07 
10.68 -16.74 -1.55 0.07 
10.36 -16.94 -1.55 0.07 
10.04 -17.14 -1.55 0.07 
9.72 -17.33 -1.55 0.07 
9.39 -17.51 -1.55 0.07 
4.27 -8.34 -0.73 0.96 
8.72 -17.86 -1.55 0.07 
8.38 -18.03 -1.55 0.07 
8.04 -18.18 -1.55 0.07 
7.70 -18.34 -1.55 0.07 
7.35 -18.48 -1.55 0.07 
7.00 -18.62 -1.55 0.07 
4.18 -11.79 -0.97 0.44 
3.87 -11.61 -0.95 0.69 
4.25 -13.60 -1.11 0.92 
5.57 -19.10 -1.55 0.07 
5.21 -19.21 -1.55 0.07 
4.85 -19.31 -1.55 0.07 
4.48 -19.40 -1.55 0.07 
4.11 -19.48 -1.55 0.07 
3.75 -19.56 -1.55 0.07 
3.38 -19.63 -1.55 0.07 
3.00 -19.69 -1.55 0.07 
2.63 -19.74 -1.55 0.07 
2.26 -19.79 -1.55 0.07 
1.88 -19.83 -1.55 0.07 
1.51 -19.86 -1.55 0.07 
1.13 -19.89 -1.55 0.07 
0.75 -19.91 -1.55 0.07 
0.38 -19.92 -1.55 0.07 
0.00 -19.93 -1.55 0.07 
-0.38 -19.92 -1.55 0.07 
-0.75 -19.91 -1.55 0.07 
-1.13 -19.90 -1.55 0.07 
-1.51 -19.87 -1.55 0.07 
-1.88 -19.84 -1.55 0.07 
-2.26 -19.80 -1.55 0.07 
-2.63 -19.75 -1.55 0.07 
-3.01 -19.70 -1.55 0.07 
-3.38 -19.64 -1.55 0.07 
-3.75 -19.57 -1.55 0.07 
-2.63 -12.45 -0.99 0.67 
-4.49 -19.42 -1.55 0.07 
-4.85 -19.33 -1.55 0.07 
-5.22 -19.23 -1.55 0.07 
-5.58 -19.13 -1.55 0.07 
-5.94 -19.02 -1.55 0.07 
-6.30 -18.90 -1.55 0.07 
-6.66 -18.78 -1.55 0.07 
-7.01 -18.65 -1.55 0.07 
-7.36 -18.51 -1.55 0.07 
-7.71 -18.37 -1.55 0.07 
-8.06 -18.22 -1.55 0.07 
-8.40 -18.06 -1.55 0.07 
-8.74 -17.90 -1.55 0.07 
-9.07 -17.73 -1.55 0.07 
-9.41 -17.55 -1.55 0.07 
-9.74 -17.37 -1.55 0.07 
-10.06 -17.18 -1.55 0.07 
-10.38 -16.98 -1.55 0.07 
-10.70 -16.78 -1.55 0.07 
-11.02 -16.57 -1.55 0.07 
-11.33 -16.36 -1.55 0.07 
-11.63 -16.14 -1.55 0.07 
-11.94 -15.91 -1.55 0.07 
-12.23 -15.68 -1.55 0.07 
-12.53 -15.45 -1.55 0.07 
-12.81 -15.21 -1.55 0.07 
-13.10 -14.96 -1.55 0.07 
-13.38 -14.71 -1.55 0.07 
-13.65 -14.45 -1.55 0.07 
-13.92 -14.18 -1.55 0.07 
-14.18 -13.92 -1.55 0.07 
-14.44 -13.64 -1.55 0.07 
-14.69 -13.36 -1.55 0.07 
-14.94 -13.08 -1.55 0.07 
-15.18 -12.79 -1.55 0.07 
-15.42 -12.50 -1.55 0.07 
-15.65 -12.21 -1.55 0.07 
-15.87 -11.90 -1.54 0.07 
-16.09 -11.60 -1.54 0.07 
-16.31 -11.29 -1.54 0.07 
-16.51 -10.98 -1.54 0.07 
-16.72 -10.66 -1.54 0.07 
-15.59 -9.53 -1.42 0.40 
-17.10 -10.02 -1.54 0.07 
-17.28 -9.69 -1.54 0.07 
-17.46 -9.36 -1.54 0.07 
-17.63 -9.02 -1.54 0.07 
-18.59 -9.08 -1.61 0.34 
-19.65 -9.14 -1.69 0.08 
-19.89 -8.80 -1.69 0.08 
-20.06 -8.42 -1.69 0.07 
-20.21 -8.04 -1.69 0.07 
-20.36 -7.65 -1.69 0.07 
-20.49 -7.26 -1.69 0.07 
-13.46 -4.49 -1.10 0.19 
-13.62 -4.25 -1.11 0.33 
-14.57 -4.25 -1.18 0.59 
-20.96 -5.69 -1.69 0.07 
-21.06 -5.29 -1.69 0.07 
-21.15 -4.89 -1.69 0.07 
-21.23 -4.49 -1.69 0.07 
-21.31 -4.08 -1.69 0.07 
-21.38 -3.68 -1.69 0.07 
-10.25 -1.56 -0.81 0.45 
-10.10 -1.35 -0.79 0.89 
-10.07 -1.15 -0.79 0.89 
-10.05 -0.95 -0.79 0.91 
-10.05 -0.76 -0.78 0.92 
-10.05 -0.57 -0.78 0.93 
-10.08 -0.38 -0.79 0.92 
-10.12 -0.19 -0.79 0.90 
-10.17 -0.00 -0.80 0.87 
-10.23 0.19 -0.81 0.87 
-10.44 0.40 -0.83 0.40 
-21.26 1.21 -1.68 0.07 
-21.22 1.61 -1.68 0.07 
-21.18 2.01 -1.68 0.07 
-21.14 2.41 -1.68 0.07 
-21.08 2.81 -1.68 0.07 
-21.02 3.21 -1.68 0.07 
-12.30 2.12 -0.99 0.30 
-11.65 2.23 -0.94 0.43 
-11.23 2.37 -0.91 0.73 
-11.11 2.57 -0.90 0.83 
-11.10 2.79 -0.90 0.82 
-11.12 3.02 -0.91 0.76 
-16.78 4.90 -1.38 0.33 
-16.00 5.00 -1.33 0.86 
-15.25 5.08 -1.27 0.34 
-14.85 5.26 -1.25 0.82 
-14.72 5.53 -1.24 0.24 
-14.79 5.88 -1.26 0.23 
-14.87 6.24 -1.27 0.23 
-14.95 6.61 -1.29 0.23 
-19.20 8.93 -1.67 0.07 
-19.02 9.29 -1.67 0.07 
-18.80 9.63 -1.67 0.08 
-18.51 9.92 -1.66 0.51 
-17.82 9.99 -1.62 0.52 
-17.17 10.06 -1.57 0.54 
-16.55 10.12 -1.53 0.55 
-16.20 10.34 -1.52 0.07 
-16.00 10.64 -1.52 0.07 
-15.79 10.94 -1.52 0.07 
-7.84 5.65 -0.76 0.22 
-7.54 5.65 -0.75 0.65 
-7.29 5.68 -0.73 0.70 
-7.05 5.72 -0.72 0.71 
-6.82 5.75 -0.71 0.70 
-6.60 5.78 -0.69 0.71 
-6.38 5.81 -0.68 0.72 
-6.17 5.83 -0.67 0.73 
-5.97 5.86 -0.66 0.75 
-5.77 5.88 -0.65 0.76 
-5.58 5.90 -0.64 0.76 
-5.39 5.92 -0.63 0.67 
-5.21 5.94 -0.62 0.68 
-5.03 5.97 -0.62 0.69 
-4.85 5.98 -0.61 0.65 
-4.68 6.00 -0.60 0.66 
-4.51 6.01 -0.59 0.60 
-4.34 6.02 -0.59 0.61 
-4.19 6.06 -0.58 0.66 
-4.05 6.10 -0.58 0.67 
-3.92 6.15 -0.58 0.73 
-3.81 6.23 -0.58 0.77 
-3.71 6.34 -0.58 0.68 
-3.65 6.51 -0.59 0.55 
-3.62 6.75 -0.61 0.48 
-3.61 7.06 -0.63 0.32 
-8.39 17.18 -1.51 0.07 
-8.06 17.34 -1.51 0.07 
-7.74 17.49 -1.51 0.07 
-4.90 11.66 -1.00 0.91 
-7.07 17.79 -1.51 0.07 
-6.44 17.13 -1.45 0.66 
-5.99 16.91 -1.42 0.65 
-6.06 18.17 -1.51 0.07 
-5.71 18.29 -1.51 0.07 
-5.37 18.39 -1.51 0.07 
-3.58 13.19 -1.08 0.69 
-3.33 13.26 -1.08 0.90 
-3.13 13.54 -1.10 0.18 
-3.96 18.76 -1.52 0.07 
-3.61 18.83 -1.52 0.07 
-3.25 18.90 -1.52 0.07 
-2.89 18.96 -1.52 0.07 
-2.53 19.01 -1.52 0.07 
-2.17 19.05 -1.52 0.07 
-1.81 19.09 -1.52 0.07 
-1.45 19.12 -1.52 0.07 
-1.09 19.15 -1.52 0.07 
-0.66 17.45 -1.38 0.91 
-0.36 19.17 -1.52 0.07 
0.00 19.18 -1.52 0.07 
0.36 19.17 -1.52 0.07 
0.73 19.16 -1.52 0.07 
1.09 19.14 -1.52 0.07 
1.45 19.11 -1.52 0.07 
1.81 19.08 -1.52 0.07 
2.17 19.04 -1.51 0.07 
2.53 18.99 -1.51 0.07 
2.89 18.94 -1.51 0.07 
3.25 18.88 -1.51 0.07 
3.60 18.81 -1.51 0.07 
3.96 18.73 -1.51 0.07 
4.31 18.65 -1.51 0.07 
4.66 18.56 -1.51 0.07 
5.01 18.47 -1.51 0.07 
5.36 18.36 -1.51 0.07 
5.42 17.36 -1.44 0.80 
6.04 18.13 -1.51 0.07 
6.38 18.01 -1.51 0.07 
5.68 15.10 -1.28 0.88 
7.06 17.75 -1.51 0.07 
7.39 17.60 -1.51 0.07 
7.72 17.46 -1.51 0.07 
8.05 17.30 -1.51 0.07 
8.37 17.14 -1.51 0.07 
8.69 16.98 -1.51 0.07 
9.01 16.81 -1.51 0.07 
9.33 16.64 -1.51 0.07 
9.64 16.46 -1.51 0.07 
9.95 16.28 -1.51 0.07 
10.26 16.09 -1.51 0.07 
10.56 15.89 -1.51 0.07 
10.86 15.69 -1.51 0.07 
11.16 15.48 -1.51 0.07 
11.45 15.27 -1.51 0.07 
11.74 15.05 -1.51 0.07 
12.03 14.83 -1.51 0.07 
12.31 14.60 -1.51 0.07 
12.58 14.37 -1.51 0.07 
12.85 14.13 -1.51 0.07 
13.12 13.89 -1.51 0.07 
13.38 13.64 -1.51 0.07 
13.64 13.39 -1.51 0.07 
13.89 13.13 -1.51 0.07 
14.14 12.86 -1.51 0.07 
12.20 10.68 -1.28 0.72 
14.62 12.32 -1.51 0.07 
14.86 12.05 -1.51 0.07 
15.09 11.77 -1.51 0.07 
15.31 11.48 -1.51 0.07 
15.53 11.19 -1.51 0.07 
15.74 10.90 -1.51 0.07 
15.95 10.60 -1.51 0.07 
16.15 10.30 -1.51 0.07 
16.34 9.99 -1.51 0.07 
16.53 9.68 -1.51 0.07 
16.72 9.37 -1.52 0.07 
16.89 9.06 -1.52 0.07 
17.27 8.84 -1.53 0.65 
17.77 8.68 -1.56 0.64 
18.28 8.50 -1.59 0.64 
18.81 8.32 -1.63 0.62 
19.34 8.12 -1.66 0.63 
19.57 7.78 -1.67 0.08 
19.76 7.43 -1.67 0.07 
19.90 7.06 -1.67 0.07 
20.04 6.68 -1.67 0.07 
20.17 6.30 -1.67 0.07 
20.29 5.92 -1.67 0.07 
20.40 5.54 -1.67 0.07 
20.51 5.15 -1.67 0.07 
20.61 4.76 -1.67 0.07 
20.70 4.37 -1.67 0.07 
20.78 3.98 -1.67 0.07 
20.86 3.59 -1.67 0.07 
20.93 3.19 -1.67 0.07 
20.99 2.80 -1.67 0.07 
21.05 2.40 -1.67 0.07 
21.09 2.00 -1.68 0.07 
21.13 1.60 -1.68 0.07 
21.16 1.20 -1.68 0.07 
21.19 0.80 -1.68 0.07 
21.21 0.40 -1.68 0.07 
21.22 0.00 -1.68 0.07 
21.22 -0.40 -1.68 0.07 
21.21 -0.80 -1.68 0.07 
21.20 -1.20 -1.68 0.07 
21.18 -1.61 -1.68 0.07 
21.15 -2.01 -1.68 0.07 
21.11 -2.41 -1.68 0.07 
21.07 -2.81 -1.68 0.07 
21.02 -3.21 -1.68 0.07 
20.96 -3.61 -1.68 0.07 
20.90 -4.00 -1.68 0.07 
20.82 -4.40 -1.68 0.07 
20.74 -4.79 -1.68 0.07 
20.65 -5.19 -1.68 0.07 
20.56 -5.58 -1.68 0.07 
20.45 -5.97 -1.68 0.07 
20.34 -6.35 -1.68 0.07 
20.22 -6.74 -1.69 0.07 
20.10 -7.12 -1.69 0.07 
19.96 -7.50 -1.69 0.07 
19.82 -7.88 -1.69 0.07 
19.68 -8.26 -1.69 0.07 
19.52 -8.63 -1.69 0.07 
19.36 -9.00 -1.69 0.07 
19.19 -9.37 -1.69 0.07 
19.02 -9.73 -1.69 0.07 
18.83 -10.09 -1.69 0.07 
6.14 -3.44 -0.56 0.38 
5.84 -3.42 -0.53 0.40 
5.58 -3.41 -0.52 0.47 
5.37 -3.42 -0.50 0.60 
5.22 -3.47 -0.50 0.80 
5.16 -3.57 -0.50 0.65 
5.13 -3.70 -0.50 0.64 
5.11 -3.83 -0.51 0.61 
5.09 -3.97 -0.51 0.59 
5.13 -4.16 -0.52 0.27 
14.90 -12.56 -1.54 0.07 
14.66 -12.84 -1.54 0.07 
14.42 -13.12 -1.54 0.07 
14.17 -13.39 -1.54 0.07 
13.92 -13.66 -1.54 0.07 
13.66 -13.92 -1.54 0.07 
13.40 -14.18 -1.54 0.07 
13.13 -14.44 -1.54 0.07 
12.86 -14.69 -1.54 0.07 
12.58 -14.93 -1.54 0.07 
12.30 -15.17 -1.54 0.07 
12.01 -15.40 -1.54 0.07 
11.72 -15.63 -1.54 0.07 
11.42 -15.85 -1.54 0.07 
11.12 -16.07 -1.55 0.07 
10.82 -16.28 -1.55 0.07 
10.51 -16.48 -1.55 0.07 
10.20 -16.68 -1.55 0.07 
9.89 -16.87 -1.55 0.07 
9.57 -17.06 -1.55 0.07 
9.24 -17.24 -1.55 0.07 
4.27 -8.34 -0.74 0.96 
8.59 -17.59 -1.55 0.07 
8.25 -17.75 -1.55 0.07 
7.92 -17.90 -1.55 0.07 
7.58 -18.05 -1.55 0.07 
7.24 -18.20 -1.55 0.07 
6.89 -18.33 -1.55 0.07 
4.19 -11.81 -0.99 0.20 
3.87 -11.60 -0.97 0.72 
4.25 -13.60 -1.13 0.92 
5.49 -18.81 -1.55 0.07 
5.13 -18.91 -1.55 0.07 
4.77 -19.01 -1.55 0.07 
4.41 -19.10 -1.55 0.07 
4.05 -19.18 -1.55 0.07 
3.69 -19.25 -1.55 0.07 
3.32 -19.32 -1.55 0.07 
2.96 -19.38 -1.55 0.07 
2.59 -19.44 -1.55 0.07 
2.22 -19.49 -1.55 0.07 
1.85 -19.52 -1.55 0.07 
1.48 -19.56 -1.55 0.07 
1.11 -19.58 -1.55 0.07 
0.74 -19.60 -1.55 0.07 
0.37 -19.61 -1.55 0.07 
0.00 -19.62 -1.55 0.07 
-0.37 -19.62 -1.55 0.07 
-0.74 -19.61 -1.55 0.07 
-1.11 -19.59 -1.55 0.07 
-1.48 -19.56 -1.55 0.07 
-1.85 -19.53 -1.55 0.07 
-2.22 -19.49 -1.55 0.07 
-2.59 -19.45 -1.55 0.07 
-2.96 -19.40 -1.55 0.07 
-3.33 -19.34 -1.55 0.07 
-3.69 -19.27 -1.55 0.07 
-2.63 -12.45 -1.01 0.69 
-4.42 -19.12 -1.55 0.07 
-4.78 -19.03 -1.55 0.07 
-5.14 -18.93 -1.55 0.07 
-5.49 -18.83 -1.55 0.07 
-5.85 -18.73 -1.55 0.07 
-6.20 -18.61 -1.55 0.07 
-6.55 -18.49 -1.55 0.07 
-6.90 -18.36 -1.55 0.07 
-7.25 -18.23 -1.55 0.07 
-7.59 -18.08 -1.55 0.07 
-7.93 -17.94 -1.55 0.07 
-8.27 -17.78 -1.55 0.07 
-8.60 -17.62 -1.55 0.07 
-8.93 -17.45 -1.55 0.07 
-9.26 -17.28 -1.55 0.07 
-9.59 -17.10 -1.55 0.07 
-9.91 -16.91 -1.55 0.07 
-10.22 -16.72 -1.55 0.07 
-10.54 -16.52 -1.55 0.07 
-10.85 -16.32 -1.55 0.07 
-11.15 -16.11 -1.55 0.07 
-9.41 -13.06 -1.27 0.30 
-11.75 -15.67 -1.55 0.07 
-12.04 -15.44 -1.55 0.07 
-12.33 -15.21 -1.55 0.07 
-12.62 -14.97 -1.55 0.07 
-12.90 -14.73 -1.55 0.07 
-13.17 -14.48 -1.55 0.07 
-13.44 -14.22 -1.55 0.07 
-13.70 -13.97 -1.55 0.07 
-13.96 -13.70 -1.55 0.07 
-14.22 -13.43 -1.55 0.07 
-14.47 -13.16 -1.55 0.07 
-14.71 -12.88 -1.55 0.07 
-14.95 -12.60 -1.55 0.07 
-15.18 -12.31 -1.55 0.07 
-15.41 -12.02 -1.54 0.07 
-15.63 -11.72 -1.54 0.07 
-15.85 -11.42 -1.54 0.07 
-16.06 -11.12 -1.54 0.07 
-16.26 -10.81 -1.54 0.07 
-16.46 -10.50 -1.54 0.07 
-15.59 -9.53 -1.44 0.40 
-16.84 -9.86 -1.54 0.07 
-17.02 -9.54 -1.54 0.07 
-17.19 -9.21 -1.54 0.07 
-17.57 -8.99 -1.56 0.35 
-18.58 -9.07 -1.63 0.34 
-19.37 -9.01 -1.69 0.08 
-19.60 -8.67 -1.69 0.07 
-19.75 -8.29 -1.69 0.07 
-19.90 -7.92 -1.69 0.07 
-20.04 -7.54 -1.69 0.07 
-20.18 -7.15 -1.69 0.07 
-13.49 -4.50 -1.12 0.90 
-13.62 -4.25 -1.13 0.33 
-14.63 -4.27 -1.20 0.81 
-20.64 -5.60 -1.69 0.07 
-20.74 -5.21 -1.69 0.07 
-20.83 -4.81 -1.69 0.07 
-20.91 -4.42 -1.69 0.07 
-20.98 -4.02 -1.69 0.07 
-21.05 -3.62 -1.69 0.07 
-10.24 -1.56 -0.82 0.45 
-10.10 -1.35 -0.81 0.89 
-10.07 -1.15 -0.80 0.89 
-10.05 -0.95 -0.80 0.91 
-10.05 -0.76 -0.80 0.92 
-10.04 -0.57 -0.80 0.93 
-10.08 -0.38 -0.80 0.92 
-10.12 -0.19 -0.80 0.90 
-10.16 -0.00 -0.82 0.87 
-10.23 0.19 -0.82 0.87 
-10.43 0.39 -0.84 0.40 
-20.94 1.19 -1.68 0.07 
-20.91 1.59 -1.68 0.07 
-20.87 1.98 -1.68 0.07 
-20.82 2.37 -1.68 0.07 
-20.76 2.77 -1.68 0.07 
-20.70 3.16 -1.68 0.07 
-12.29 2.11 -1.00 0.30 
-11.64 2.23 -0.95 0.43 
-11.22 2.37 -0.92 0.59 
-11.10 2.57 -0.91 0.83 
-11.09 2.78 -0.92 0.82 
-11.11 3.02 -0.92 0.76 
-16.79 4.90 -1.40 0.33 
-16.01 5.00 -1.35 0.86 
-15.25 5.08 -1.29 0.34 
-14.85 5.26 -1.26 0.82 
-14.78 5.56 -1.27 0.23 
-14.86 5.91 -1.28 0.23 
-14.94 6.27 -1.30 0.23 
-15.02 6.64 -1.32 0.20 
-18.91 8.80 -1.67 0.07 
-18.74 9.15 -1.67 0.07 
-18.55 9.50 -1.67 0.08 
-18.31 9.81 -1.67 0.08 
-17.81 9.99 -1.64 0.52 
-17.16 10.05 -1.60 0.54 
-16.54 10.12 -1.56 0.55 
-15.96 10.18 -1.52 0.07 
-15.76 10.48 -1.52 0.07 
-15.56 10.77 -1.52 0.07 
-7.82 5.64 -0.77 0.59 
-7.54 5.65 -0.76 0.65 
-7.28 5.68 -0.74 0.70 
-7.05 5.72 -0.73 0.71 
-6.82 5.75 -0.72 0.70 
-6.60 5.78 -0.70 0.71 
-6.38 5.80 -0.69 0.72 
-6.17 5.83 -0.68 0.73 
-5.97 5.85 -0.67 0.75 
-5.77 5.88 -0.66 0.76 
-5.57 5.90 -0.65 0.76 
-5.39 5.92 -0.64 0.77 
-5.20 5.94 -0.63 0.79 
-5.02 5.96 -0.63 0.80 
-4.85 5.98 -0.62 0.66 
-4.67 5.99 -0.61 0.66 
-4.50 6.00 -0.60 0.61 
-4.33 6.01 -0.59 0.61 
-4.19 6.05 -0.59 0.66 
-4.05 6.09 -0.59 0.67 
-3.92 6.14 -0.58 0.73 
-3.81 6.23 -0.59 0.77 
-3.71 6.33 -0.59 0.68 
-3.65 6.50 -0.60 0.55 
-3.62 6.74 -0.61 0.48 
-3.61 7.05 -0.64 0.32 
-8.26 16.91 -1.51 0.08 
-7.93 17.06 -1.51 0.07 
-7.61 17.22 -1.51 0.07 
-4.90 11.66 -1.02 0.91 
-6.96 17.50 -1.51 0.07 
-6.45 17.15 -1.47 0.51 
-5.99 16.91 -1.44 0.65 
-5.96 17.88 -1.51 0.07 
-5.62 18.00 -1.51 0.07 
-5.28 18.10 -1.51 0.07 
-3.58 13.19 -1.10 0.69 
-3.33 13.26 -1.10 0.90 
-3.13 13.54 -1.12 0.18 
-3.90 18.46 -1.51 0.07 
-3.55 18.53 -1.51 0.07 
-3.20 18.60 -1.51 0.07 
-2.85 18.66 -1.51 0.07 
-2.49 18.71 -1.51 0.07 
-2.14 18.75 -1.51 0.07 
-1.78 18.79 -1.51 0.07 
-1.43 18.82 -1.51 0.07 
-1.07 18.84 -1.51 0.07 
-0.66 17.45 -1.40 0.91 
-0.36 18.87 -1.51 0.07 
0.00 18.87 -1.51 0.07 
0.36 18.87 -1.51 0.07 
0.71 18.85 -1.51 0.07 
1.07 18.84 -1.51 0.07 
1.43 18.81 -1.51 0.07 
1.78 18.78 -1.51 0.07 
2.14 18.74 -1.51 0.07 
2.49 18.69 -1.51 0.07 
2.84 18.64 -1.51 0.07 
3.19 18.58 -1.51 0.07 
3.55 18.51 -1.51 0.07 
3.89 18.43 -1.51 0.07 
4.24 18.35 -1.51 0.07 
4.59 18.27 -1.51 0.07 
4.93 18.17 -1.51 0.07 
5.27 18.07 -1.51 0.07 
5.43 17.37 -1.46 0.62 
5.95 17.85 -1.51 0.07 
6.28 17.73 -1.51 0.07 
5.68 15.11 -1.30 0.87 
6.95 17.47 -1.51 0.07 
7.27 17.33 -1.51 0.07 
7.60 17.18 -1.51 0.07 
7.92 17.03 -1.51 0.08 
8.24 16.88 -1.51 0.08 
8.56 16.72 -1.51 0.08 
8.88 16.56 -1.51 0.08 
9.19 16.39 -1.51 0.08 
9.50 16.22 -1.51 0.08 
9.81 16.04 -1.51 0.08 
10.11 15.85 -1.51 0.08 
10.41 15.66 -1.51 0.08 
10.70 15.46 -1.51 0.08 
11.00 15.25 -1.51 0.08 
11.28 15.05 -1.51 0.08 
11.57 14.83 -1.51 0.08 
11.85 14.61 -1.51 0.08 
12.12 14.39 -1.51 0.08 
12.40 14.16 -1.51 0.08 
12.66 13.92 -1.51 0.08 
12.93 13.68 -1.51 0.08 
13.19 13.44 -1.51 0.08 
13.44 13.19 -1.51 0.08 
13.69 12.93 -1.51 0.08 
13.93 12.67 -1.51 0.08 
12.20 10.68 -1.30 0.72 
14.41 12.14 -1.51 0.08 
14.64 11.87 -1.51 0.08 
14.86 11.59 -1.51 0.07 
15.08 11.31 -1.51 0.07 
15.30 11.02 -1.51 0.07 
15.51 10.74 -1.51 0.07 
15.71 10.44 -1.51 0.07 
15.91 10.15 -1.51 0.07 
16.10 9.84 -1.51 0.07 
16.29 9.54 -1.51 0.07 
16.47 9.23 -1.52 0.07 
16.79 9.00 -1.53 0.65 
17.27 8.84 -1.56 0.65 
17.77 8.68 -1.59 0.64 
18.28 8.50 -1.62 0.64 
18.80 8.31 -1.65 0.63 
19.11 8.02 -1.66 0.08 
19.32 7.68 -1.67 0.08 
19.47 7.32 -1.67 0.07 
19.61 6.95 -1.67 0.07 
19.74 6.58 -1.67 0.07 
19.87 6.21 -1.67 0.07 
19.98 5.83 -1.67 0.07 
20.10 5.45 -1.67 0.07 
20.20 5.07 -1.67 0.07 
20.30 4.69 -1.67 0.07 
20.39 4.31 -1.67 0.07 
20.47 3.92 -1.67 0.07 
20.55 3.53 -1.67 0.07 
20.62 3.15 -1.67 0.07 
20.68 2.76 -1.67 0.07 
20.73 2.36 -1.67 0.07 
20.78 1.97 -1.68 0.07 
20.82 1.58 -1.68 0.07 
20.85 1.18 -1.68 0.07 
20.87 0.79 -1.68 0.07 
20.89 0.40 -1.68 0.07 
20.90 0.00 -1.68 0.07 
20.90 -0.40 -1.68 0.07 
20.90 -0.79 -1.68 0.07 
20.88 -1.19 -1.68 0.07 
20.86 -1.58 -1.68 0.07 
20.83 -1.98 -1.68 0.07 
20.80 -2.37 -1.68 0.07 
20.76 -2.77 -1.68 0.07 
20.70 -3.16 -1.68 0.07 
20.65 -3.55 -1.68 0.07 
20.58 -3.94 -1.68 0.07 
20.51 -4.33 -1.68 0.07 
20.43 -4.72 -1.68 0.07 
20.34 -5.11 -1.68 0.07 
20.25 -5.49 -1.68 0.07 
20.14 -5.88 -1.68 0.07 
20.03 -6.26 -1.68 0.07 
19.92 -6.64 -1.69 0.07 
19.79 -7.02 -1.69 0.07 
19.66 -7.39 -1.69 0.07 
19.53 -7.76 -1.69 0.07 
19.38 -8.14 -1.69 0.07 
19.23 -8.50 -1.69 0.07 
19.07 -8.87 -1.69 0.07 
18.90 -9.23 -1.69 0.07 
18.73 -9.59 -1.69 0.07 
18.55 -9.94 -1.69 0.07 
6.13 -3.44 -0.56 0.38 
5.83 -3.42 -0.54 0.40 
5.57 -3.41 -0.52 0.47 
5.36 -3.42 -0.51 0.60 
5.21 -3.47 -0.50 0.80 
5.15 -3.57 -0.50 0.66 
5.13 -3.69 -0.51 0.63 
5.10 -3.83 -0.51 0.63 
5.08 -3.97 -0.52 0.59 
5.11 -4.14 -0.53 0.27 
14.67 -12.37 -1.54 0.07 
14.44 -12.64 -1.54 0.07 
14.20 -12.92 -1.54 0.07 
13.96 -13.19 -1.54 0.07 
13.71 -13.45 -1.54 0.07 
13.46 -13.71 -1.54 0.07 
13.20 -13.97 -1.54 0.07 
12.93 -14.22 -1.54 0.07 
12.66 -14.46 -1.54 0.07 
12.39 -14.70 -1.54 0.07 
12.11 -14.94 -1.54 0.07 
11.83 -15.17 -1.54 0.07 
11.54 -15.39 -1.54 0.07 
11.25 -15.61 -1.54 0.07 
10.96 -15.82 -1.54 0.07 
10.66 -16.03 -1.55 0.07 
10.35 -16.23 -1.55 0.07 
10.05 -16.43 -1.55 0.07 
9.74 -16.62 -1.55 0.07 
9.42 -16.80 -1.55 0.07 
9.10 -16.98 -1.55 0.07 
4.27 -8.34 -0.75 0.96 
8.46 -17.32 -1.55 0.07 
8.13 -17.48 -1.55 0.07 
7.80 -17.63 -1.55 0.07 
7.46 -17.78 -1.55 0.07 
7.13 -17.92 -1.55 0.07 
6.79 -18.05 -1.55 0.07 
4.80 -13.54 -1.15 0.91 
3.87 -11.60 -0.98 0.73 
4.25 -13.60 -1.14 0.92 
5.40 -18.52 -1.55 0.07 
5.05 -18.63 -1.55 0.07 
4.70 -18.72 -1.55 0.07 
4.35 -18.81 -1.55 0.07 
3.99 -18.89 -1.55 0.07 
3.63 -18.96 -1.55 0.07 
3.27 -19.03 -1.55 0.07 
2.91 -19.09 -1.55 0.07 
2.55 -19.14 -1.55 0.07 
2.19 -19.19 -1.55 0.07 
1.83 -19.23 -1.55 0.07 
1.46 -19.26 -1.55 0.07 
1.10 -19.29 -1.55 0.07 
0.73 -19.30 -1.55 0.07 
0.37 -19.32 -1.55 0.07 
0.00 -19.32 -1.55 0.07 
-0.37 -19.32 -1.55 0.07 
-0.73 -19.31 -1.55 0.07 
-1.10 -19.29 -1.55 0.07 
-1.46 -19.27 -1.55 0.07 
-1.83 -19.24 -1.55 0.07 
-2.19 -19.20 -1.55 0.07 
-2.55 -19.15 -1.55 0.07 
-2.91 -19.10 -1.55 0.07 
-3.28 -19.04 -1.55 0.07 
-3.64 -18.98 -1.55 0.07 
-2.63 -12.45 -1.02 0.70 
-4.35 -18.83 -1.55 0.07 
-4.71 -18.74 -1.55 0.07 
-5.06 -18.65 -1.55 0.07 
-5.41 -18.55 -1.55 0.07 
-5.76 -18.44 -1.55 0.07 
-6.11 -18.33 -1.55 0.07 
-6.45 -18.21 -1.55 0.07 
-6.80 -18.08 -1.55 0.07 
-7.14 -17.95 -1.55 0.07 
-7.48 -17.81 -1.55 0.07 
-7.81 -17.66 -1.55 0.07 
-8.14 -17.51 -1.55 0.07 
-8.47 -17.35 -1.55 0.07 
-8.80 -17.19 -1.55 0.07 
-9.12 -17.02 -1.55 0.07 
-9.44 -16.84 -1.55 0.07 
-9.76 -16.66 -1.55 0.07 
-10.07 -16.47 -1.55 0.07 
-10.38 -16.27 -1.55 0.07 
-10.68 -16.07 -1.55 0.07 
-10.98 -15.86 -1.55 0.07 
-9.41 -13.05 -1.29 0.50 
-11.57 -15.43 -1.55 0.07 
-11.86 -15.21 -1.55 0.07 
-12.15 -14.98 -1.55 0.07 
-12.42 -14.74 -1.55 0.07 
-12.70 -14.50 -1.55 0.07 
-12.97 -14.26 -1.55 0.07 
-13.24 -14.01 -1.55 0.07 
-13.50 -13.75 -1.55 0.07 
-13.75 -13.49 -1.55 0.07 
-14.00 -13.23 -1.55 0.07 
-14.25 -12.96 -1.55 0.07 
-14.49 -12.69 -1.55 0.07 
-14.72 -12.41 -1.55 0.07 
-14.95 -12.12 -1.54 0.07 
-15.18 -11.84 -1.54 0.07 
-15.39 -11.54 -1.54 0.07 
-15.61 -11.25 -1.54 0.07 
-15.81 -10.95 -1.54 0.07 
-16.01 -10.65 -1.54 0.07 
-16.21 -10.34 -1.54 0.07 
-15.59 -9.53 -1.47 0.40 
-16.58 -9.71 -1.54 0.07 
-16.76 -9.40 -1.54 0.07 
-16.93 -9.08 -1.54 0.07 
-17.56 -8.99 -1.58 0.35 
-18.56 -9.06 -1.66 0.34 
-19.10 -8.88 -1.69 0.08 
-19.30 -8.54 -1.69 0.07 
-19.46 -8.17 -1.69 0.07 
-19.60 -7.80 -1.69 0.07 
-19.74 -7.42 -1.69 0.07 
-19.87 -7.04 -1.69 0.07 
-13.37 -4.46 -1.13 0.57 
-13.62 -4.25 -1.15 0.30 
-14.62 -4.26 -1.22 0.88 
-20.33 -5.52 -1.69 0.07 
-20.43 -5.13 -1.69 0.07 
-20.51 -4.74 -1.69 0.07 
-20.59 -4.35 -1.69 0.07 
-20.67 -3.96 -1.69 0.07 
-20.73 -3.57 -1.69 0.07 
-10.23 -1.56 -0.83 0.45 
-10.09 -1.34 -0.82 0.89 
-10.06 -1.15 -0.81 0.89 
-10.04 -0.95 -0.81 0.91 
-10.04 -0.76 -0.81 0.92 
-10.04 -0.57 -0.81 0.93 
-10.08 -0.38 -0.81 0.92 
-10.11 -0.19 -0.81 0.91 
-10.16 -0.00 -0.83 0.87 
-10.22 0.19 -0.83 0.87 
-10.42 0.39 -0.85 0.40 
-20.63 1.17 -1.68 0.07 
-20.60 1.56 -1.68 0.07 
-20.56 1.95 -1.68 0.07 
-20.51 2.34 -1.68 0.07 
-20.46 2.73 -1.68 0.07 
-20.40 3.11 -1.68 0.07 
-12.29 2.11 -1.02 0.30 
-11.64 2.23 -0.97 0.42 
-11.22 2.37 -0.93 0.59 
-11.09 2.56 -0.93 0.83 
-11.08 2.78 -0.93 0.82 
-11.10 3.01 -0.94 0.76 
-16.79 4.90 -1.42 0.33 
-16.01 5.00 -1.37 0.86 
-15.25 5.08 -1.31 0.34 
-14.85 5.26 -1.28 0.82 
-14.85 5.58 -1.29 0.23 
-14.93 5.94 -1.31 0.23 
-15.01 6.30 -1.33 0.21 
-15.10 6.68 -1.35 0.20 
-18.64 8.67 -1.67 0.08 
-18.46 9.01 -1.67 0.08 
-18.28 9.36 -1.67 0.08 
-18.07 9.68 -1.67 0.08 
-17.81 9.98 -1.66 0.52 
-17.16 10.05 -1.62 0.54 
-16.54 10.11 -1.58 0.55 
-15.95 10.17 -1.54 0.57 
-15.53 10.33 -1.52 0.08 
-15.33 10.61 -1.52 0.08 
-7.82 5.64 -0.79 0.59 
-7.53 5.65 -0.77 0.65 
-7.28 5.68 -0.75 0.65 
-7.05 5.72 -0.74 0.71 
-6.82 5.74 -0.73 0.70 
-6.59 5.77 -0.71 0.71 
-6.38 5.80 -0.70 0.72 
-6.17 5.83 -0.69 0.73 
-5.96 5.85 -0.68 0.75 
-5.77 5.88 -0.67 0.76 
-5.57 5.90 -0.66 0.76 
-5.38 5.92 -0.65 0.77 
-5.20 5.94 -0.64 0.79 
-5.02 5.96 -0.63 0.80 
-4.84 5.97 -0.63 0.76 
-4.67 5.98 -0.62 0.67 
-4.50 6.00 -0.61 0.61 
-4.33 6.00 -0.60 0.61 
-4.18 6.04 -0.60 0.67 
-4.04 6.08 -0.60 0.67 
-3.91 6.14 -0.59 0.73 
-3.80 6.22 -0.59 0.78 
-3.70 6.32 -0.60 0.68 
-3.64 6.49 -0.61 0.55 
-3.61 6.74 -0.62 0.48 
-3.60 7.04 -0.64 0.32 
-8.14 16.67 -1.51 0.08 
-7.82 16.81 -1.51 0.08 
-7.50 16.96 -1.51 0.08 
-4.90 11.66 -1.03 0.91 
-6.85 17.23 -1.51 0.07 
-6.45 17.17 -1.49 0.51 
-6.20 17.48 -1.51 0.07 
-5.87 17.60 -1.51 0.07 
-5.53 17.71 -1.51 0.07 
-5.20 17.82 -1.51 0.07 
-3.58 13.19 -1.11 0.69 
-3.33 13.26 -1.11 0.90 
-3.13 13.54 -1.13 0.18 
-3.84 18.17 -1.51 0.07 
-3.49 18.24 -1.51 0.07 
-3.15 18.30 -1.51 0.07 
-2.80 18.36 -1.51 0.07 
-2.45 18.41 -1.51 0.07 
-2.10 18.46 -1.51 0.07 
-1.76 18.49 -1.51 0.07 
-1.40 18.52 -1.51 0.07 
-1.05 18.55 -1.51 0.07 
-0.66 17.45 -1.42 0.91 
-0.35 18.57 -1.51 0.07 
0.00 18.57 -1.51 0.07 
0.35 18.57 -1.51 0.07 
0.70 18.56 -1.51 0.07 
1.05 18.54 -1.51 0.07 
1.40 18.52 -1.51 0.07 
1.75 18.48 -1.51 0.07 
2.10 18.44 -1.51 0.07 
2.45 18.40 -1.51 0.07 
2.80 18.34 -1.51 0.07 
3.14 18.29 -1.51 0.07 
3.49 18.22 -1.51 0.07 
3.83 18.15 -1.51 0.07 
4.18 18.07 -1.51 0.07 
4.52 17.98 -1.51 0.07 
4.85 17.89 -1.51 0.07 
5.19 17.79 -1.51 0.07 
5.43 17.39 -1.48 0.62 
5.86 17.57 -1.51 0.07 
6.19 17.45 -1.51 0.07 
5.68 15.11 -1.32 0.86 
6.84 17.20 -1.51 0.08 
7.16 17.07 -1.51 0.08 
7.49 16.93 -1.51 0.08 
7.81 16.79 -1.51 0.08 
8.12 16.64 -1.51 0.08 
8.44 16.48 -1.51 0.08 
8.75 16.32 -1.51 0.08 
9.06 16.15 -1.51 0.08 
9.36 15.98 -1.51 0.08 
9.66 15.80 -1.51 0.08 
9.96 15.62 -1.51 0.08 
10.26 15.43 -1.51 0.08 
10.55 15.23 -1.51 0.08 
10.83 15.03 -1.51 0.08 
11.12 14.83 -1.51 0.08 
11.40 14.61 -1.51 0.08 
11.67 14.40 -1.51 0.08 
11.95 14.18 -1.51 0.08 
12.21 13.95 -1.51 0.08 
12.48 13.72 -1.51 0.08 
12.74 13.48 -1.51 0.08 
12.99 13.24 -1.51 0.08 
13.24 12.99 -1.51 0.08 
13.49 12.74 -1.51 0.08 
13.73 12.49 -1.51 0.08 
12.19 10.68 -1.32 0.72 
14.20 11.96 -1.51 0.08 
14.42 11.70 -1.51 0.08 
14.65 11.42 -1.51 0.08 
14.86 11.15 -1.51 0.08 
15.07 10.86 -1.51 0.08 
15.28 10.58 -1.51 0.08 
15.48 10.29 -1.51 0.08 
15.67 10.00 -1.51 0.08 
15.86 9.70 -1.51 0.08 
16.05 9.40 -1.52 0.08 
16.31 9.14 -1.52 0.66 
16.78 9.00 -1.55 0.65 
17.26 8.84 -1.58 0.65 
17.76 8.67 -1.61 0.64 
18.27 8.50 -1.64 0.64 
18.66 8.25 -1.66 0.09 
18.87 7.92 -1.67 0.09 
19.04 7.57 -1.67 0.08 
19.18 7.21 -1.67 0.08 
19.32 6.85 -1.67 0.08 
19.45 6.48 -1.67 0.08 
19.57 6.12 -1.67 0.08 
19.69 5.75 -1.67 0.08 
19.80 5.37 -1.67 0.08 
19.90 5.00 -1.67 0.08 
20.00 4.62 -1.67 0.08 
20.09 4.24 -1.67 0.08 
20.17 3.86 -1.67 0.08 
20.25 3.48 -1.67 0.08 
20.31 3.10 -1.67 0.08 
20.37 2.71 -1.67 0.08 
20.43 2.33 -1.67 0.08 
20.47 1.94 -1.68 0.08 
20.51 1.56 -1.68 0.08 
20.54 1.17 -1.68 0.07 
20.57 0.78 -1.68 0.07 
20.58 0.39 -1.68 0.07 
20.59 0.00 -1.68 0.07 
20.59 -0.39 -1.68 0.07 
20.59 -0.78 -1.68 0.07 
20.57 -1.17 -1.68 0.07 
20.55 -1.56 -1.68 0.07 
20.53 -1.95 -1.68 0.07 
20.49 -2.34 -1.68 0.07 
20.45 -2.72 -1.68 0.07 
20.40 -3.11 -1.68 0.07 
20.34 -3.50 -1.68 0.07 
20.28 -3.88 -1.68 0.07 
20.21 -4.27 -1.68 0.07 
20.13 -4.65 -1.68 0.07 
20.04 -5.03 -1.68 0.07 
19.95 -5.41 -1.68 0.07 
19.85 -5.79 -1.68 0.07 
19.74 -6.17 -1.68 0.07 
19.62 -6.54 -1.69 0.07 
19.50 -6.91 -1.69 0.07 
19.37 -7.28 -1.69 0.07 
19.24 -7.65 -1.69 0.07 
19.09 -8.01 -1.69 0.07 
18.94 -8.38 -1.69 0.07 
18.79 -8.74 -1.69 0.07 
18.62 -9.09 -1.69 0.07 
18.45 -9.45 -1.69 0.07 
18.27 -9.80 -1.69 0.07 
6.12 -3.43 -0.57 0.38 
5.82 -3.41 -0.55 0.40 
5.57 -3.40 -0.53 0.47 
5.36 -3.42 -0.52 0.60 
5.21 -3.46 -0.51 0.80 
5.15 -3.56 -0.51 0.66 
5.12 -3.69 -0.51 0.63 
5.10 -3.82 -0.52 0.63 
5.08 -3.96 -0.52 0.59 
5.10 -4.13 -0.53 0.27 
14.46 -12.18 -1.54 0.07 
14.23 -12.46 -1.54 0.07 
13.99 -12.73 -1.54 0.07 
13.75 -12.99 -1.54 0.07 
13.51 -13.25 -1.54 0.07 
13.25 -13.51 -1.54 0.07 
13.00 -13.76 -1.54 0.07 
12.74 -14.01 -1.54 0.07 
12.48 -14.25 -1.54 0.07 
12.21 -14.48 -1.54 0.07 
11.93 -14.72 -1.54 0.07 
11.65 -14.94 -1.54 0.07 
11.37 -15.16 -1.54 0.07 
11.08 -15.38 -1.54 0.07 
10.79 -15.59 -1.54 0.07 
10.50 -15.79 -1.54 0.07 
10.20 -15.99 -1.55 0.07 
9.90 -16.18 -1.55 0.07 
9.59 -16.37 -1.55 0.07 
9.28 -16.55 -1.55 0.07 
8.97 -16.73 -1.55 0.07 
4.27 -8.34 -0.76 0.96 
8.33 -17.06 -1.55 0.07 
8.01 -17.22 -1.55 0.07 
7.68 -17.37 -1.55 0.07 
7.35 -17.51 -1.55 0.07 
7.02 -17.65 -1.55 0.07 
6.69 -17.78 -1.55 0.07 
4.80 -13.54 -1.17 0.91 
3.87 -11.60 -1.00 0.71 
4.25 -13.60 -1.16 0.92 
5.32 -18.25 -1.55 0.07 
4.98 -18.35 -1.55 0.07 
4.63 -18.44 -1.55 0.07 
4.28 -18.53 -1.55 0.07 
3.93 -18.61 -1.55 0.07 
3.58 -18.68 -1.55 0.07 
3.22 -18.74 -1.55 0.07 
2.87 -18.80 -1.55 0.07 
2.51 -18.86 -1.55 0.07 
2.16 -18.90 -1.55 0.07 
1.80 -18.94 -1.55 0.07 
1.44 -18.97 -1.55 0.07 
1.08 -19.00 -1.55 0.07 
0.72 -19.02 -1.55 0.07 
0.36 -19.03 -1.55 0.07 
0.00 -19.03 -1.55 0.07 
-0.36 -19.03 -1.55 0.07 
-0.72 -19.02 -1.55 0.07 
-1.08 -19.00 -1.55 0.07 
-1.44 -18.98 -1.55 0.07 
-1.80 -18.95 -1.55 0.07 
-2.16 -18.91 -1.55 0.07 
-2.51 -18.87 -1.55 0.07 
-2.87 -18.82 -1.55 0.07 
-3.23 -18.76 -1.55 0.07 
-3.58 -18.69 -1.55 0.07 
-2.63 -12.45 -1.04 0.69 
-4.29 -18.54 -1.55 0.07 
-4.64 -18.46 -1.55 0.07 
-4.98 -18.37 -1.55 0.07 
-5.33 -18.27 -1.55 0.07 
-5.67 -18.16 -1.55 0.07 
-6.02 -18.05 -1.55 0.07 
-6.36 -17.93 -1.55 0.07 
-6.70 -17.81 -1.55 0.07 
-7.03 -17.68 -1.55 0.07 
-7.36 -17.54 -1.55 0.07 
-7.69 -17.40 -1.55 0.07 
-8.02 -17.25 -1.55 0.07 
-8.35 -17.09 -1.55 0.07 
-8.67 -16.93 -1.55 0.07 
-8.98 -16.76 -1.55 0.07 
-9.30 -16.59 -1.55 0.07 
-9.61 -16.41 -1.55 0.07 
-9.92 -16.22 -1.55 0.07 
-10.22 -16.03 -1.55 0.07 
-10.52 -15.83 -1.55 0.07 
-10.82 -15.63 -1.55 0.07 
-9.41 -13.05 -1.31 0.62 
-11.40 -15.20 -1.55 0.07 
-11.68 -14.98 -1.55 0.07 
-11.96 -14.75 -1.55 0.07 
-12.24 -14.52 -1.55 0.07 
-12.51 -14.29 -1.55 0.07 
-12.78 -14.05 -1.55 0.07 
-13.04 -13.80 -1.55 0.07 
-13.29 -13.55 -1.55 0.07 
-13.55 -13.29 -1.55 0.07 
-13.79 -13.03 -1.55 0.07 
-14.03 -12.77 -1.55 0.07 
-14.27 -12.50 -1.55 0.07 
-14.50 -12.22 -1.55 0.07 
-14.73 -11.94 -1.54 0.07 
-14.95 -11.66 -1.54 0.07 
-15.16 -11.37 -1.54 0.07 
-15.37 -11.08 -1.54 0.07 
-15.58 -10.79 -1.54 0.07 
-15.78 -10.49 -1.54 0.07 
-15.97 -10.18 -1.54 0.07 
-15.59 -9.53 -1.49 0.40 
-16.34 -9.57 -1.54 0.07 
-16.51 -9.26 -1.54 0.07 
-16.68 -8.94 -1.54 0.07 
-17.55 -8.98 -1.61 0.35 
-18.55 -9.06 -1.68 0.34 
-18.83 -8.76 -1.69 0.08 
-19.02 -8.41 -1.69 0.07 
-19.17 -8.05 -1.69 0.07 
-19.31 -7.68 -1.69 0.07 
-19.45 -7.31 -1.69 0.07 
-19.58 -6.94 -1.69 0.07 
-13.35 -4.45 -1.15 0.58 
-13.61 -4.25 -1.16 0.30 
-14.61 -4.26 -1.24 0.88 
-20.03 -5.43 -1.69 0.07 
-20.12 -5.05 -1.69 0.07 
-20.21 -4.67 -1.69 0.07 
-20.29 -4.29 -1.69 0.07 
-20.36 -3.90 -1.69 0.07 
-20.43 -3.51 -1.69 0.07 
-10.22 -1.56 -0.84 0.45 
-10.09 -1.34 -0.83 0.89 
-10.06 -1.15 -0.82 0.89 
-10.04 -0.95 -0.82 0.92 
-10.04 -0.76 -0.82 0.92 
-10.04 -0.57 -0.82 0.93 
-10.07 -0.38 -0.82 0.92 
-10.11 -0.19 -0.82 0.91 
-10.15 -0.00 -0.84 0.87 
-10.22 0.19 -0.85 0.87 
-10.41 0.39 -0.86 0.40 
-20.33 1.16 -1.68 0.08 
-20.30 1.54 -1.68 0.08 
-20.26 1.92 -1.68 0.08 
-20.21 2.31 -1.68 0.08 
-20.16 2.69 -1.68 0.08 
-20.10 3.07 -1.68 0.08 
-12.28 2.11 -1.03 0.30 
-11.64 2.23 -0.98 0.42 
-11.22 2.37 -0.95 0.59 
-11.08 2.56 -0.94 0.83 
-11.07 2.78 -0.94 0.82 
-11.09 3.01 -0.95 0.76 
-16.80 4.90 -1.45 0.33 
-16.01 5.00 -1.39 0.86 
-15.25 5.08 -1.33 0.34 
-14.84 5.26 -1.30 0.82 
-14.92 5.61 -1.32 0.21 
-15.00 5.97 -1.33 0.21 
-15.09 6.33 -1.35 0.20 
-15.18 6.71 -1.37 0.20 
-18.36 8.54 -1.67 0.08 
-18.20 8.88 -1.67 0.08 
-18.02 9.22 -1.67 0.08 
-17.83 9.56 -1.67 0.08 
-17.59 9.86 -1.67 0.09 
-17.15 10.05 -1.64 0.54 
-16.53 10.11 -1.60 0.55 
-15.94 10.17 -1.56 0.57 
-15.38 10.23 -1.53 0.58 
-15.11 10.46 -1.52 0.08 
-7.82 5.63 -0.80 0.61 
-7.53 5.65 -0.78 0.65 
-7.28 5.68 -0.76 0.65 
-7.05 5.71 -0.75 0.71 
-6.81 5.74 -0.74 0.70 
-6.59 5.77 -0.72 0.72 
-6.38 5.80 -0.71 0.72 
-6.17 5.82 -0.70 0.74 
-5.96 5.85 -0.69 0.75 
-5.76 5.87 -0.68 0.76 
-5.57 5.90 -0.67 0.76 
-5.38 5.92 -0.66 0.77 
-5.20 5.94 -0.65 0.79 
-5.02 5.96 -0.64 0.80 
-4.84 5.97 -0.64 0.76 
-4.66 5.98 -0.63 0.77 
-4.49 5.99 -0.62 0.61 
-4.32 6.00 -0.61 0.62 
-4.18 6.03 -0.61 0.67 
-4.04 6.08 -0.60 0.67 
-3.91 6.13 -0.60 0.73 
-3.80 6.21 -0.60 0.78 
-3.70 6.32 -0.61 0.68 
-3.64 6.49 -0.61 0.55 
-3.61 6.73 -0.63 0.48 
-3.60 7.03 -0.65 0.32 
-8.02 16.43 -1.51 0.08 
-7.71 16.57 -1.51 0.08 
-7.39 16.71 -1.51 0.08 
-4.89 11.66 -1.05 0.91 
-6.75 16.98 -1.51 0.08 
-6.43 17.10 -1.51 0.08 
-6.10 17.22 -1.51 0.08 
-5.78 17.33 -1.51 0.07 
-5.45 17.44 -1.51 0.07 
-5.12 17.54 -1.51 0.07 
-3.58 13.19 -1.13 0.69 
-3.33 13.26 -1.13 0.90 
-3.13 13.54 -1.15 0.18 
-3.78 17.89 -1.51 0.07 
-3.44 17.96 -1.51 0.07 
-3.10 18.02 -1.51 0.07 
-2.76 18.08 -1.51 0.07 
-2.42 18.13 -1.51 0.07 
-2.07 18.17 -1.51 0.07 
-1.73 18.21 -1.51 0.07 
-1.38 18.24 -1.51 0.07 
-1.04 18.26 -1.51 0.07 
-0.66 17.45 -1.44 0.91 
-0.35 18.29 -1.51 0.07 
0.00 18.29 -1.51 0.07 
0.35 18.28 -1.51 0.07 
0.69 18.27 -1.51 0.07 
1.04 18.25 -1.51 0.07 
1.38 18.23 -1.51 0.07 
1.73 18.20 -1.51 0.07 
2.07 18.16 -1.51 0.07 
2.41 18.11 -1.51 0.07 
2.76 18.06 -1.51 0.07 
3.10 18.00 -1.51 0.07 
3.44 17.94 -1.51 0.07 
3.77 17.87 -1.51 0.07 
4.11 17.79 -1.51 0.07 
4.45 17.70 -1.51 0.07 
4.78 17.61 -1.51 0.07 
5.11 17.51 -1.51 0.07 
5.44 17.40 -1.51 0.62 
5.77 17.30 -1.51 0.08 
6.09 17.19 -1.51 0.08 
5.68 15.12 -1.34 0.85 
6.74 16.95 -1.51 0.08 
7.06 16.82 -1.51 0.08 
7.38 16.69 -1.51 0.08 
7.69 16.54 -1.51 0.08 
8.01 16.40 -1.51 0.08 
8.32 16.24 -1.51 0.08 
8.62 16.08 -1.51 0.08 
8.93 15.92 -1.51 0.08 
9.23 15.75 -1.51 0.08 
9.52 15.57 -1.51 0.08 
9.82 15.39 -1.51 0.08 
10.11 15.21 -1.51 0.08 
10.40 15.01 -1.51 0.08 
10.68 14.82 -1.51 0.08 
10.96 14.61 -1.51 0.08 
11.23 14.40 -1.51 0.08 
11.51 14.19 -1.51 0.08 
11.77 13.97 -1.51 0.08 
12.04 13.75 -1.51 0.08 
12.30 13.52 -1.51 0.08 
12.55 13.29 -1.51 0.08 
12.81 13.05 -1.51 0.08 
13.05 12.81 -1.51 0.08 
13.29 12.56 -1.51 0.08 
13.53 12.31 -1.51 0.08 
12.19 10.68 -1.34 0.72 
13.99 11.79 -1.51 0.08 
14.22 11.53 -1.51 0.08 
14.43 11.26 -1.51 0.08 
14.65 10.98 -1.51 0.08 
14.86 10.71 -1.51 0.08 
15.06 10.43 -1.51 0.08 
15.26 10.14 -1.51 0.08 
15.45 9.85 -1.51 0.08 
15.63 9.56 -1.51 0.08 
15.85 9.28 -1.52 0.53 
16.30 9.14 -1.54 0.66 
16.78 8.99 -1.57 0.65 
17.26 8.83 -1.60 0.65 
17.76 8.67 -1.63 0.64 
18.22 8.47 -1.66 0.09 
18.43 8.15 -1.67 0.09 
18.61 7.81 -1.67 0.08 
18.76 7.46 -1.67 0.08 
18.90 7.11 -1.67 0.08 
19.04 6.75 -1.67 0.08 
19.17 6.39 -1.67 0.08 
19.29 6.03 -1.67 0.08 
19.41 5.66 -1.67 0.08 
19.51 5.30 -1.67 0.08 
19.62 4.93 -1.67 0.08 
19.71 4.55 -1.67 0.08 
19.80 4.18 -1.67 0.08 
19.88 3.81 -1.67 0.08 
19.95 3.43 -1.67 0.08 
20.02 3.05 -1.67 0.08 
20.08 2.68 -1.67 0.08 
20.13 2.30 -1.67 0.08 
20.17 1.91 -1.68 0.08 
20.21 1.53 -1.68 0.08 
20.24 1.15 -1.68 0.08 
20.27 0.77 -1.68 0.08 
20.28 0.38 -1.68 0.08 
20.29 -0.00 -1.68 0.08 
20.29 -0.38 -1.68 0.08 
20.29 -0.77 -1.68 0.08 
20.28 -1.15 -1.68 0.08 
20.25 -1.54 -1.68 0.08 
20.23 -1.92 -1.68 0.08 
20.19 -2.30 -1.68 0.08 
20.15 -2.69 -1.68 0.08 
20.10 -3.07 -1.68 0.08 
20.05 -3.45 -1.68 0.08 
19.98 -3.83 -1.68 0.08 
19.91 -4.21 -1.68 0.08 
19.83 -4.58 -1.68 0.08 
19.75 -4.96 -1.68 0.08 
19.66 -5.33 -1.68 0.08 
19.56 -5.71 -1.68 0.08 
19.45 -6.08 -1.68 0.08 
19.34 -6.45 -1.69 0.08 
19.22 -6.81 -1.69 0.08 
19.09 -7.18 -1.69 0.08 
18.95 -7.54 -1.69 0.08 
18.81 -7.90 -1.69 0.08 
18.67 -8.25 -1.69 0.08 
18.51 -8.61 -1.69 0.08 
18.35 -8.96 -1.69 0.08 
18.18 -9.31 -1.69 0.08 
18.01 -9.65 -1.69 0.08 
6.12 -3.43 -0.58 0.38 
5.82 -3.41 -0.56 0.40 
5.56 -3.40 -0.54 0.47 
5.35 -3.41 -0.52 0.60 
5.20 -3.46 -0.52 0.80 
5.14 -3.56 -0.52 0.66 
5.11 -3.68 -0.52 0.64 
5.09 -3.82 -0.53 0.63 
5.07 -3.95 -0.53 0.59 
5.09 -4.12 -0.54 0.27 
14.24 -12.00 -1.54 0.08 
14.02 -12.27 -1.54 0.08 
13.79 -12.54 -1.54 0.08 
13.55 -12.80 -1.54 0.08 
13.31 -13.06 -1.54 0.08 
13.06 -13.31 -1.54 0.08 
12.81 -13.56 -1.54 0.08 
12.55 -13.80 -1.54 0.08 
12.29 -14.04 -1.54 0.08 
12.03 -14.27 -1.54 0.08 
11.76 -14.50 -1.54 0.08 
11.48 -14.72 -1.54 0.08 
11.20 -14.94 -1.54 0.08 
10.92 -15.15 -1.54 0.08 
10.63 -15.36 -1.54 0.08 
10.34 -15.56 -1.54 0.08 
10.05 -15.76 -1.54 0.08 
9.75 -15.95 -1.55 0.08 
9.45 -16.13 -1.55 0.08 
9.14 -16.31 -1.55 0.08 
8.83 -16.48 -1.55 0.08 
4.27 -8.34 -0.77 0.96 
8.21 -16.81 -1.55 0.08 
7.89 -16.96 -1.55 0.08 
7.57 -17.11 -1.55 0.08 
7.24 -17.26 -1.55 0.08 
6.92 -17.39 -1.55 0.08 
6.59 -17.52 -1.55 0.08 
4.21 -11.87 -1.04 0.13 
3.87 -11.60 -1.01 0.65 
4.25 -13.60 -1.18 0.92 
5.25 -17.98 -1.55 0.08 
4.90 -18.08 -1.55 0.08 
4.56 -18.17 -1.55 0.08 
4.22 -18.25 -1.55 0.08 
3.87 -18.33 -1.55 0.08 
3.53 -18.40 -1.55 0.08 
3.18 -18.47 -1.55 0.08 
2.83 -18.53 -1.55 0.08 
2.48 -18.58 -1.55 0.08 
2.12 -18.62 -1.55 0.08 
1.77 -18.66 -1.55 0.08 
1.42 -18.69 -1.55 0.08 
1.06 -18.72 -1.55 0.08 
0.71 -18.73 -1.55 0.08 
0.35 -18.75 -1.55 0.08 
0.00 -18.75 -1.55 0.08 
-0.35 -18.75 -1.55 0.08 
-0.71 -18.74 -1.55 0.08 
-1.06 -18.72 -1.55 0.08 
-1.42 -18.70 -1.55 0.08 
-1.77 -18.67 -1.55 0.08 
-2.12 -18.63 -1.55 0.08 
-2.48 -18.59 -1.55 0.08 
-2.83 -18.54 -1.55 0.08 
-3.18 -18.48 -1.55 0.08 
-3.53 -18.42 -1.55 0.08 
-2.63 -12.45 -1.05 0.64 
-4.22 -18.27 -1.55 0.08 
-4.57 -18.19 -1.55 0.08 
-4.91 -18.10 -1.55 0.08 
-5.25 -18.00 -1.55 0.08 
-5.59 -17.90 -1.55 0.08 
-5.93 -17.79 -1.55 0.08 
-6.26 -17.67 -1.55 0.08 
-6.60 -17.55 -1.55 0.08 
-6.93 -17.42 -1.55 0.08 
-7.25 -17.28 -1.55 0.08 
-7.58 -17.14 -1.55 0.08 
-7.90 -16.99 -1.55 0.08 
-8.22 -16.84 -1.55 0.08 
-8.54 -16.68 -1.55 0.08 
-8.85 -16.51 -1.55 0.08 
-9.16 -16.34 -1.55 0.08 
-9.47 -16.16 -1.55 0.08 
-9.77 -15.98 -1.55 0.08 
-10.07 -15.79 -1.55 0.08 
-10.37 -15.60 -1.55 0.08 
-10.66 -15.40 -1.55 0.08 
-9.41 -13.05 -1.33 0.70 
-11.23 -14.98 -1.55 0.08 
-11.51 -14.76 -1.55 0.08 
-11.79 -14.54 -1.55 0.08 
-12.06 -14.31 -1.55 0.08 
-12.33 -14.08 -1.55 0.08 
-12.59 -13.84 -1.55 0.08 
-12.85 -13.60 -1.55 0.08 
-13.10 -13.35 -1.55 0.08 
-13.35 -13.10 -1.55 0.08 
-13.59 -12.84 -1.55 0.08 
-13.83 -12.58 -1.55 0.08 
-14.06 -12.31 -1.55 0.08 
-14.29 -12.04 -1.54 0.08 
-14.51 -11.77 -1.54 0.08 
-14.73 -11.49 -1.54 0.08 
-14.94 -11.20 -1.54 0.08 
-15.15 -10.92 -1.54 0.08 
-15.35 -10.63 -1.54 0.08 
-15.54 -10.33 -1.54 0.08 
-15.73 -10.04 -1.54 0.08 
-15.58 -9.53 -1.51 0.40 
-16.10 -9.43 -1.54 0.08 
-16.27 -9.12 -1.54 0.08 
-16.62 -8.91 -1.56 0.37 
-17.54 -8.98 -1.63 0.35 
-18.35 -8.96 -1.69 0.08 
-18.58 -8.64 -1.69 0.08 
-18.74 -8.29 -1.69 0.08 
-18.89 -7.93 -1.69 0.08 
-19.03 -7.57 -1.69 0.08 
-19.16 -7.20 -1.69 0.08 
-19.29 -6.84 -1.69 0.08 
-13.33 -4.44 -1.16 0.58 
-13.60 -4.25 -1.18 0.30 
-14.60 -4.26 -1.26 0.89 
-19.73 -5.35 -1.69 0.08 
-19.83 -4.98 -1.69 0.08 
-19.91 -4.60 -1.69 0.08 
-19.99 -4.22 -1.69 0.08 
-20.06 -3.84 -1.69 0.08 
-20.13 -3.46 -1.69 0.08 
-10.20 -1.56 -0.85 0.46 
-10.08 -1.34 -0.84 0.89 
-10.05 -1.15 -0.84 0.89 
-10.04 -0.95 -0.83 0.92 
-10.03 -0.76 -0.83 0.92 
-10.03 -0.57 -0.83 0.93 
-10.07 -0.38 -0.83 0.92 
-10.10 -0.19 -0.84 0.92 
-10.15 -0.00 -0.85 0.87 
-10.22 0.19 -0.86 0.87 
-10.39 0.39 -0.87 0.41 
-20.03 1.14 -1.68 0.08 
-20.00 1.52 -1.68 0.08 
-19.97 1.90 -1.68 0.08 
-19.92 2.27 -1.68 0.08 
-19.87 2.65 -1.68 0.08 
-19.81 3.02 -1.68 0.08 
-12.27 2.11 -1.04 0.30 
-11.64 2.23 -0.99 0.42 
-11.22 2.37 -0.96 0.59 
-11.08 2.56 -0.95 0.83 
-11.07 2.78 -0.96 0.82 
-11.09 3.01 -0.96 0.76 
-16.80 4.90 -1.47 0.33 
-16.01 5.00 -1.41 0.86 
-15.25 5.08 -1.35 0.34 
-14.91 5.29 -1.33 0.21 
-14.99 5.64 -1.34 0.21 
-15.08 6.00 -1.36 0.21 
-15.17 6.37 -1.38 0.20 
-15.26 6.75 -1.40 0.20 
-18.10 8.42 -1.67 0.08 
-17.94 8.76 -1.67 0.08 
-17.76 9.09 -1.67 0.08 
-17.58 9.42 -1.67 0.08 
-17.37 9.74 -1.67 0.09 
-17.13 10.03 -1.66 0.09 
-16.52 10.10 -1.62 0.55 
-15.94 10.16 -1.59 0.57 
-15.38 10.22 -1.55 0.58 
-14.89 10.31 -1.52 0.08 
-7.81 5.63 -0.81 0.61 
-7.53 5.65 -0.79 0.65 
-7.28 5.68 -0.77 0.65 
-7.04 5.71 -0.76 0.71 
-6.81 5.74 -0.75 0.70 
-6.59 5.77 -0.73 0.72 
-6.37 5.80 -0.72 0.72 
-6.16 5.82 -0.71 0.74 
-5.96 5.85 -0.70 0.75 
-5.76 5.87 -0.69 0.76 
-5.57 5.89 -0.68 0.76 
-5.38 5.92 -0.67 0.78 
-5.20 5.94 -0.66 0.79 
-5.02 5.96 -0.65 0.80 
-4.84 5.97 -0.64 0.76 
-4.66 5.97 -0.64 0.77 
-4.48 5.98 -0.63 0.61 
-4.32 5.99 -0.62 0.62 
-4.17 6.03 -0.61 0.67 
-4.03 6.07 -0.61 0.67 
-3.90 6.12 -0.61 0.73 
-3.80 6.21 -0.61 0.78 
-3.70 6.31 -0.61 0.69 
-3.63 6.48 -0.62 0.55 
-3.60 6.72 -0.64 0.48 
-3.59 7.02 -0.66 0.32 
-3.67 7.52 -0.70 0.23 
-7.60 16.34 -1.51 0.08 
-7.29 16.48 -1.51 0.08 
-4.89 11.66 -1.06 0.91 
-6.66 16.74 -1.51 0.08 
-6.34 16.86 -1.51 0.08 
-6.02 16.97 -1.51 0.08 
-5.69 17.08 -1.51 0.08 
-5.37 17.18 -1.51 0.08 
-3.90 13.36 -1.17 0.68 
-3.58 13.19 -1.15 0.69 
-3.33 13.26 -1.15 0.90 
-3.13 13.54 -1.17 0.18 
-3.72 17.62 -1.51 0.07 
-3.39 17.69 -1.51 0.07 
-3.05 17.75 -1.51 0.07 
-2.72 17.80 -1.51 0.07 
-2.38 17.85 -1.51 0.07 
-2.04 17.89 -1.51 0.07 
-1.70 17.93 -1.51 0.07 
-1.36 17.96 -1.51 0.07 
-1.02 17.98 -1.51 0.07 
-0.66 17.46 -1.47 0.71 
-0.34 18.01 -1.51 0.07 
0.00 18.01 -1.51 0.07 
0.34 18.00 -1.51 0.07 
0.68 17.99 -1.51 0.07 
1.02 17.98 -1.51 0.07 
1.36 17.95 -1.51 0.07 
1.70 17.92 -1.51 0.07 
2.04 17.88 -1.51 0.07 
2.38 17.84 -1.51 0.07 
2.71 17.79 -1.51 0.07 
3.05 17.73 -1.51 0.07 
3.38 17.67 -1.51 0.07 
3.72 17.60 -1.51 0.07 
4.05 17.52 -1.51 0.07 
4.38 17.43 -1.51 0.07 
4.71 17.35 -1.51 0.08 
5.04 17.26 -1.51 0.08 
5.36 17.16 -1.51 0.08 
5.69 17.06 -1.51 0.08 
6.01 16.95 -1.51 0.08 
5.68 15.12 -1.35 0.84 
6.65 16.71 -1.51 0.08 
6.96 16.58 -1.51 0.08 
7.27 16.45 -1.51 0.08 
7.58 16.31 -1.51 0.08 
7.89 16.16 -1.51 0.08 
8.20 16.01 -1.51 0.08 
8.50 15.86 -1.51 0.08 
8.80 15.69 -1.51 0.08 
9.10 15.53 -1.51 0.08 
9.39 15.35 -1.51 0.08 
9.68 15.17 -1.51 0.08 
9.97 14.99 -1.51 0.08 
10.25 14.80 -1.51 0.08 
10.53 14.61 -1.51 0.08 
10.80 14.41 -1.51 0.08 
11.08 14.20 -1.51 0.08 
11.34 13.99 -1.51 0.08 
11.61 13.77 -1.51 0.08 
11.87 13.55 -1.51 0.08 
12.12 13.33 -1.51 0.08 
12.38 13.10 -1.51 0.08 
12.62 12.86 -1.51 0.08 
12.87 12.63 -1.51 0.08 
13.11 12.38 -1.51 0.08 
13.34 12.13 -1.51 0.08 
12.19 10.68 -1.36 0.72 
13.79 11.62 -1.51 0.08 
14.01 11.36 -1.51 0.08 
14.23 11.10 -1.51 0.08 
14.44 10.83 -1.51 0.08 
14.64 10.56 -1.51 0.08 
14.84 10.28 -1.51 0.08 
15.04 10.00 -1.51 0.08 
15.23 9.71 -1.51 0.08 
15.41 9.42 -1.52 0.08 
15.84 9.28 -1.54 0.68 
16.30 9.14 -1.57 0.66 
16.77 8.99 -1.60 0.65 
17.25 8.83 -1.63 0.65 
17.75 8.67 -1.66 0.64 
17.99 8.37 -1.66 0.09 
18.20 8.05 -1.67 0.09 
18.35 7.70 -1.67 0.08 
18.50 7.36 -1.67 0.08 
18.64 7.01 -1.67 0.08 
18.77 6.65 -1.67 0.08 
18.90 6.30 -1.67 0.08 
19.02 5.94 -1.67 0.08 
19.13 5.58 -1.67 0.08 
19.24 5.22 -1.67 0.08 
19.34 4.86 -1.67 0.08 
19.43 4.49 -1.67 0.08 
19.52 4.12 -1.67 0.08 
19.59 3.75 -1.67 0.08 
19.67 3.38 -1.67 0.08 
19.73 3.01 -1.67 0.08 
19.79 2.64 -1.67 0.08 
19.84 2.26 -1.68 0.08 
19.89 1.89 -1.68 0.08 
19.92 1.51 -1.68 0.08 
19.95 1.13 -1.68 0.08 
19.98 0.76 -1.68 0.08 
19.99 0.38 -1.68 0.08 
20.00 -0.00 -1.68 0.08 
20.00 -0.38 -1.68 0.08 
20.00 -0.76 -1.68 0.08 
19.98 -1.14 -1.68 0.08 
19.96 -1.51 -1.68 0.08 
19.94 -1.89 -1.68 0.08 
19.90 -2.27 -1.68 0.08 
19.86 -2.65 -1.68 0.08 
19.81 -3.02 -1.68 0.08 
19.76 -3.40 -1.68 0.08 
19.70 -3.77 -1.68 0.08 
19.63 -4.15 -1.68 0.08 
