VERSION 0.7
FIELDS x y z intensity
SIZE 4 4 4 8
TYPE F F F F
COUNT 1 1 1 1
WIDTH 2068
HEIGHT 1
VIEWPOINT 0.0 0.0 0.0 1.0 0.0 0.0 0.0
POINTS 2068
DATA ascii
-9.74 -2.64 -1.62 0.16 
-9.79 -2.46 -1.62 0.16 
-1.31 -0.30 -0.22 0.14 
-1.31 -0.28 -0.22 0.16 
-1.31 -0.25 -0.21 0.16 
-1.32 -0.23 -0.21 0.16 
-1.31 -0.20 -0.21 0.16 
-1.31 -0.18 -0.21 0.16 
-1.31 -0.15 -0.21 0.16 
-1.31 -0.12 -0.21 0.16 
-1.31 -0.10 -0.21 0.16 
-1.31 -0.07 -0.21 0.16 
-1.30 -0.05 -0.21 0.16 
-1.30 -0.02 -0.21 0.17 
-1.29 -0.00 -0.21 0.17 
-1.28 0.02 -0.21 0.17 
-1.28 0.05 -0.21 0.17 
-1.28 0.07 -0.21 0.17 
-1.28 0.10 -0.21 0.17 
-1.28 0.12 -0.21 0.16 
-1.28 0.15 -0.21 0.16 
-1.28 0.17 -0.21 0.16 
-1.28 0.20 -0.21 0.16 
-1.28 0.22 -0.21 0.16 
-1.28 0.25 -0.21 0.16 
-1.28 0.27 -0.21 0.16 
-1.28 0.30 -0.21 0.16 
-1.28 0.32 -0.21 0.16 
-1.28 0.35 -0.21 0.16 
-1.28 0.37 -0.21 0.16 
-1.27 0.40 -0.21 0.14 
-1.26 0.42 -0.21 0.14 
-9.49 3.36 -1.63 0.16 
-9.42 3.54 -1.63 0.16 
-9.36 3.72 -1.63 0.16 
-9.29 3.90 -1.63 0.16 
-9.22 4.08 -1.63 0.16 
-9.14 4.25 -1.63 0.16 
-9.06 4.43 -1.63 0.16 
-8.98 4.60 -1.63 0.16 
-8.90 4.77 -1.63 0.16 
-8.81 4.94 -1.63 0.16 
-8.72 5.11 -1.63 0.16 
-8.63 5.27 -1.63 0.16 
-8.53 5.44 -1.63 0.16 
-8.43 5.60 -1.63 0.16 
-8.32 5.76 -1.64 0.16 
-8.12 5.86 -1.62 0.58 
-8.11 6.08 -1.64 0.16 
-8.00 6.24 -1.64 0.16 
-7.88 6.39 -1.64 0.16 
-7.76 6.54 -1.64 0.16 
-7.64 6.69 -1.64 0.16 
-7.52 6.84 -1.64 0.16 
-7.39 6.98 -1.64 0.16 
-7.26 7.12 -1.64 0.16 
-7.13 7.26 -1.64 0.16 
-6.99 7.40 -1.65 0.16 
-6.86 7.54 -1.65 0.16 
-6.72 7.67 -1.65 0.16 
-6.57 7.80 -1.65 0.16 
-6.43 7.93 -1.65 0.16 
-6.28 8.05 -1.65 0.16 
-6.13 8.18 -1.65 0.16 
-5.98 8.30 -1.65 0.16 
-5.83 8.41 -1.65 0.16 
-5.67 8.53 -1.65 0.16 
-5.51 8.64 -1.66 0.16 
-5.35 8.75 -1.66 0.16 
-5.19 8.85 -1.66 0.15 
-5.02 8.96 -1.66 0.15 
-4.85 9.06 -1.66 0.15 
-4.68 9.15 -1.66 0.15 
-4.51 9.24 -1.66 0.15 
-4.34 9.33 -1.66 0.15 
-4.17 9.42 -1.66 0.15 
-3.99 9.51 -1.67 0.15 
-3.81 9.59 -1.67 0.15 
-3.63 9.66 -1.67 0.15 
-3.45 9.74 -1.67 0.15 
-3.27 9.81 -1.67 0.15 
-3.08 9.87 -1.67 0.15 
-0.90 3.07 -0.52 0.33 
-0.81 2.99 -0.50 0.41 
-0.75 2.97 -0.49 0.56 
-0.68 2.96 -0.49 0.99 
-0.63 2.96 -0.49 0.94 
-0.57 2.97 -0.49 0.94 
-0.51 2.97 -0.49 0.94 
-0.45 2.97 -0.49 0.95 
-0.40 2.97 -0.48 0.95 
-0.34 2.97 -0.48 0.96 
-0.28 2.97 -0.48 0.96 
-0.23 2.98 -0.48 0.96 
-0.17 2.98 -0.48 0.97 
-0.11 2.99 -0.48 0.97 
-0.06 2.99 -0.48 0.97 
-0.00 3.00 -0.48 0.96 
0.06 3.01 -0.49 0.90 
0.11 3.02 -0.49 0.89 
0.17 3.04 -0.49 0.71 
0.23 3.06 -0.50 0.70 
0.29 3.11 -0.50 0.53 
1.19 10.44 -1.70 0.15 
1.39 10.42 -1.70 0.15 
1.59 10.40 -1.70 0.15 
1.78 10.37 -1.70 0.15 
1.98 10.35 -1.70 0.15 
2.18 10.31 -1.70 0.15 
2.37 10.28 -1.70 0.15 
2.57 10.24 -1.71 0.15 
2.77 10.19 -1.71 0.15 
2.96 10.14 -1.71 0.15 
2.22 7.12 -1.20 0.25 
2.23 6.70 -1.14 0.36 
2.29 6.47 -1.11 0.60 
2.36 6.28 -1.08 0.53 
2.43 6.10 -1.06 0.75 
2.51 5.99 -1.05 0.97 
2.64 5.96 -1.05 0.42 
2.76 5.94 -1.06 0.86 
2.90 5.94 -1.07 0.86 
3.04 5.94 -1.08 0.85 
3.19 5.95 -1.09 0.84 
3.35 5.98 -1.11 0.83 
3.50 5.98 -1.12 0.85 
3.66 5.98 -1.13 0.81 
3.82 5.98 -1.15 0.80 
3.98 5.99 -1.16 0.79 
4.15 6.00 -1.18 0.77 
4.33 6.00 -1.20 0.76 
4.51 6.01 -1.21 0.74 
4.69 6.02 -1.23 0.74 
4.89 6.03 -1.25 0.72 
5.08 6.03 -1.27 0.72 
5.29 6.04 -1.30 0.69 
5.50 6.05 -1.32 0.68 
5.72 6.06 -1.35 0.63 
5.88 5.99 -1.36 0.67 
6.11 6.00 -1.38 0.66 
6.35 6.00 -1.41 0.64 
6.61 6.01 -1.44 0.63 
8.08 7.07 -1.73 0.15 
8.21 6.92 -1.73 0.15 
8.34 6.76 -1.74 0.15 
8.47 6.61 -1.74 0.15 
8.60 6.45 -1.74 0.15 
8.72 6.29 -1.74 0.15 
8.84 6.12 -1.74 0.15 
8.96 5.96 -1.74 0.15 
9.07 5.79 -1.74 0.15 
9.18 5.62 -1.74 0.15 
9.29 5.44 -1.74 0.15 
9.39 5.27 -1.74 0.15 
9.49 5.09 -1.74 0.15 
9.59 4.91 -1.74 0.15 
9.68 4.73 -1.74 0.15 
9.77 4.54 -1.74 0.15 
9.86 4.36 -1.74 0.15 
9.94 4.17 -1.74 0.15 
10.02 3.98 -1.74 0.15 
10.09 3.79 -1.74 0.15 
10.17 3.60 -1.74 0.15 
10.23 3.41 -1.74 0.15 
10.30 3.22 -1.74 0.15 
10.36 3.02 -1.74 0.15 
10.41 2.83 -1.74 0.15 
10.46 2.63 -1.74 0.15 
10.51 2.43 -1.74 0.15 
10.56 2.23 -1.74 0.15 
10.60 2.03 -1.74 0.15 
10.63 1.83 -1.74 0.15 
10.67 1.63 -1.74 0.15 
10.70 1.43 -1.74 0.15 
10.72 1.22 -1.74 0.15 
10.74 1.02 -1.74 0.15 
10.76 0.82 -1.74 0.15 
10.77 0.61 -1.74 0.15 
10.78 0.41 -1.74 0.15 
10.78 0.20 -1.74 0.15 
10.78 -0.00 -1.74 0.15 
10.78 -0.20 -1.74 0.15 
10.77 -0.41 -1.74 0.15 
10.76 -0.61 -1.74 0.15 
10.75 -0.81 -1.74 0.15 
10.73 -1.02 -1.74 0.15 
10.70 -1.22 -1.74 0.15 
10.67 -1.42 -1.74 0.15 
10.64 -1.62 -1.74 0.15 
10.61 -1.82 -1.74 0.15 
10.57 -2.02 -1.74 0.15 
10.53 -2.22 -1.74 0.15 
10.48 -2.42 -1.74 0.15 
10.43 -2.62 -1.74 0.15 
10.37 -2.81 -1.74 0.15 
10.31 -3.01 -1.74 0.15 
10.25 -3.20 -1.74 0.15 
10.19 -3.40 -1.73 0.15 
10.12 -3.59 -1.73 0.15 
10.04 -3.78 -1.73 0.15 
9.97 -3.96 -1.73 0.15 
9.89 -4.15 -1.73 0.15 
9.80 -4.33 -1.73 0.15 
9.71 -4.52 -1.73 0.15 
6.23 -3.04 -1.12 0.32 
5.94 -3.04 -1.08 0.44 
5.68 -3.04 -1.04 0.48 
5.44 -3.05 -1.01 0.49 
5.22 -3.06 -0.98 0.54 
5.03 -3.07 -0.95 0.62 
4.86 -3.10 -0.93 0.63 
4.70 -3.12 -0.91 0.67 
4.58 -3.17 -0.90 0.89 
4.52 -3.25 -0.90 0.89 
4.46 -3.35 -0.90 0.87 
4.43 -3.46 -0.91 0.78 
4.41 -3.58 -0.92 0.74 
4.40 -3.71 -0.93 0.67 
4.41 -3.86 -0.95 0.49 
7.86 -7.15 -1.72 0.15 
7.72 -7.29 -1.72 0.15 
7.57 -7.43 -1.71 0.16 
7.41 -7.55 -1.71 0.16 
7.25 -7.68 -1.71 0.16 
7.04 -7.74 -1.69 0.66 
6.77 -7.73 -1.66 0.70 
6.51 -7.73 -1.63 0.71 
6.26 -7.72 -1.61 0.73 
6.02 -7.72 -1.58 0.74 
5.78 -7.71 -1.56 0.63 
5.61 -7.78 -1.55 0.15 
5.46 -7.88 -1.55 0.15 
5.31 -7.98 -1.55 0.15 
5.15 -8.07 -1.55 0.15 
4.99 -8.17 -1.55 0.15 
4.83 -8.25 -1.55 0.15 
4.67 -8.34 -1.54 0.15 
4.51 -8.42 -1.54 0.15 
4.35 -8.50 -1.54 0.15 
4.19 -8.57 -1.54 0.15 
4.02 -8.64 -1.54 0.15 
3.85 -8.71 -1.54 0.15 
3.68 -8.78 -1.54 0.15 
3.52 -8.84 -1.54 0.15 
3.34 -8.90 -1.54 0.15 
3.17 -8.95 -1.53 0.15 
3.00 -9.01 -1.53 0.15 
2.83 -9.05 -1.53 0.15 
2.65 -9.10 -1.53 0.15 
2.48 -9.14 -1.53 0.15 
2.31 -9.18 -1.53 0.15 
2.13 -9.22 -1.53 0.15 
1.95 -9.25 -1.53 0.15 
1.78 -9.28 -1.53 0.15 
1.60 -9.30 -1.53 0.15 
1.42 -9.32 -1.52 0.15 
1.25 -9.34 -1.52 0.15 
1.07 -9.36 -1.52 0.15 
0.89 -9.37 -1.52 0.15 
0.71 -9.38 -1.52 0.15 
0.53 -9.38 -1.52 0.15 
0.36 -9.39 -1.52 0.15 
0.18 -9.38 -1.52 0.15 
-0.00 -9.38 -1.52 0.15 
-0.18 -9.37 -1.51 0.15 
-0.35 -9.36 -1.51 0.15 
-0.53 -9.35 -1.51 0.15 
-0.71 -9.33 -1.51 0.16 
-0.88 -9.31 -1.51 0.16 
-1.06 -9.28 -1.51 0.16 
-1.23 -9.25 -1.51 0.16 
-1.41 -9.22 -1.51 0.16 
-1.58 -9.19 -1.51 0.16 
-1.75 -9.15 -1.51 0.16 
-1.92 -9.11 -1.50 0.16 
-2.10 -9.07 -1.50 0.16 
-2.27 -9.02 -1.50 0.16 
-2.43 -8.97 -1.50 0.16 
-2.60 -8.92 -1.50 0.16 
-2.77 -8.86 -1.50 0.16 
-2.93 -8.80 -1.50 0.16 
-3.10 -8.74 -1.50 0.16 
-3.26 -8.67 -1.50 0.16 
-3.42 -8.60 -1.50 0.16 
-3.58 -8.53 -1.50 0.16 
-3.74 -8.46 -1.49 0.16 
-3.90 -8.38 -1.49 0.16 
-4.05 -8.30 -1.49 0.16 
-4.21 -8.22 -1.49 0.16 
-4.36 -8.13 -1.49 0.16 
-4.51 -8.05 -1.49 0.16 
-4.66 -7.95 -1.49 0.16 
-4.82 -7.89 -1.49 0.68 
-5.03 -7.89 -1.51 0.81 
-5.25 -7.89 -1.53 0.79 
-5.46 -7.89 -1.55 0.78 
-5.69 -7.89 -1.57 0.77 
-5.92 -7.89 -1.59 0.76 
-6.16 -7.89 -1.62 0.75 
-6.34 -7.82 -1.63 0.17 
-6.49 -7.70 -1.63 0.17 
-6.64 -7.58 -1.63 0.17 
-6.79 -7.46 -1.63 0.17 
-6.93 -7.33 -1.63 0.16 
-7.06 -7.19 -1.63 0.16 
-7.19 -7.06 -1.63 0.16 
-7.32 -6.92 -1.63 0.16 
-7.45 -6.78 -1.63 0.16 
-7.57 -6.63 -1.63 0.16 
-7.69 -6.48 -1.63 0.16 
-7.81 -6.34 -1.63 0.16 
-7.93 -6.18 -1.62 0.16 
-8.04 -6.03 -1.62 0.16 
-8.15 -5.88 -1.62 0.16 
-8.26 -5.72 -1.62 0.16 
-8.36 -5.56 -1.62 0.16 
-8.47 -5.40 -1.62 0.16 
-8.56 -5.24 -1.62 0.16 
-8.66 -5.07 -1.62 0.16 
-8.75 -4.91 -1.62 0.16 
-8.84 -4.74 -1.62 0.16 
-8.93 -4.57 -1.62 0.16 
-9.01 -4.40 -1.62 0.16 
-9.09 -4.23 -1.62 0.16 
-9.17 -4.05 -1.62 0.16 
-9.24 -3.88 -1.62 0.16 
-9.31 -3.70 -1.62 0.16 
-9.38 -3.53 -1.62 0.16 
-9.44 -3.35 -1.62 0.16 
-9.50 -3.17 -1.62 0.16 
-9.56 -2.99 -1.62 0.16 
-9.62 -2.81 -1.62 0.16 
-9.67 -2.62 -1.62 0.16 
-9.71 -2.44 -1.62 0.16 
-1.30 -0.30 -0.22 0.14 
-1.30 -0.28 -0.22 0.16 
-1.31 -0.25 -0.21 0.16 
-1.31 -0.22 -0.21 0.16 
-1.31 -0.20 -0.21 0.16 
-1.30 -0.17 -0.21 0.16 
-1.30 -0.15 -0.21 0.16 
-1.30 -0.12 -0.21 0.16 
-1.30 -0.10 -0.21 0.17 
-1.30 -0.07 -0.21 0.17 
-1.29 -0.05 -0.21 0.17 
-1.29 -0.02 -0.21 0.17 
-1.28 -0.00 -0.21 0.17 
-1.27 0.02 -0.21 0.17 
-1.27 0.05 -0.21 0.17 
-1.27 0.07 -0.21 0.17 
-1.27 0.10 -0.21 0.17 
-1.27 0.12 -0.21 0.17 
-1.27 0.15 -0.21 0.17 
-1.27 0.17 -0.21 0.16 
-1.27 0.19 -0.21 0.16 
-1.28 0.22 -0.21 0.16 
-1.27 0.24 -0.21 0.16 
-1.27 0.27 -0.21 0.16 
-1.27 0.29 -0.21 0.16 
-1.27 0.32 -0.21 0.16 
-1.27 0.34 -0.21 0.16 
-1.27 0.37 -0.21 0.14 
-1.26 0.39 -0.21 0.14 
-1.25 0.42 -0.21 0.14 
-1.24 0.44 -0.21 0.14 
-9.36 3.52 -1.63 0.16 
-9.29 3.69 -1.63 0.16 
-9.22 3.87 -1.63 0.16 
-9.15 4.05 -1.63 0.16 
-9.08 4.22 -1.63 0.16 
-9.00 4.39 -1.63 0.16 
-8.92 4.57 -1.63 0.16 
-8.83 4.73 -1.63 0.16 
-8.75 4.90 -1.63 0.16 
-8.66 5.07 -1.63 0.16 
-8.56 5.24 -1.63 0.16 
-8.47 5.40 -1.63 0.16 
-8.37 5.56 -1.64 0.16 
-8.26 5.72 -1.64 0.16 
-8.12 5.86 -1.63 0.57 
-8.05 6.04 -1.64 0.16 
-7.94 6.19 -1.64 0.16 
-7.82 6.34 -1.64 0.16 
-7.70 6.49 -1.64 0.16 
-7.58 6.64 -1.64 0.16 
-7.46 6.79 -1.64 0.16 
-7.34 6.93 -1.64 0.16 
-7.21 7.07 -1.64 0.16 
-7.08 7.21 -1.64 0.16 
-6.94 7.35 -1.65 0.16 
-6.81 7.48 -1.65 0.16 
-6.67 7.61 -1.65 0.16 
-6.53 7.74 -1.65 0.16 
-6.38 7.87 -1.65 0.16 
-6.24 8.00 -1.65 0.16 
-6.09 8.12 -1.65 0.16 
-5.94 8.24 -1.65 0.16 
-5.78 8.35 -1.65 0.16 
-5.63 8.46 -1.65 0.16 
-5.47 8.58 -1.66 0.16 
-5.31 8.68 -1.66 0.16 
-5.15 8.79 -1.66 0.16 
-4.98 8.89 -1.66 0.16 
-4.82 8.99 -1.66 0.16 
-4.65 9.08 -1.66 0.16 
-4.48 9.18 -1.66 0.16 
-4.31 9.27 -1.66 0.16 
-4.14 9.35 -1.66 0.16 
-3.96 9.43 -1.67 0.16 
-3.78 9.51 -1.67 0.16 
-3.61 9.59 -1.67 0.16 
-3.43 9.66 -1.67 0.16 
-3.24 9.73 -1.67 0.15 
-3.06 9.80 -1.67 0.15 
-0.89 3.07 -0.52 0.33 
-0.81 2.99 -0.50 0.84 
-0.74 2.96 -0.50 0.56 
-0.68 2.96 -0.49 0.99 
-0.63 2.96 -0.49 0.94 
-0.57 2.96 -0.49 0.94 
-0.51 2.97 -0.49 0.94 
-0.45 2.97 -0.49 0.95 
-0.40 2.97 -0.49 0.95 
-0.34 2.97 -0.49 0.96 
-0.28 2.97 -0.49 0.96 
-0.23 2.98 -0.49 0.96 
-0.17 2.98 -0.49 0.97 
-0.11 2.99 -0.49 0.97 
-0.06 2.99 -0.49 0.97 
-0.00 3.00 -0.49 0.96 
0.06 3.00 -0.49 0.90 
0.11 3.02 -0.49 0.89 
0.17 3.04 -0.50 0.89 
0.23 3.06 -0.50 0.70 
0.29 3.10 -0.51 0.53 
0.41 3.58 -0.59 0.02 
1.38 10.34 -1.70 0.15 
1.57 10.32 -1.70 0.15 
1.77 10.29 -1.70 0.15 
1.97 10.27 -1.70 0.15 
2.16 10.23 -1.70 0.15 
2.36 10.20 -1.70 0.15 
2.55 10.16 -1.71 0.15 
2.74 10.11 -1.71 0.15 
2.94 10.07 -1.71 0.15 
2.22 7.12 -1.21 0.25 
2.23 6.70 -1.15 0.36 
2.29 6.46 -1.12 0.60 
2.36 6.28 -1.09 0.53 
2.43 6.10 -1.07 0.75 
2.51 5.99 -1.06 0.97 
2.63 5.95 -1.06 0.42 
2.76 5.94 -1.07 0.86 
2.90 5.94 -1.08 0.86 
3.04 5.94 -1.09 0.85 
3.19 5.95 -1.10 0.84 
3.35 5.98 -1.12 0.83 
3.50 5.98 -1.13 0.85 
3.66 5.98 -1.14 0.81 
3.82 5.98 -1.16 0.80 
3.98 5.99 -1.17 0.79 
4.15 5.99 -1.19 0.77 
4.33 6.00 -1.20 0.76 
4.51 6.01 -1.22 0.74 
4.69 6.02 -1.24 0.74 
4.89 6.03 -1.26 0.72 
5.08 6.03 -1.28 0.72 
5.29 6.04 -1.31 0.69 
5.50 6.05 -1.33 0.68 
5.72 6.06 -1.36 0.63 
5.88 5.99 -1.37 0.67 
6.11 6.00 -1.39 0.66 
6.35 6.00 -1.42 0.64 
6.61 6.01 -1.45 0.63 
8.01 7.02 -1.73 0.15 
8.15 6.87 -1.73 0.15 
8.28 6.71 -1.74 0.15 
8.41 6.56 -1.74 0.15 
8.53 6.40 -1.74 0.15 
8.65 6.24 -1.74 0.15 
8.77 6.07 -1.74 0.15 
8.89 5.91 -1.74 0.15 
9.00 5.74 -1.74 0.15 
9.11 5.57 -1.74 0.15 
9.22 5.40 -1.74 0.15 
9.32 5.23 -1.74 0.15 
9.42 5.05 -1.74 0.15 
9.52 4.87 -1.74 0.15 
9.61 4.69 -1.74 0.15 
9.70 4.51 -1.74 0.15 
9.78 4.33 -1.74 0.15 
9.86 4.14 -1.74 0.15 
9.94 3.95 -1.74 0.15 
10.02 3.77 -1.74 0.15 
10.09 3.58 -1.74 0.15 
10.15 3.38 -1.74 0.15 
10.22 3.19 -1.74 0.15 
10.28 3.00 -1.74 0.15 
10.33 2.80 -1.74 0.15 
10.38 2.61 -1.74 0.15 
10.43 2.41 -1.74 0.15 
10.47 2.21 -1.74 0.15 
10.51 2.01 -1.74 0.15 
10.55 1.81 -1.74 0.15 
10.58 1.61 -1.74 0.15 
10.61 1.41 -1.74 0.15 
10.64 1.21 -1.74 0.15 
10.66 1.01 -1.74 0.15 
10.67 0.81 -1.74 0.15 
10.69 0.61 -1.74 0.15 
10.69 0.40 -1.74 0.15 
10.70 0.20 -1.74 0.15 
10.70 -0.00 -1.74 0.15 
10.70 -0.20 -1.74 0.15 
10.69 -0.40 -1.74 0.15 
10.68 -0.61 -1.74 0.15 
10.66 -0.81 -1.74 0.15 
10.64 -1.01 -1.74 0.15 
10.62 -1.21 -1.74 0.15 
10.59 -1.41 -1.74 0.15 
10.56 -1.61 -1.74 0.15 
10.53 -1.81 -1.74 0.15 
10.49 -2.01 -1.74 0.15 
10.44 -2.21 -1.74 0.15 
10.40 -2.40 -1.74 0.15 
10.35 -2.60 -1.74 0.15 
10.29 -2.79 -1.74 0.15 
10.23 -2.99 -1.74 0.15 
10.17 -3.18 -1.74 0.15 
10.11 -3.37 -1.73 0.15 
10.04 -3.56 -1.73 0.15 
9.97 -3.75 -1.73 0.15 
9.89 -3.93 -1.73 0.15 
9.81 -4.12 -1.73 0.15 
9.73 -4.30 -1.73 0.15 
9.64 -4.48 -1.73 0.15 
6.22 -3.04 -1.13 0.32 
5.93 -3.04 -1.09 0.44 
5.68 -3.04 -1.05 0.48 
5.44 -3.05 -1.01 0.49 
5.22 -3.06 -0.99 0.54 
5.02 -3.07 -0.96 0.62 
4.85 -3.10 -0.94 0.63 
4.70 -3.12 -0.92 0.67 
4.58 -3.17 -0.91 0.89 
4.51 -3.25 -0.91 0.89 
4.46 -3.34 -0.91 0.87 
4.43 -3.45 -0.91 0.78 
4.41 -3.58 -0.92 0.74 
4.40 -3.71 -0.94 0.61 
4.40 -3.86 -0.95 0.49 
7.80 -7.10 -1.72 0.15 
7.66 -7.24 -1.72 0.15 
7.51 -7.37 -1.71 0.16 
7.36 -7.50 -1.71 0.16 
7.20 -7.62 -1.71 0.16 
7.04 -7.74 -1.70 0.66 
6.77 -7.73 -1.67 0.70 
6.51 -7.73 -1.64 0.71 
6.26 -7.72 -1.62 0.73 
6.02 -7.71 -1.59 0.74 
5.78 -7.71 -1.57 0.75 
5.57 -7.73 -1.55 0.15 
5.42 -7.82 -1.55 0.15 
5.27 -7.92 -1.55 0.15 
5.11 -8.01 -1.55 0.15 
4.95 -8.10 -1.55 0.15 
4.80 -8.19 -1.55 0.15 
4.64 -8.27 -1.54 0.15 
4.48 -8.35 -1.54 0.15 
4.32 -8.43 -1.54 0.15 
4.15 -8.51 -1.54 0.15 
3.99 -8.58 -1.54 0.15 
3.82 -8.65 -1.54 0.15 
3.66 -8.71 -1.54 0.15 
3.49 -8.77 -1.54 0.15 
3.32 -8.83 -1.54 0.15 
3.15 -8.89 -1.53 0.15 
2.98 -8.94 -1.53 0.15 
2.81 -8.99 -1.53 0.15 
2.63 -9.03 -1.53 0.15 
2.46 -9.07 -1.53 0.15 
2.29 -9.11 -1.53 0.15 
2.11 -9.15 -1.53 0.15 
1.94 -9.18 -1.53 0.15 
1.76 -9.21 -1.53 0.15 
1.59 -9.23 -1.53 0.15 
1.41 -9.25 -1.52 0.15 
1.24 -9.27 -1.52 0.16 
1.06 -9.29 -1.52 0.16 
0.88 -9.30 -1.52 0.16 
0.71 -9.31 -1.52 0.16 
0.53 -9.31 -1.52 0.16 
0.35 -9.32 -1.52 0.16 
0.18 -9.31 -1.52 0.16 
-0.00 -9.31 -1.52 0.16 
-0.18 -9.30 -1.51 0.16 
-0.35 -9.29 -1.51 0.16 
-0.53 -9.28 -1.51 0.16 
-0.70 -9.26 -1.51 0.16 
-0.88 -9.24 -1.51 0.16 
-1.05 -9.21 -1.51 0.16 
-1.22 -9.19 -1.51 0.16 
-1.40 -9.15 -1.51 0.16 
-1.57 -9.12 -1.51 0.16 
-1.74 -9.08 -1.51 0.16 
-1.91 -9.04 -1.50 0.16 
-2.08 -9.00 -1.50 0.16 
-2.25 -8.95 -1.50 0.16 
-2.42 -8.90 -1.50 0.16 
-2.58 -8.85 -1.50 0.16 
-2.75 -8.79 -1.50 0.16 
-2.91 -8.74 -1.50 0.16 
-3.07 -8.67 -1.50 0.16 
-3.24 -8.61 -1.50 0.16 
-3.40 -8.54 -1.50 0.16 
-3.56 -8.47 -1.50 0.16 
-3.71 -8.40 -1.49 0.16 
-3.87 -8.32 -1.49 0.16 
-4.02 -8.24 -1.49 0.16 
-4.18 -8.16 -1.49 0.16 
-4.33 -8.07 -1.49 0.16 
-4.48 -7.99 -1.49 0.16 
-4.63 -7.90 -1.49 0.16 
-4.82 -7.89 -1.50 0.82 
-5.03 -7.89 -1.52 0.81 
-5.24 -7.89 -1.54 0.79 
-5.46 -7.89 -1.56 0.78 
-5.69 -7.89 -1.58 0.77 
-5.92 -7.89 -1.61 0.76 
-6.14 -7.88 -1.63 0.17 
-6.29 -7.76 -1.63 0.17 
-6.45 -7.65 -1.63 0.17 
-6.59 -7.53 -1.63 0.17 
-6.74 -7.41 -1.63 0.16 
-6.87 -7.28 -1.63 0.16 
-7.01 -7.14 -1.63 0.16 
-7.14 -7.01 -1.63 0.16 
-7.27 -6.87 -1.63 0.16 
-7.39 -6.73 -1.63 0.16 
-7.52 -6.58 -1.63 0.16 
-7.64 -6.44 -1.63 0.16 
-7.76 -6.29 -1.63 0.16 
-7.87 -6.14 -1.63 0.16 
-7.98 -5.99 -1.62 0.16 
-8.09 -5.83 -1.62 0.16 
-8.20 -5.68 -1.62 0.16 
-8.30 -5.52 -1.62 0.16 
-8.40 -5.36 -1.62 0.16 
-8.50 -5.20 -1.62 0.16 
-8.60 -5.04 -1.62 0.16 
-8.69 -4.87 -1.62 0.16 
-8.78 -4.71 -1.62 0.16 
-8.86 -4.54 -1.62 0.16 
-8.95 -4.37 -1.62 0.16 
-9.03 -4.20 -1.62 0.16 
-9.10 -4.02 -1.62 0.16 
-9.18 -3.85 -1.62 0.16 
-9.24 -3.68 -1.62 0.16 
-9.31 -3.50 -1.62 0.16 
-9.38 -3.32 -1.62 0.16 
-9.44 -3.14 -1.62 0.16 
-9.49 -2.97 -1.62 0.16 
-9.55 -2.79 -1.62 0.16 
-9.60 -2.60 -1.62 0.16 
-9.64 -2.42 -1.62 0.16 
-1.29 -0.30 -0.22 0.14 
-1.29 -0.27 -0.22 0.14 
-1.30 -0.25 -0.21 0.16 
-1.30 -0.22 -0.21 0.16 
-1.30 -0.20 -0.21 0.16 
-1.29 -0.17 -0.21 0.16 
-1.29 -0.15 -0.21 0.17 
-1.29 -0.12 -0.21 0.17 
-1.29 -0.10 -0.21 0.17 
-1.29 -0.07 -0.21 0.17 
-1.29 -0.05 -0.21 0.17 
-1.28 -0.02 -0.21 0.17 
-1.27 -0.00 -0.21 0.17 
-1.27 0.02 -0.21 0.17 
-1.26 0.05 -0.21 0.17 
-1.26 0.07 -0.21 0.17 
-1.26 0.10 -0.21 0.17 
-1.26 0.12 -0.21 0.17 
-1.26 0.14 -0.21 0.17 
-1.27 0.17 -0.21 0.17 
-1.27 0.19 -0.21 0.17 
-1.27 0.22 -0.21 0.16 
-1.27 0.24 -0.21 0.16 
-1.26 0.27 -0.21 0.16 
-1.26 0.29 -0.21 0.16 
-1.26 0.32 -0.21 0.16 
-1.26 0.34 -0.21 0.16 
-1.26 0.37 -0.21 0.14 
-1.25 0.39 -0.21 0.14 
-1.24 0.41 -0.21 0.14 
-1.23 0.44 -0.21 0.14 
-9.29 3.49 -1.63 0.16 
-9.22 3.67 -1.63 0.16 
-9.16 3.84 -1.63 0.16 
-9.08 4.02 -1.63 0.16 
-9.01 4.19 -1.63 0.16 
-8.93 4.36 -1.63 0.16 
-8.85 4.53 -1.63 0.16 
-8.77 4.70 -1.63 0.16 
-8.68 4.87 -1.63 0.16 
-8.59 5.03 -1.63 0.16 
-8.50 5.20 -1.63 0.16 
-8.40 5.36 -1.63 0.16 
-8.30 5.52 -1.64 0.16 
-8.20 5.68 -1.64 0.16 
-8.10 5.84 -1.64 0.16 
-7.99 5.99 -1.64 0.16 
-7.88 6.14 -1.64 0.16 
-7.76 6.30 -1.64 0.16 
-7.65 6.45 -1.64 0.16 
-7.53 6.59 -1.64 0.16 
-7.41 6.74 -1.64 0.16 
-7.28 6.88 -1.64 0.16 
-7.15 7.02 -1.64 0.16 
-7.02 7.16 -1.65 0.16 
-6.89 7.29 -1.65 0.16 
-6.76 7.43 -1.65 0.16 
-6.62 7.56 -1.65 0.16 
-6.48 7.69 -1.65 0.16 
-6.34 7.81 -1.65 0.16 
-6.19 7.94 -1.65 0.16 
-6.04 8.06 -1.65 0.16 
-5.89 8.17 -1.65 0.16 
-5.74 8.29 -1.65 0.16 
-5.59 8.40 -1.65 0.16 
-5.43 8.51 -1.66 0.16 
-5.27 8.62 -1.66 0.16 
-5.11 8.72 -1.66 0.16 
-4.95 8.82 -1.66 0.16 
-4.78 8.92 -1.66 0.16 
-4.62 9.02 -1.66 0.16 
-4.45 9.11 -1.66 0.16 
-4.28 9.20 -1.66 0.16 
-4.10 9.28 -1.66 0.16 
-3.93 9.36 -1.67 0.16 
-3.76 9.44 -1.67 0.16 
-3.58 9.52 -1.67 0.16 
-3.40 9.59 -1.67 0.16 
-3.22 9.66 -1.67 0.16 
-3.04 9.73 -1.67 0.16 
-0.89 3.06 -0.52 0.33 
-0.81 2.98 -0.51 0.84 
-0.74 2.96 -0.50 0.56 
-0.68 2.96 -0.50 0.99 
-0.63 2.96 -0.50 0.94 
-0.57 2.96 -0.49 0.94 
-0.51 2.96 -0.49 0.95 
-0.45 2.97 -0.49 0.95 
-0.40 2.97 -0.49 0.95 
-0.34 2.97 -0.49 0.96 
-0.28 2.97 -0.49 0.96 
-0.23 2.98 -0.49 0.96 
-0.17 2.98 -0.49 0.96 
-0.11 2.99 -0.49 0.97 
-0.06 2.99 -0.49 0.97 
-0.00 2.99 -0.49 0.96 
0.06 3.00 -0.49 0.90 
0.11 3.02 -0.50 0.90 
0.17 3.03 -0.50 0.89 
0.23 3.05 -0.50 0.70 
0.29 3.10 -0.51 0.53 
0.39 3.45 -0.57 0.03 
1.37 10.26 -1.70 0.15 
1.56 10.24 -1.70 0.15 
1.76 10.22 -1.70 0.15 
1.95 10.19 -1.70 0.15 
2.15 10.16 -1.70 0.15 
2.34 10.12 -1.70 0.15 
2.53 10.08 -1.70 0.15 
2.72 10.04 -1.71 0.15 
2.91 9.99 -1.71 0.15 
2.22 7.12 -1.22 0.25 
2.23 6.70 -1.16 0.36 
2.29 6.46 -1.12 0.60 
2.36 6.27 -1.10 0.53 
2.43 6.10 -1.08 0.75 
2.51 5.98 -1.06 0.97 
2.63 5.94 -1.07 0.42 
2.76 5.94 -1.07 0.86 
2.90 5.94 -1.08 0.86 
3.04 5.94 -1.10 0.85 
3.19 5.95 -1.11 0.84 
3.33 5.95 -1.12 0.83 
3.50 5.98 -1.14 0.85 
3.66 5.98 -1.15 0.81 
3.82 5.98 -1.16 0.80 
3.98 5.99 -1.18 0.79 
4.15 5.99 -1.20 0.77 
4.33 6.00 -1.21 0.76 
4.51 6.01 -1.23 0.74 
4.69 6.02 -1.25 0.74 
4.88 6.02 -1.27 0.72 
5.08 6.03 -1.29 0.72 
5.29 6.04 -1.32 0.69 
5.50 6.05 -1.34 0.68 
5.72 6.06 -1.37 0.63 
5.88 5.99 -1.38 0.67 
6.11 6.00 -1.40 0.66 
6.35 6.00 -1.43 0.64 
6.61 6.01 -1.46 0.63 
7.95 6.96 -1.73 0.15 
8.08 6.81 -1.73 0.15 
8.21 6.66 -1.73 0.15 
8.34 6.51 -1.74 0.15 
8.47 6.35 -1.74 0.15 
8.59 6.19 -1.74 0.15 
8.71 6.03 -1.74 0.15 
8.82 5.86 -1.74 0.15 
8.93 5.70 -1.74 0.15 
9.04 5.53 -1.74 0.15 
9.15 5.36 -1.74 0.15 
9.25 5.18 -1.74 0.15 
9.35 5.01 -1.74 0.15 
9.44 4.83 -1.74 0.15 
9.53 4.65 -1.74 0.15 
9.62 4.47 -1.74 0.15 
9.71 4.29 -1.74 0.15 
9.79 4.11 -1.74 0.15 
9.86 3.92 -1.74 0.15 
9.94 3.74 -1.74 0.15 
10.01 3.55 -1.74 0.15 
10.07 3.36 -1.74 0.15 
10.14 3.17 -1.74 0.15 
10.20 2.97 -1.74 0.15 
10.25 2.78 -1.74 0.15 
10.30 2.59 -1.74 0.15 
10.35 2.39 -1.74 0.15 
10.39 2.20 -1.74 0.15 
10.43 2.00 -1.74 0.15 
10.47 1.80 -1.74 0.15 
10.50 1.60 -1.74 0.15 
10.53 1.40 -1.74 0.15 
10.55 1.20 -1.74 0.15 
10.57 1.00 -1.74 0.15 
10.59 0.80 -1.74 0.15 
10.60 0.60 -1.74 0.15 
10.61 0.40 -1.74 0.15 
10.62 0.20 -1.74 0.15 
10.62 -0.00 -1.74 0.15 
10.61 -0.20 -1.74 0.15 
10.60 -0.40 -1.74 0.15 
10.59 -0.60 -1.74 0.15 
10.58 -0.80 -1.74 0.15 
10.56 -1.00 -1.74 0.15 
10.54 -1.20 -1.74 0.15 
10.51 -1.40 -1.74 0.15 
10.48 -1.60 -1.74 0.15 
10.44 -1.80 -1.74 0.15 
10.41 -1.99 -1.74 0.15 
10.36 -2.19 -1.74 0.15 
10.32 -2.38 -1.74 0.15 
10.27 -2.58 -1.74 0.15 
10.21 -2.77 -1.74 0.15 
10.16 -2.96 -1.74 0.15 
10.09 -3.15 -1.73 0.15 
10.03 -3.34 -1.73 0.15 
9.96 -3.53 -1.73 0.15 
9.89 -3.72 -1.73 0.15 
9.81 -3.90 -1.73 0.15 
9.73 -4.09 -1.73 0.15 
9.65 -4.27 -1.73 0.15 
9.56 -4.45 -1.73 0.15 
6.22 -3.04 -1.13 0.32 
5.93 -3.04 -1.09 0.44 
5.67 -3.04 -1.06 0.48 
5.44 -3.05 -1.02 0.49 
5.22 -3.06 -0.99 0.54 
5.02 -3.07 -0.97 0.62 
4.85 -3.10 -0.94 0.63 
4.70 -3.12 -0.93 0.67 
4.58 -3.17 -0.91 0.89 
4.51 -3.25 -0.91 0.89 
4.46 -3.34 -0.91 0.87 
4.43 -3.45 -0.92 0.78 
4.41 -3.57 -0.93 0.74 
4.39 -3.70 -0.94 0.61 
4.40 -3.85 -0.96 0.49 
7.74 -7.04 -1.72 0.15 
7.60 -7.18 -1.72 0.15 
7.46 -7.32 -1.71 0.15 
7.31 -7.45 -1.71 0.16 
7.15 -7.57 -1.71 0.16 
6.99 -7.69 -1.70 0.16 
6.77 -7.73 -1.69 0.70 
6.51 -7.72 -1.66 0.71 
6.26 -7.72 -1.63 0.73 
6.01 -7.71 -1.60 0.74 
5.78 -7.71 -1.58 0.75 
5.55 -7.70 -1.56 0.64 
5.38 -7.76 -1.55 0.15 
5.23 -7.86 -1.55 0.15 
5.07 -7.95 -1.55 0.15 
4.92 -8.04 -1.55 0.15 
4.76 -8.13 -1.55 0.15 
4.60 -8.21 -1.54 0.15 
4.44 -8.29 -1.54 0.15 
4.28 -8.37 -1.54 0.15 
4.12 -8.44 -1.54 0.15 
3.96 -8.51 -1.54 0.15 
3.79 -8.58 -1.54 0.15 
3.63 -8.64 -1.54 0.15 
3.46 -8.71 -1.54 0.15 
3.29 -8.76 -1.54 0.15 
3.13 -8.82 -1.53 0.16 
2.96 -8.87 -1.53 0.16 
2.79 -8.92 -1.53 0.16 
2.62 -8.96 -1.53 0.16 
2.44 -9.00 -1.53 0.16 
2.27 -9.04 -1.53 0.16 
2.10 -9.08 -1.53 0.16 
1.92 -9.11 -1.53 0.16 
1.75 -9.14 -1.53 0.16 
1.58 -9.16 -1.53 0.16 
1.40 -9.19 -1.52 0.16 
1.23 -9.20 -1.52 0.16 
1.05 -9.22 -1.52 0.16 
0.88 -9.23 -1.52 0.16 
0.70 -9.24 -1.52 0.16 
0.53 -9.24 -1.52 0.16 
0.35 -9.25 -1.52 0.16 
0.17 -9.25 -1.52 0.16 
-0.00 -9.24 -1.52 0.16 
-0.17 -9.23 -1.51 0.16 
-0.35 -9.22 -1.51 0.16 
-0.52 -9.21 -1.51 0.16 
-0.70 -9.19 -1.51 0.16 
-0.87 -9.17 -1.51 0.16 
-1.04 -9.14 -1.51 0.16 
-1.21 -9.12 -1.51 0.16 
-1.39 -9.09 -1.51 0.16 
-1.56 -9.05 -1.51 0.16 
-1.73 -9.02 -1.51 0.16 
-1.90 -8.98 -1.50 0.16 
-2.06 -8.93 -1.50 0.16 
-2.23 -8.89 -1.50 0.16 
-2.40 -8.84 -1.50 0.16 
-2.56 -8.79 -1.50 0.16 
-2.73 -8.73 -1.50 0.16 
-2.89 -8.67 -1.50 0.16 
-3.05 -8.61 -1.50 0.16 
-3.21 -8.55 -1.50 0.16 
-3.37 -8.48 -1.50 0.16 
-3.53 -8.41 -1.50 0.16 
-3.69 -8.34 -1.49 0.16 
-3.84 -8.26 -1.49 0.16 
-3.99 -8.18 -1.49 0.16 
-4.15 -8.10 -1.49 0.16 
-4.30 -8.02 -1.49 0.16 
-4.45 -7.93 -1.49 0.16 
-4.62 -7.88 -1.50 0.83 
-4.82 -7.88 -1.52 0.82 
-5.03 -7.89 -1.53 0.81 
-5.24 -7.89 -1.55 0.79 
-5.46 -7.89 -1.57 0.78 
-5.69 -7.89 -1.59 0.77 
-5.92 -7.89 -1.62 0.76 
-6.10 -7.82 -1.63 0.17 
-6.25 -7.71 -1.63 0.17 
-6.40 -7.60 -1.63 0.17 
-6.55 -7.48 -1.63 0.17 
-6.69 -7.35 -1.63 0.16 
-6.82 -7.22 -1.63 0.16 
-6.96 -7.09 -1.63 0.16 
-7.09 -6.95 -1.63 0.16 
-7.22 -6.82 -1.63 0.16 
-7.34 -6.68 -1.63 0.16 
-7.46 -6.53 -1.63 0.16 
-7.58 -6.39 -1.63 0.16 
-7.70 -6.24 -1.63 0.16 
-7.81 -6.09 -1.63 0.16 
-7.93 -5.94 -1.62 0.16 
-8.03 -5.79 -1.62 0.16 
-8.14 -5.64 -1.62 0.16 
-8.24 -5.48 -1.62 0.16 
-8.34 -5.32 -1.62 0.16 
-8.44 -5.16 -1.62 0.16 
-8.53 -5.00 -1.62 0.16 
-8.63 -4.84 -1.62 0.16 
-8.71 -4.67 -1.62 0.16 
-8.80 -4.50 -1.62 0.16 
-8.88 -4.34 -1.62 0.16 
-8.96 -4.17 -1.62 0.16 
-9.04 -4.00 -1.62 0.16 
-9.11 -3.82 -1.62 0.16 
-9.18 -3.65 -1.62 0.16 
-9.24 -3.48 -1.62 0.16 
-9.31 -3.30 -1.62 0.16 
-9.37 -3.12 -1.62 0.16 
-9.42 -2.94 -1.62 0.16 
-9.48 -2.77 -1.62 0.16 
-9.53 -2.59 -1.62 0.16 
-9.57 -2.40 -1.62 0.16 
-1.28 -0.30 -0.22 0.14 
-1.28 -0.27 -0.22 0.14 
-1.29 -0.25 -0.21 0.16 
-1.29 -0.22 -0.21 0.16 
-1.29 -0.20 -0.21 0.17 
-1.29 -0.17 -0.21 0.17 
-1.28 -0.15 -0.21 0.17 
-1.28 -0.12 -0.21 0.17 
-1.28 -0.10 -0.21 0.17 
-1.28 -0.07 -0.21 0.17 
-1.28 -0.05 -0.21 0.17 
-1.27 -0.02 -0.21 0.17 
-1.26 -0.00 -0.21 0.17 
-1.26 0.02 -0.21 0.17 
-1.25 0.05 -0.21 0.17 
-1.25 0.07 -0.21 0.17 
-1.25 0.09 -0.21 0.17 
-1.25 0.12 -0.21 0.17 
-1.26 0.14 -0.21 0.17 
-1.26 0.17 -0.21 0.17 
-1.26 0.19 -0.21 0.17 
-1.26 0.22 -0.21 0.17 
-1.26 0.24 -0.21 0.17 
-1.26 0.27 -0.21 0.16 
-1.25 0.29 -0.21 0.16 
-1.25 0.31 -0.21 0.16 
-1.25 0.34 -0.21 0.16 
-1.25 0.36 -0.21 0.14 
-1.24 0.39 -0.21 0.14 
-1.23 0.41 -0.21 0.14 
-1.22 0.43 -0.21 0.14 
-9.22 3.47 -1.63 0.16 
-9.16 3.64 -1.63 0.16 
-9.09 3.82 -1.63 0.16 
-9.02 3.99 -1.63 0.16 
-8.95 4.16 -1.63 0.16 
-8.87 4.33 -1.63 0.16 
-8.79 4.50 -1.63 0.16 
-8.71 4.67 -1.63 0.16 
-8.62 4.83 -1.63 0.16 
-8.53 5.00 -1.63 0.16 
-8.44 5.16 -1.63 0.16 
-8.34 5.32 -1.64 0.16 
-8.24 5.48 -1.64 0.16 
-8.14 5.64 -1.64 0.16 
-8.04 5.79 -1.64 0.16 
-7.93 5.95 -1.64 0.16 
-7.82 6.10 -1.64 0.16 
-7.71 6.25 -1.64 0.16 
-7.59 6.40 -1.64 0.16 
-7.47 6.54 -1.64 0.16 
-7.35 6.69 -1.64 0.16 
-7.23 6.83 -1.64 0.16 
-7.10 6.97 -1.64 0.16 
-6.97 7.11 -1.65 0.16 
-6.84 7.24 -1.65 0.16 
-6.71 7.37 -1.65 0.16 
-6.57 7.50 -1.65 0.16 
-6.43 7.63 -1.65 0.16 
-6.29 7.76 -1.65 0.16 
-6.14 7.88 -1.65 0.16 
-6.00 8.00 -1.65 0.16 
-5.85 8.11 -1.65 0.16 
-5.70 8.23 -1.65 0.16 
-5.54 8.34 -1.66 0.16 
-5.39 8.45 -1.66 0.16 
-5.23 8.56 -1.66 0.16 
-5.07 8.66 -1.66 0.16 
-4.91 8.76 -1.66 0.16 
-4.75 8.86 -1.66 0.16 
-4.58 8.95 -1.66 0.16 
-4.41 9.04 -1.66 0.16 
-4.25 9.13 -1.66 0.16 
-4.07 9.21 -1.66 0.16 
-3.90 9.30 -1.67 0.16 
-3.73 9.37 -1.67 0.16 
-3.55 9.45 -1.67 0.16 
-3.37 9.52 -1.67 0.16 
-3.20 9.59 -1.67 0.16 
-3.02 9.65 -1.67 0.16 
-0.89 3.05 -0.52 0.33 
-0.81 2.98 -0.51 0.84 
-0.74 2.95 -0.50 0.56 
-0.68 2.95 -0.50 0.95 
-0.62 2.96 -0.50 0.94 
-0.57 2.96 -0.50 0.94 
-0.51 2.96 -0.50 0.95 
-0.45 2.96 -0.50 0.95 
-0.40 2.97 -0.49 0.95 
-0.34 2.97 -0.49 0.96 
-0.28 2.97 -0.49 0.96 
-0.23 2.97 -0.49 0.96 
-0.17 2.98 -0.49 0.96 
-0.11 2.98 -0.49 0.97 
-0.06 2.99 -0.49 0.97 
0.00 2.99 -0.49 0.96 
0.06 3.00 -0.50 0.96 
0.11 3.02 -0.50 0.90 
0.17 3.03 -0.50 0.89 
0.23 3.05 -0.51 0.70 
0.29 3.09 -0.51 0.53 
0.38 3.35 -0.56 0.05 
1.36 10.19 -1.70 0.15 
1.55 10.16 -1.70 0.15 
1.74 10.14 -1.70 0.15 
1.94 10.11 -1.70 0.15 
2.13 10.08 -1.70 0.15 
2.32 10.04 -1.70 0.15 
2.51 10.00 -1.70 0.15 
2.70 9.96 -1.71 0.15 
2.89 9.91 -1.71 0.15 
2.23 7.12 -1.23 0.25 
2.23 6.70 -1.17 0.36 
2.29 6.45 -1.13 0.60 
2.36 6.27 -1.11 0.53 
2.43 6.10 -1.08 0.75 
2.51 5.98 -1.07 0.97 
2.62 5.94 -1.07 0.87 
2.76 5.94 -1.08 0.86 
2.90 5.94 -1.09 0.86 
3.04 5.94 -1.10 0.85 
3.19 5.95 -1.11 0.84 
3.33 5.95 -1.13 0.83 
3.50 5.98 -1.14 0.85 
3.66 5.98 -1.16 0.81 
3.82 5.98 -1.17 0.80 
3.98 5.99 -1.19 0.79 
4.15 5.99 -1.20 0.77 
4.32 6.00 -1.22 0.76 
4.51 6.01 -1.24 0.74 
4.69 6.02 -1.26 0.74 
4.88 6.02 -1.28 0.72 
5.08 6.03 -1.30 0.72 
5.29 6.04 -1.33 0.69 
5.50 6.05 -1.35 0.68 
5.72 6.06 -1.38 0.63 
5.88 5.99 -1.39 0.67 
6.11 6.00 -1.42 0.65 
6.35 6.00 -1.44 0.64 
6.61 6.01 -1.48 0.63 
7.89 6.91 -1.73 0.15 
8.02 6.76 -1.73 0.15 
8.15 6.61 -1.73 0.15 
8.28 6.46 -1.73 0.15 
8.40 6.30 -1.74 0.15 
8.52 6.14 -1.74 0.15 
8.64 5.98 -1.74 0.15 
8.75 5.82 -1.74 0.15 
8.86 5.65 -1.74 0.15 
8.97 5.49 -1.74 0.15 
9.08 5.32 -1.74 0.15 
9.18 5.14 -1.74 0.15 
9.27 4.97 -1.74 0.15 
9.37 4.80 -1.74 0.15 
9.46 4.62 -1.74 0.15 
9.55 4.44 -1.74 0.15 
9.63 4.26 -1.74 0.15 
9.71 4.08 -1.74 0.15 
9.79 3.89 -1.74 0.15 
9.86 3.71 -1.74 0.15 
9.93 3.52 -1.74 0.15 
10.00 3.33 -1.74 0.15 
10.06 3.14 -1.74 0.15 
10.12 2.95 -1.74 0.15 
10.17 2.76 -1.74 0.15 
10.22 2.57 -1.74 0.15 
10.27 2.37 -1.74 0.15 
10.31 2.18 -1.74 0.15 
10.35 1.98 -1.74 0.15 
10.39 1.79 -1.74 0.15 
10.42 1.59 -1.74 0.15 
10.45 1.39 -1.74 0.15 
10.47 1.19 -1.74 0.15 
10.49 1.00 -1.74 0.15 
10.51 0.80 -1.74 0.15 
10.52 0.60 -1.74 0.15 
10.53 0.40 -1.74 0.15 
10.53 0.20 -1.74 0.15 
10.53 -0.00 -1.74 0.15 
10.53 -0.20 -1.74 0.15 
10.52 -0.40 -1.74 0.15 
10.51 -0.60 -1.74 0.15 
10.50 -0.80 -1.74 0.15 
10.48 -0.99 -1.74 0.15 
10.46 -1.19 -1.74 0.15 
10.43 -1.39 -1.74 0.15 
10.40 -1.59 -1.74 0.15 
10.36 -1.78 -1.74 0.15 
10.33 -1.98 -1.74 0.15 
10.28 -2.17 -1.74 0.15 
10.24 -2.37 -1.74 0.15 
10.19 -2.56 -1.74 0.15 
10.13 -2.75 -1.74 0.15 
10.08 -2.94 -1.73 0.15 
10.02 -3.13 -1.73 0.15 
9.95 -3.32 -1.73 0.15 
9.88 -3.50 -1.73 0.15 
9.81 -3.69 -1.73 0.15 
9.74 -3.87 -1.73 0.15 
9.66 -4.05 -1.73 0.15 
9.58 -4.23 -1.73 0.15 
9.49 -4.41 -1.73 0.15 
6.21 -3.03 -1.14 0.32 
5.93 -3.04 -1.10 0.44 
5.67 -3.04 -1.06 0.48 
5.43 -3.05 -1.03 0.49 
5.22 -3.06 -1.00 0.54 
5.02 -3.07 -0.97 0.62 
4.85 -3.10 -0.95 0.63 
4.70 -3.12 -0.93 0.67 
4.58 -3.17 -0.92 0.89 
4.51 -3.25 -0.92 0.89 
4.45 -3.34 -0.92 0.87 
4.42 -3.45 -0.93 0.78 
4.40 -3.57 -0.94 0.74 
4.39 -3.70 -0.95 0.61 
4.39 -3.84 -0.96 0.49 
7.68 -6.99 -1.72 0.15 
7.54 -7.13 -1.72 0.15 
7.40 -7.26 -1.71 0.15 
7.25 -7.39 -1.71 0.16 
7.10 -7.51 -1.71 0.16 
6.94 -7.63 -1.71 0.16 
6.77 -7.73 -1.70 0.70 
6.51 -7.72 -1.67 0.71 
6.26 -7.72 -1.64 0.73 
6.01 -7.71 -1.62 0.74 
5.78 -7.70 -1.59 0.75 
5.55 -7.70 -1.57 0.76 
5.34 -7.71 -1.55 0.15 
5.19 -7.80 -1.55 0.15 
5.03 -7.89 -1.55 0.15 
4.88 -7.98 -1.55 0.15 
4.73 -8.07 -1.54 0.16 
4.57 -8.15 -1.54 0.16 
4.41 -8.23 -1.54 0.16 
4.25 -8.31 -1.54 0.16 
4.09 -8.38 -1.54 0.16 
3.93 -8.45 -1.54 0.16 
3.77 -8.52 -1.54 0.16 
3.60 -8.58 -1.54 0.16 
3.44 -8.64 -1.54 0.16 
3.27 -8.70 -1.54 0.16 
3.10 -8.75 -1.53 0.16 
2.93 -8.80 -1.53 0.16 
2.77 -8.85 -1.53 0.16 
2.60 -8.90 -1.53 0.16 
2.43 -8.94 -1.53 0.16 
2.25 -8.98 -1.53 0.16 
2.08 -9.01 -1.53 0.16 
1.91 -9.04 -1.53 0.16 
1.74 -9.07 -1.53 0.16 
1.56 -9.10 -1.53 0.16 
1.39 -9.12 -1.52 0.16 
1.22 -9.14 -1.52 0.16 
1.04 -9.15 -1.52 0.16 
0.87 -9.16 -1.52 0.16 
0.70 -9.17 -1.52 0.16 
0.52 -9.18 -1.52 0.16 
0.35 -9.18 -1.52 0.16 
0.17 -9.18 -1.52 0.16 
-0.00 -9.17 -1.52 0.16 
-0.17 -9.16 -1.51 0.16 
-0.35 -9.15 -1.51 0.16 
-0.52 -9.14 -1.51 0.16 
-0.69 -9.12 -1.51 0.16 
-0.86 -9.10 -1.51 0.16 
-1.04 -9.08 -1.51 0.16 
-1.21 -9.05 -1.51 0.16 
-1.38 -9.02 -1.51 0.16 
-1.55 -8.99 -1.51 0.16 
-1.71 -8.95 -1.51 0.16 
-1.88 -8.91 -1.50 0.16 
-2.05 -8.87 -1.50 0.16 
-2.22 -8.82 -1.50 0.16 
-2.38 -8.77 -1.50 0.16 
-2.54 -8.72 -1.50 0.16 
-2.71 -8.67 -1.50 0.16 
-2.87 -8.61 -1.50 0.16 
-3.03 -8.55 -1.50 0.16 
-3.19 -8.48 -1.50 0.16 
-3.35 -8.42 -1.50 0.16 
-3.50 -8.35 -1.50 0.16 
-3.66 -8.27 -1.50 0.16 
-3.81 -8.20 -1.49 0.16 
-3.97 -8.12 -1.49 0.16 
-4.12 -8.04 -1.49 0.16 
-4.27 -7.96 -1.49 0.16 
-4.42 -7.88 -1.49 0.69 
-4.62 -7.88 -1.51 0.83 
-4.82 -7.88 -1.53 0.82 
-5.03 -7.88 -1.55 0.81 
-5.24 -7.88 -1.56 0.79 
-5.46 -7.89 -1.58 0.78 
-5.68 -7.89 -1.61 0.77 
-5.91 -7.88 -1.63 0.17 
-6.06 -7.77 -1.63 0.17 
-6.21 -7.66 -1.63 0.17 
-6.36 -7.55 -1.63 0.17 
-6.50 -7.43 -1.63 0.16 
-6.64 -7.30 -1.63 0.16 
-6.78 -7.17 -1.63 0.16 
-6.91 -7.04 -1.63 0.16 
-7.04 -6.90 -1.63 0.16 
-7.16 -6.77 -1.63 0.16 
-7.29 -6.63 -1.63 0.16 
-7.41 -6.49 -1.63 0.16 
-7.53 -6.34 -1.63 0.16 
-7.64 -6.20 -1.63 0.16 
-7.76 -6.05 -1.63 0.16 
-7.87 -5.90 -1.63 0.16 
-7.98 -5.75 -1.62 0.16 
-8.08 -5.60 -1.62 0.16 
-8.18 -5.44 -1.62 0.16 
-8.28 -5.28 -1.62 0.16 
-8.38 -5.12 -1.62 0.16 
-8.47 -4.96 -1.62 0.16 
-8.56 -4.80 -1.62 0.16 
-8.65 -4.64 -1.62 0.16 
-8.74 -4.47 -1.62 0.16 
-8.82 -4.31 -1.62 0.16 
-8.90 -4.14 -1.62 0.16 
-8.97 -3.97 -1.62 0.16 
-9.04 -3.80 -1.62 0.16 
-9.11 -3.62 -1.62 0.16 
-9.18 -3.45 -1.62 0.16 
-9.24 -3.28 -1.62 0.16 
-9.30 -3.10 -1.62 0.16 
-9.36 -2.92 -1.62 0.16 
-9.41 -2.75 -1.62 0.16 
-9.46 -2.57 -1.62 0.16 
-9.51 -2.39 -1.62 0.16 
-1.27 -0.29 -0.21 0.14 
-1.27 -0.27 -0.22 0.14 
-1.28 -0.24 -0.21 0.17 
-1.28 -0.22 -0.21 0.17 
-1.28 -0.19 -0.21 0.17 
-1.28 -0.17 -0.21 0.17 
-1.28 -0.15 -0.21 0.17 
-1.27 -0.12 -0.21 0.17 
-1.27 -0.10 -0.21 0.17 
-1.27 -0.07 -0.21 0.17 
-1.27 -0.05 -0.21 0.17 
-1.26 -0.02 -0.21 0.17 
-1.25 -0.00 -0.21 0.17 
-1.25 0.02 -0.21 0.17 
-1.24 0.05 -0.21 0.17 
-1.24 0.07 -0.21 0.17 
-1.24 0.09 -0.21 0.17 
-1.24 0.12 -0.21 0.17 
-1.25 0.14 -0.21 0.17 
-1.25 0.17 -0.21 0.17 
-1.25 0.19 -0.21 0.17 
-1.25 0.21 -0.21 0.17 
-1.25 0.24 -0.21 0.17 
-1.25 0.26 -0.21 0.17 
-1.25 0.29 -0.21 0.17 
-1.24 0.31 -0.21 0.16 
-1.24 0.34 -0.21 0.16 
-1.23 0.36 -0.21 0.14 
-1.23 0.38 -0.21 0.14 
-1.22 0.41 -0.21 0.14 
-1.21 0.43 -0.21 0.14 
-9.15 3.44 -1.63 0.16 
-9.09 3.62 -1.63 0.16 
-9.02 3.79 -1.63 0.16 
-8.95 3.96 -1.63 0.16 
-8.88 4.13 -1.63 0.16 
-8.81 4.30 -1.63 0.16 
-8.73 4.47 -1.63 0.16 
-8.64 4.63 -1.63 0.16 
-8.56 4.80 -1.63 0.16 
-8.47 4.96 -1.63 0.16 
-8.38 5.12 -1.63 0.16 
-8.28 5.28 -1.64 0.16 
-8.18 5.44 -1.64 0.16 
-8.08 5.60 -1.64 0.16 
-7.98 5.75 -1.64 0.16 
-7.87 5.91 -1.64 0.16 
-7.76 6.06 -1.64 0.16 
-7.65 6.21 -1.64 0.16 
-7.54 6.35 -1.64 0.16 
-7.42 6.50 -1.64 0.16 
-7.30 6.64 -1.64 0.16 
-7.18 6.78 -1.64 0.16 
-7.05 6.92 -1.64 0.16 
-6.92 7.05 -1.65 0.16 
-6.79 7.19 -1.65 0.16 
-6.66 7.32 -1.65 0.16 
-6.52 7.45 -1.65 0.16 
-6.38 7.58 -1.65 0.16 
-6.24 7.70 -1.65 0.16 
-6.10 7.82 -1.65 0.16 
-5.95 7.94 -1.65 0.16 
-5.81 8.06 -1.65 0.16 
-5.66 8.17 -1.65 0.16 
-5.50 8.28 -1.66 0.16 
-5.35 8.39 -1.66 0.16 
-5.19 8.49 -1.66 0.16 
-5.04 8.60 -1.66 0.16 
-4.87 8.69 -1.66 0.16 
-4.71 8.79 -1.66 0.16 
-4.55 8.88 -1.66 0.16 
-4.38 8.97 -1.66 0.16 
-4.21 9.06 -1.66 0.16 
-4.04 9.15 -1.66 0.16 
-3.87 9.23 -1.67 0.16 
-3.70 9.31 -1.67 0.16 
-3.53 9.38 -1.67 0.16 
-3.35 9.45 -1.67 0.16 
-3.17 9.52 -1.67 0.16 
-2.99 9.58 -1.67 0.16 
-0.89 3.04 -0.53 0.33 
-0.81 2.98 -0.51 0.84 
-0.74 2.95 -0.51 0.56 
-0.68 2.95 -0.50 0.95 
-0.62 2.96 -0.50 0.94 
-0.57 2.96 -0.50 0.94 
-0.51 2.96 -0.50 0.95 
-0.45 2.96 -0.50 0.95 
-0.40 2.96 -0.50 0.95 
-0.34 2.97 -0.50 0.96 
-0.28 2.97 -0.50 0.96 
-0.23 2.97 -0.50 0.96 
-0.17 2.98 -0.50 0.96 
-0.11 2.98 -0.50 0.97 
-0.06 2.99 -0.50 0.97 
-0.00 2.99 -0.50 0.96 
0.06 3.00 -0.50 0.96 
0.11 3.01 -0.50 0.90 
0.17 3.03 -0.51 0.89 
0.23 3.05 -0.51 0.70 
0.29 3.09 -0.52 0.53 
0.37 3.28 -0.55 0.04 
1.35 10.11 -1.70 0.16 
1.54 10.09 -1.70 0.16 
1.73 10.06 -1.70 0.16 
1.92 10.04 -1.70 0.16 
2.11 10.00 -1.70 0.16 
2.30 9.97 -1.70 0.16 
2.49 9.93 -1.70 0.16 
2.68 9.89 -1.71 0.16 
2.87 9.84 -1.71 0.15 
2.23 7.12 -1.24 0.25 
2.24 6.71 -1.18 0.36 
2.29 6.45 -1.14 0.60 
2.36 6.27 -1.11 0.53 
2.42 6.10 -1.09 0.75 
2.51 5.98 -1.08 0.97 
2.62 5.94 -1.08 0.87 
2.76 5.94 -1.09 0.86 
2.90 5.94 -1.10 0.86 
3.04 5.94 -1.11 0.85 
3.19 5.95 -1.12 0.84 
3.33 5.95 -1.14 0.83 
3.50 5.98 -1.15 0.84 
3.65 5.98 -1.17 0.81 
3.82 5.98 -1.18 0.80 
3.98 5.99 -1.20 0.79 
4.15 5.99 -1.21 0.77 
4.32 6.00 -1.23 0.76 
4.51 6.01 -1.25 0.74 
4.69 6.01 -1.27 0.74 
4.88 6.02 -1.29 0.72 
5.08 6.03 -1.31 0.72 
5.28 6.04 -1.34 0.69 
5.50 6.05 -1.36 0.68 
5.72 6.06 -1.39 0.63 
5.88 5.99 -1.40 0.67 
6.11 6.00 -1.43 0.65 
6.35 6.00 -1.46 0.64 
6.61 6.01 -1.49 0.63 
7.83 6.86 -1.73 0.15 
7.96 6.71 -1.73 0.15 
8.09 6.56 -1.73 0.15 
8.21 6.41 -1.73 0.15 
8.34 6.25 -1.73 0.15 
8.46 6.09 -1.74 0.15 
8.57 5.94 -1.74 0.15 
8.69 5.77 -1.74 0.15 
8.80 5.61 -1.74 0.15 
8.90 5.44 -1.74 0.15 
9.01 5.28 -1.74 0.15 
9.11 5.11 -1.74 0.15 
9.20 4.93 -1.74 0.15 
9.30 4.76 -1.74 0.15 
9.39 4.58 -1.74 0.15 
9.47 4.41 -1.74 0.15 
9.56 4.23 -1.74 0.15 
9.64 4.05 -1.74 0.15 
9.71 3.86 -1.74 0.15 
9.79 3.68 -1.74 0.15 
9.85 3.49 -1.74 0.15 
9.92 3.31 -1.74 0.15 
9.98 3.12 -1.74 0.15 
10.04 2.93 -1.74 0.15 
10.09 2.74 -1.74 0.15 
10.14 2.55 -1.74 0.15 
10.19 2.36 -1.74 0.15 
10.23 2.16 -1.74 0.15 
10.27 1.97 -1.74 0.15 
10.31 1.77 -1.74 0.15 
10.34 1.58 -1.74 0.15 
10.37 1.38 -1.74 0.15 
10.39 1.19 -1.74 0.15 
10.41 0.99 -1.74 0.15 
10.43 0.79 -1.74 0.15 
10.44 0.59 -1.74 0.15 
10.45 0.40 -1.74 0.15 
10.45 0.20 -1.74 0.15 
10.45 -0.00 -1.74 0.15 
10.45 -0.20 -1.74 0.15 
10.44 -0.40 -1.74 0.15 
10.43 -0.59 -1.74 0.15 
10.42 -0.79 -1.74 0.15 
10.40 -0.99 -1.74 0.15 
10.38 -1.18 -1.74 0.15 
10.35 -1.38 -1.74 0.15 
10.32 -1.57 -1.74 0.15 
10.28 -1.77 -1.74 0.15 
10.25 -1.96 -1.74 0.15 
10.20 -2.16 -1.74 0.15 
10.16 -2.35 -1.74 0.15 
10.11 -2.54 -1.74 0.15 
10.06 -2.73 -1.73 0.15 
10.00 -2.92 -1.73 0.15 
9.94 -3.11 -1.73 0.15 
9.88 -3.29 -1.73 0.15 
9.81 -3.48 -1.73 0.15 
9.74 -3.66 -1.73 0.15 
9.66 -3.84 -1.73 0.15 
9.59 -4.02 -1.73 0.15 
9.50 -4.20 -1.73 0.15 
9.42 -4.38 -1.73 0.15 
6.20 -3.03 -1.15 0.32 
5.93 -3.03 -1.11 0.44 
5.67 -3.04 -1.07 0.48 
5.43 -3.05 -1.04 0.49 
5.22 -3.06 -1.01 0.54 
5.02 -3.07 -0.98 0.62 
4.85 -3.10 -0.96 0.63 
4.70 -3.12 -0.94 0.67 
4.58 -3.17 -0.93 0.89 
4.50 -3.25 -0.92 0.89 
4.45 -3.34 -0.93 0.87 
4.42 -3.45 -0.93 0.78 
4.40 -3.57 -0.94 0.74 
4.38 -3.69 -0.95 0.76 
4.39 -3.84 -0.97 0.49 
7.62 -6.93 -1.72 0.15 
7.49 -7.07 -1.71 0.15 
7.35 -7.21 -1.71 0.15 
7.20 -7.34 -1.71 0.16 
7.05 -7.46 -1.71 0.17 
6.89 -7.58 -1.71 0.17 
6.74 -7.69 -1.70 0.17 
6.51 -7.72 -1.68 0.71 
6.25 -7.71 -1.65 0.73 
6.01 -7.71 -1.63 0.74 
5.78 -7.70 -1.60 0.75 
5.55 -7.70 -1.58 0.76 
5.33 -7.69 -1.56 0.80 
5.15 -7.74 -1.55 0.16 
5.00 -7.83 -1.55 0.16 
4.84 -7.92 -1.55 0.16 
4.69 -8.01 -1.54 0.16 
4.53 -8.09 -1.54 0.16 
4.38 -8.17 -1.54 0.16 
4.22 -8.24 -1.54 0.16 
4.06 -8.32 -1.54 0.16 
3.90 -8.39 -1.54 0.16 
3.74 -8.45 -1.54 0.16 
3.57 -8.52 -1.54 0.16 
3.41 -8.58 -1.54 0.16 
3.25 -8.63 -1.54 0.16 
3.08 -8.69 -1.53 0.16 
2.91 -8.74 -1.53 0.16 
2.74 -8.79 -1.53 0.16 
2.58 -8.83 -1.53 0.16 
2.41 -8.87 -1.53 0.16 
2.24 -8.91 -1.53 0.16 
2.07 -8.94 -1.53 0.16 
1.90 -8.98 -1.53 0.16 
1.72 -9.00 -1.53 0.16 
1.55 -9.03 -1.53 0.16 
1.38 -9.05 -1.52 0.16 
1.21 -9.07 -1.52 0.16 
1.04 -9.08 -1.52 0.16 
0.86 -9.10 -1.52 0.16 
0.69 -9.10 -1.52 0.16 
0.52 -9.11 -1.52 0.16 
0.34 -9.11 -1.52 0.16 
0.17 -9.11 -1.52 0.16 
-0.00 -9.11 -1.52 0.16 
-0.17 -9.10 -1.51 0.16 
-0.34 -9.09 -1.51 0.16 
-0.52 -9.07 -1.51 0.16 
-0.69 -9.06 -1.51 0.16 
-0.86 -9.03 -1.51 0.16 
-1.03 -9.01 -1.51 0.16 
-1.20 -8.98 -1.51 0.16 
-1.37 -8.95 -1.51 0.16 
-1.53 -8.92 -1.51 0.16 
-1.70 -8.88 -1.51 0.16 
-1.87 -8.85 -1.51 0.16 
-2.03 -8.80 -1.50 0.16 
-2.20 -8.76 -1.50 0.16 
-2.36 -8.71 -1.50 0.16 
-2.53 -8.66 -1.50 0.16 
-2.69 -8.60 -1.50 0.16 
-2.85 -8.55 -1.50 0.16 
-3.01 -8.49 -1.50 0.16 
-3.17 -8.42 -1.50 0.16 
-3.32 -8.36 -1.50 0.16 
-3.48 -8.29 -1.50 0.16 
-3.63 -8.21 -1.50 0.16 
-3.79 -8.14 -1.49 0.16 
-3.94 -8.06 -1.49 0.16 
-4.09 -7.98 -1.49 0.16 
-4.23 -7.90 -1.49 0.16 
-4.42 -7.88 -1.50 0.83 
-4.62 -7.88 -1.52 0.83 
-4.82 -7.88 -1.54 0.82 
-5.03 -7.88 -1.56 0.81 
-5.24 -7.88 -1.58 0.79 
-5.46 -7.88 -1.60 0.78 
-5.68 -7.88 -1.62 0.77 
-5.87 -7.83 -1.63 0.17 
-6.02 -7.72 -1.63 0.17 
-6.17 -7.61 -1.63 0.17 
-6.32 -7.50 -1.63 0.17 
-6.46 -7.38 -1.63 0.16 
-6.59 -7.25 -1.63 0.16 
-6.73 -7.12 -1.63 0.16 
-6.86 -6.99 -1.63 0.16 
-6.99 -6.86 -1.63 0.16 
-7.11 -6.72 -1.63 0.16 
-7.24 -6.58 -1.63 0.16 
-7.36 -6.44 -1.63 0.16 
-7.47 -6.30 -1.63 0.16 
-7.59 -6.15 -1.63 0.16 
-7.70 -6.01 -1.63 0.16 
-7.81 -5.86 -1.63 0.16 
-7.92 -5.71 -1.63 0.16 
-8.02 -5.56 -1.62 0.16 
-8.13 -5.40 -1.62 0.16 
-8.22 -5.25 -1.62 0.16 
-8.32 -5.09 -1.62 0.16 
-8.41 -4.93 -1.62 0.16 
-8.50 -4.77 -1.62 0.16 
-8.59 -4.60 -1.62 0.16 
-8.67 -4.44 -1.62 0.16 
-8.75 -4.27 -1.62 0.16 
-8.83 -4.11 -1.62 0.16 
-8.91 -3.94 -1.62 0.16 
-8.98 -3.77 -1.62 0.16 
-9.05 -3.60 -1.62 0.16 
-9.11 -3.43 -1.62 0.16 
-9.18 -3.25 -1.62 0.16 
-9.23 -3.08 -1.62 0.16 
-9.29 -2.90 -1.62 0.16 
-9.34 -2.73 -1.62 0.16 
-9.39 -2.55 -1.62 0.16 
-1.25 -0.31 -0.21 0.14 
-1.26 -0.29 -0.21 0.14 
-1.26 -0.27 -0.21 0.14 
-1.27 -0.24 -0.21 0.14 
-1.27 -0.22 -0.21 0.17 
-1.27 -0.19 -0.21 0.17 
-1.27 -0.17 -0.21 0.17 
-1.27 -0.14 -0.21 0.17 
-1.26 -0.12 -0.21 0.17 
-1.26 -0.10 -0.21 0.17 
-1.26 -0.07 -0.21 0.17 
-1.26 -0.05 -0.21 0.17 
-1.26 -0.02 -0.21 0.17 
-1.24 -0.00 -0.21 0.17 
-1.24 0.02 -0.21 0.17 
-1.23 0.05 -0.21 0.17 
-1.23 0.07 -0.21 0.17 
-1.23 0.09 -0.21 0.17 
-1.24 0.12 -0.21 0.17 
-1.24 0.14 -0.21 0.17 
-1.24 0.17 -0.21 0.17 
-1.24 0.19 -0.21 0.17 
-1.24 0.21 -0.21 0.17 
-1.24 0.24 -0.21 0.17 
-1.24 0.26 -0.21 0.17 
-1.24 0.29 -0.21 0.17 
-1.23 0.31 -0.21 0.17 
-1.23 0.33 -0.21 0.14 
-1.22 0.36 -0.21 0.14 
-1.22 0.38 -0.21 0.14 
-1.21 0.40 -0.21 0.14 
-1.20 0.43 -0.21 0.15 
-9.09 3.42 -1.63 0.16 
-9.03 3.59 -1.63 0.16 
-8.96 3.76 -1.63 0.16 
-8.89 3.93 -1.63 0.16 
-8.82 4.10 -1.63 0.16 
-8.74 4.27 -1.63 0.16 
-8.66 4.43 -1.63 0.16 
-8.58 4.60 -1.63 0.16 
-8.50 4.76 -1.63 0.16 
-8.41 4.93 -1.63 0.16 
-8.32 5.09 -1.64 0.16 
-8.22 5.24 -1.64 0.16 
-8.13 5.40 -1.64 0.16 
-8.03 5.56 -1.64 0.16 
-7.92 5.71 -1.64 0.16 
-7.82 5.86 -1.64 0.16 
-7.71 6.01 -1.64 0.16 
-7.60 6.16 -1.64 0.16 
-7.48 6.31 -1.64 0.16 
-7.37 6.45 -1.64 0.16 
-7.25 6.59 -1.64 0.16 
-7.13 6.73 -1.64 0.16 
-7.00 6.87 -1.64 0.16 
-6.87 7.00 -1.65 0.16 
-6.74 7.14 -1.65 0.16 
-6.61 7.27 -1.65 0.16 
-6.48 7.40 -1.65 0.16 
-6.34 7.52 -1.65 0.16 
-6.20 7.64 -1.65 0.16 
-6.06 7.76 -1.65 0.16 
-5.91 7.88 -1.65 0.16 
-5.76 8.00 -1.65 0.16 
-5.62 8.11 -1.65 0.16 
-5.46 8.22 -1.66 0.16 
-5.31 8.33 -1.66 0.16 
-5.16 8.43 -1.66 0.16 
-5.00 8.53 -1.66 0.16 
-4.84 8.63 -1.66 0.16 
-4.68 8.73 -1.66 0.16 
-4.51 8.82 -1.66 0.16 
-4.35 8.91 -1.66 0.16 
-4.18 9.00 -1.66 0.16 
-4.02 9.08 -1.66 0.16 
-3.85 9.16 -1.67 0.16 
-3.67 9.24 -1.67 0.16 
-3.50 9.31 -1.67 0.16 
-3.33 9.38 -1.67 0.16 
-3.15 9.45 -1.67 0.16 
-2.97 9.51 -1.67 0.16 
-0.88 3.03 -0.53 0.33 
-0.81 2.98 -0.52 0.55 
-0.74 2.94 -0.51 0.56 
-0.68 2.95 -0.51 0.95 
-0.62 2.96 -0.51 0.94 
-0.57 2.96 -0.51 0.94 
-0.51 2.96 -0.50 0.95 
-0.45 2.96 -0.50 0.95 
-0.39 2.96 -0.50 0.95 
-0.34 2.97 -0.50 0.96 
-0.28 2.97 -0.50 0.96 
-0.23 2.97 -0.50 0.96 
-0.17 2.98 -0.50 0.96 
-0.11 2.98 -0.50 0.97 
-0.06 2.99 -0.50 0.97 
-0.00 2.99 -0.50 0.96 
0.06 3.00 -0.50 0.96 
0.11 3.01 -0.51 0.90 
0.17 3.03 -0.51 0.89 
0.23 3.04 -0.51 0.89 
0.29 3.08 -0.52 0.53 
0.37 3.23 -0.54 0.07 
1.34 10.03 -1.70 0.16 
1.53 10.01 -1.70 0.16 
1.72 9.99 -1.70 0.16 
1.91 9.96 -1.70 0.16 
2.10 9.93 -1.70 0.16 
2.29 9.89 -1.70 0.16 
2.47 9.86 -1.70 0.16 
2.66 9.81 -1.71 0.16 
2.85 9.77 -1.71 0.16 
2.23 7.13 -1.25 0.25 
2.24 6.71 -1.19 0.36 
2.28 6.44 -1.15 0.61 
2.35 6.26 -1.12 0.53 
2.42 6.09 -1.10 0.75 
2.51 5.98 -1.09 0.97 
2.62 5.94 -1.09 0.87 
2.76 5.94 -1.10 0.86 
2.90 5.94 -1.11 0.86 
3.04 5.94 -1.12 0.85 
3.19 5.95 -1.13 0.84 
3.33 5.95 -1.14 0.83 
3.50 5.98 -1.16 0.84 
3.65 5.98 -1.17 0.81 
3.81 5.98 -1.19 0.80 
3.98 5.99 -1.21 0.79 
4.15 5.99 -1.22 0.77 
4.32 6.00 -1.24 0.76 
4.50 6.01 -1.26 0.74 
4.69 6.01 -1.28 0.74 
4.88 6.02 -1.30 0.72 
5.08 6.03 -1.32 0.72 
5.28 6.03 -1.35 0.69 
5.50 6.05 -1.37 0.68 
5.72 6.06 -1.40 0.63 
5.88 5.99 -1.41 0.67 
6.11 6.00 -1.44 0.65 
6.35 6.00 -1.47 0.64 
7.64 6.95 -1.73 0.15 
7.77 6.80 -1.73 0.15 
7.90 6.66 -1.73 0.15 
8.03 6.51 -1.73 0.15 
8.15 6.36 -1.73 0.15 
8.27 6.20 -1.73 0.15 
8.39 6.05 -1.73 0.15 
8.51 5.89 -1.74 0.15 
8.62 5.73 -1.74 0.15 
8.73 5.57 -1.74 0.15 
8.84 5.40 -1.74 0.15 
8.94 5.24 -1.74 0.15 
9.04 5.07 -1.74 0.15 
9.13 4.90 -1.74 0.15 
9.23 4.72 -1.74 0.15 
9.32 4.55 -1.74 0.15 
9.40 4.37 -1.74 0.15 
9.48 4.19 -1.74 0.15 
9.56 4.01 -1.74 0.15 
9.64 3.83 -1.74 0.15 
9.71 3.65 -1.74 0.15 
9.78 3.47 -1.74 0.15 
9.84 3.28 -1.74 0.15 
9.91 3.09 -1.74 0.15 
9.96 2.91 -1.74 0.15 
10.02 2.72 -1.74 0.15 
10.07 2.53 -1.74 0.15 
10.11 2.34 -1.74 0.15 
10.16 2.15 -1.74 0.15 
10.20 1.95 -1.74 0.15 
10.23 1.76 -1.74 0.15 
10.26 1.57 -1.74 0.15 
10.29 1.37 -1.74 0.15 
10.31 1.18 -1.74 0.15 
10.33 0.98 -1.74 0.15 
10.35 0.78 -1.74 0.15 
10.36 0.59 -1.74 0.15 
10.37 0.39 -1.74 0.15 
10.37 0.20 -1.74 0.15 
10.37 -0.00 -1.74 0.15 
10.37 -0.20 -1.74 0.15 
10.36 -0.39 -1.74 0.15 
10.35 -0.59 -1.74 0.15 
10.34 -0.78 -1.74 0.15 
10.32 -0.98 -1.74 0.15 
10.30 -1.17 -1.74 0.15 
10.27 -1.37 -1.74 0.15 
10.24 -1.56 -1.74 0.15 
10.21 -1.76 -1.74 0.15 
10.17 -1.95 -1.74 0.15 
10.13 -2.14 -1.74 0.15 
10.08 -2.33 -1.74 0.15 
10.03 -2.52 -1.74 0.15 
9.98 -2.71 -1.73 0.15 
9.92 -2.90 -1.73 0.15 
9.87 -3.08 -1.73 0.15 
9.80 -3.27 -1.73 0.15 
9.73 -3.45 -1.73 0.15 
9.66 -3.63 -1.73 0.15 
9.59 -3.81 -1.73 0.15 
9.51 -3.99 -1.73 0.15 
9.43 -4.17 -1.73 0.15 
9.35 -4.35 -1.73 0.15 
6.20 -3.03 -1.16 0.32 
5.92 -3.03 -1.12 0.53 
5.67 -3.04 -1.08 0.48 
5.43 -3.04 -1.04 0.49 
5.22 -3.06 -1.01 0.54 
5.02 -3.07 -0.99 0.61 
4.85 -3.09 -0.97 0.63 
4.70 -3.12 -0.95 0.67 
4.57 -3.17 -0.93 0.89 
4.50 -3.24 -0.93 0.89 
4.45 -3.33 -0.93 0.87 
4.41 -3.44 -0.94 0.78 
4.40 -3.56 -0.95 0.74 
4.38 -3.69 -0.96 0.76 
4.38 -3.83 -0.98 0.49 
7.57 -6.88 -1.72 0.16 
7.43 -7.02 -1.71 0.16 
7.29 -7.16 -1.71 0.16 
7.15 -7.29 -1.71 0.16 
7.00 -7.41 -1.71 0.17 
6.85 -7.53 -1.71 0.17 
6.69 -7.64 -1.70 0.17 
6.50 -7.72 -1.69 0.71 
6.25 -7.71 -1.66 0.73 
6.01 -7.71 -1.64 0.74 
5.77 -7.70 -1.61 0.75 
5.55 -7.69 -1.59 0.76 
5.33 -7.69 -1.57 0.80 
5.12 -7.70 -1.55 0.67 
4.96 -7.78 -1.55 0.16 
4.81 -7.86 -1.55 0.16 
4.66 -7.95 -1.54 0.16 
4.50 -8.03 -1.54 0.16 
4.35 -8.11 -1.54 0.16 
4.19 -8.18 -1.54 0.16 
4.03 -8.25 -1.54 0.16 
3.87 -8.32 -1.54 0.16 
3.71 -8.39 -1.54 0.16 
3.55 -8.45 -1.54 0.16 
3.39 -8.51 -1.54 0.16 
3.22 -8.57 -1.54 0.16 
3.06 -8.62 -1.53 0.16 
2.89 -8.67 -1.53 0.16 
2.72 -8.72 -1.53 0.16 
2.56 -8.77 -1.53 0.16 
2.39 -8.81 -1.53 0.16 
2.22 -8.84 -1.53 0.16 
2.05 -8.88 -1.53 0.16 
1.88 -8.91 -1.53 0.16 
1.71 -8.94 -1.53 0.16 
1.54 -8.96 -1.53 0.16 
1.37 -8.98 -1.52 0.16 
1.20 -9.00 -1.52 0.16 
1.03 -9.02 -1.52 0.16 
0.86 -9.03 -1.52 0.16 
0.69 -9.04 -1.52 0.16 
0.51 -9.04 -1.52 0.16 
0.34 -9.04 -1.52 0.16 
0.17 -9.04 -1.52 0.16 
-0.00 -9.04 -1.52 0.16 
-0.17 -9.03 -1.51 0.16 
-0.34 -9.02 -1.51 0.16 
-0.51 -9.01 -1.51 0.16 
-0.68 -8.99 -1.51 0.16 
-0.85 -8.97 -1.51 0.16 
-1.02 -8.95 -1.51 0.16 
-1.19 -8.92 -1.51 0.16 
-1.36 -8.89 -1.51 0.16 
-1.52 -8.86 -1.51 0.16 
-1.69 -8.82 -1.51 0.16 
-1.86 -8.78 -1.51 0.16 
-2.02 -8.74 -1.50 0.16 
-2.18 -8.69 -1.50 0.16 
-2.35 -8.65 -1.50 0.16 
-2.51 -8.60 -1.50 0.16 
-2.67 -8.54 -1.50 0.16 
-2.83 -8.48 -1.50 0.16 
-2.99 -8.42 -1.50 0.16 
-3.14 -8.36 -1.50 0.16 
-3.30 -8.30 -1.50 0.16 
-3.45 -8.23 -1.50 0.16 
-3.61 -8.16 -1.50 0.16 
-3.76 -8.08 -1.49 0.16 
-3.91 -8.00 -1.49 0.16 
-4.06 -7.93 -1.49 0.16 
-4.22 -7.88 -1.50 0.70 
-4.42 -7.88 -1.51 0.83 
-4.61 -7.88 -1.53 0.83 
-4.82 -7.88 -1.55 0.82 
-5.03 -7.88 -1.57 0.81 
-5.24 -7.88 -1.59 0.80 
-5.46 -7.88 -1.61 0.78 
-5.68 -7.88 -1.63 0.18 
-5.83 -7.77 -1.63 0.18 
-5.98 -7.67 -1.63 0.18 
-6.13 -7.56 -1.63 0.18 
-6.27 -7.45 -1.63 0.18 
-6.41 -7.32 -1.63 0.16 
-6.55 -7.20 -1.63 0.16 
-6.68 -7.07 -1.63 0.16 
-6.81 -6.94 -1.63 0.16 
-6.94 -6.81 -1.63 0.16 
-7.06 -6.67 -1.63 0.16 
-7.18 -6.53 -1.63 0.16 
-7.30 -6.40 -1.63 0.16 
-7.42 -6.25 -1.63 0.16 
-7.54 -6.11 -1.63 0.16 
-7.65 -5.96 -1.63 0.16 
-7.76 -5.82 -1.63 0.16 
-7.86 -5.67 -1.63 0.16 
-7.97 -5.52 -1.63 0.16 
-8.07 -5.36 -1.62 0.16 
-8.17 -5.21 -1.62 0.16 
-8.26 -5.05 -1.62 0.16 
-8.35 -4.89 -1.62 0.16 
-8.44 -4.73 -1.62 0.16 
-8.53 -4.57 -1.62 0.16 
-8.61 -4.41 -1.62 0.16 
-8.69 -4.24 -1.62 0.16 
-8.77 -4.08 -1.62 0.16 
-8.84 -3.91 -1.62 0.16 
-8.92 -3.74 -1.62 0.16 
-8.98 -3.57 -1.62 0.16 
-9.05 -3.40 -1.62 0.16 
-9.11 -3.23 -1.62 0.16 
-9.17 -3.06 -1.62 0.16 
-9.22 -2.88 -1.62 0.16 
-9.28 -2.71 -1.62 0.16 
-9.33 -2.53 -1.62 0.16 
-1.24 -0.31 -0.21 0.14 
-1.25 -0.29 -0.21 0.14 
-1.25 -0.26 -0.21 0.14 
-1.26 -0.24 -0.21 0.14 
-1.26 -0.22 -0.21 0.17 
-1.26 -0.19 -0.21 0.17 
-1.26 -0.17 -0.21 0.17 
-1.26 -0.14 -0.21 0.17 
-1.26 -0.12 -0.21 0.17 
-1.25 -0.10 -0.21 0.17 
-1.25 -0.07 -0.21 0.17 
-1.25 -0.05 -0.21 0.17 
-1.25 -0.02 -0.21 0.17 
-1.23 -0.00 -0.21 0.17 
-1.23 0.02 -0.21 0.17 
-1.23 0.05 -0.21 0.18 
-1.22 0.07 -0.21 0.17 
-1.23 0.09 -0.21 0.17 
-1.23 0.12 -0.21 0.17 
-1.23 0.14 -0.21 0.17 
-1.23 0.16 -0.21 0.17 
-1.23 0.19 -0.21 0.17 
-1.23 0.21 -0.21 0.17 
-1.23 0.24 -0.21 0.17 
-1.23 0.26 -0.21 0.17 
-1.23 0.28 -0.21 0.17 
-1.23 0.31 -0.21 0.17 
-1.22 0.33 -0.21 0.15 
-1.21 0.35 -0.21 0.15 
-1.21 0.38 -0.21 0.15 
-1.20 0.40 -0.21 0.15 
-1.19 0.42 -0.21 0.15 
-9.03 3.39 -1.63 0.17 
-8.96 3.56 -1.63 0.17 
-8.90 3.73 -1.63 0.16 
-8.83 3.90 -1.63 0.16 
-8.76 4.07 -1.63 0.16 
-8.68 4.24 -1.63 0.16 
-8.60 4.40 -1.63 0.16 
-8.52 4.57 -1.63 0.16 
-8.44 4.73 -1.63 0.16 
-8.35 4.89 -1.63 0.16 
-8.26 5.05 -1.64 0.16 
-8.17 5.21 -1.64 0.16 
-8.07 5.36 -1.64 0.16 
-7.97 5.52 -1.64 0.16 
-7.87 5.67 -1.64 0.16 
-7.76 5.82 -1.64 0.16 
-7.65 5.97 -1.64 0.16 
-7.54 6.12 -1.64 0.16 
-7.43 6.26 -1.64 0.16 
-7.31 6.40 -1.64 0.16 
-7.20 6.55 -1.64 0.16 
-7.07 6.68 -1.64 0.16 
-6.95 6.82 -1.65 0.16 
-6.82 6.95 -1.65 0.16 
-6.69 7.09 -1.65 0.16 
-6.56 7.22 -1.65 0.16 
-6.43 7.34 -1.65 0.16 
-6.29 7.47 -1.65 0.16 
-6.15 7.59 -1.65 0.16 
-6.01 7.71 -1.65 0.16 
-5.87 7.83 -1.65 0.16 
-5.72 7.94 -1.65 0.16 
-5.58 8.05 -1.65 0.16 
-5.43 8.16 -1.66 0.16 
-5.27 8.27 -1.66 0.16 
-5.12 8.37 -1.66 0.16 
-4.96 8.47 -1.66 0.16 
-4.80 8.57 -1.66 0.16 
-4.64 8.66 -1.66 0.16 
-4.48 8.76 -1.66 0.16 
-4.32 8.85 -1.66 0.16 
-4.15 8.93 -1.66 0.16 
-3.99 9.01 -1.67 0.16 
