VERSION 0.7
FIELDS x y z intensity
SIZE 4 4 4 8
TYPE F F F F
COUNT 1 1 1 1
WIDTH 1974
HEIGHT 1
VIEWPOINT 0.0 0.0 0.0 1.0 0.0 0.0 0.0
POINTS 1974
DATA ascii
-58.23 -77.65 25.88 0.53 
-8.13 -10.03 3.44 0.59 
-8.16 -9.69 3.38 0.66 
-8.14 -9.30 3.30 0.53 
-8.17 -8.65 3.17 0.37 
-8.15 -8.30 3.10 0.02 
-8.16 -8.01 3.05 0.48 
-47.14 10.89 12.84 0.66 
-45.40 11.40 12.42 0.57 
-46.95 12.74 12.91 0.68 
-46.42 13.54 12.83 0.67 
-45.97 14.36 12.78 0.79 
-45.40 15.13 12.70 0.74 
-57.85 28.24 17.08 0.51 
-56.91 29.13 16.97 0.72 
-56.67 30.37 17.06 0.62 
-15.60 10.37 4.97 0.77 
-26.70 30.49 10.76 0.77 
-26.27 31.18 10.82 0.76 
-25.88 31.92 10.91 0.75 
-19.15 26.57 8.69 0.75 
-18.81 27.17 8.77 0.76 
-18.46 27.77 8.85 0.73 
-7.15 13.34 4.02 0.89 
-6.90 13.48 4.02 0.89 
2.99 78.88 20.95 0.08 
4.47 78.64 20.90 0.69 
5.97 78.75 20.96 0.69 
7.48 78.86 21.02 0.69 
4.34 13.01 3.64 0.27 
4.35 12.27 3.45 0.34 
4.34 10.92 3.12 0.33 
5.92 13.38 3.88 0.88 
6.22 13.38 3.92 0.55 
24.93 9.37 7.07 0.84 
37.60 2.85 10.01 0.62 
51.45 -6.86 13.78 0.54 
49.22 -7.51 13.21 0.38 
50.03 -8.61 13.47 0.61 
51.15 -9.80 13.82 0.67 
51.14 -10.80 13.87 0.65 
53.79 -12.43 14.65 0.71 
50.79 -13.78 13.97 0.76 
57.89 -29.63 17.26 0.48 
57.52 -30.83 17.32 0.63 
56.18 -31.50 17.09 0.48 
56.22 -32.94 17.29 0.63 
54.64 -33.41 17.00 0.42 
11.84 -7.87 3.77 0.75 
11.82 -8.19 3.82 0.75 
11.84 -8.53 3.87 0.68 
11.85 -9.61 4.05 0.70 
11.87 -10.01 4.12 0.63 
11.86 -10.39 4.19 0.71 
23.41 -22.97 8.70 0.81 
28.22 -39.16 12.81 0.77 
27.50 -39.72 12.82 0.78 
27.28 -41.03 13.08 0.77 
-60.17 -117.54 35.04 0.47 
-62.65 -116.88 35.19 0.48 
-64.67 -101.39 31.92 0.49 
-64.75 -97.40 31.04 0.43 
-67.41 -97.36 31.43 0.43 
-56.81 -78.81 25.78 0.50 
-58.23 -77.65 25.76 0.53 
-8.14 -10.03 3.43 0.59 
-8.16 -9.69 3.36 0.66 
-8.14 -9.30 3.28 0.53 
-8.17 -8.65 3.16 0.37 
-8.13 -8.28 3.08 0.51 
-47.37 10.01 12.79 0.77 
-47.12 10.89 12.77 0.66 
-45.37 11.39 12.35 0.57 
-46.95 12.74 12.85 0.68 
-46.41 13.54 12.77 0.79 
-45.97 14.36 12.72 0.79 
-45.40 15.13 12.64 0.74 
-57.85 28.25 17.00 0.51 
-56.91 29.13 16.89 0.72 
-56.66 30.37 16.98 0.62 
-15.62 10.39 4.95 0.50 
-26.70 30.49 10.70 0.77 
-26.27 31.17 10.77 0.76 
-25.88 31.92 10.85 0.75 
-19.15 26.57 8.65 0.75 
-18.81 27.17 8.73 0.77 
-18.46 27.77 8.81 0.73 
-7.15 13.34 4.00 0.89 
-6.90 13.48 4.00 0.89 
2.99 78.88 20.85 0.08 
4.47 78.64 20.80 0.69 
5.97 78.75 20.86 0.69 
7.48 78.86 20.92 0.69 
4.34 13.01 3.62 0.27 
4.35 12.27 3.44 0.34 
5.92 13.38 3.86 0.88 
6.22 13.38 3.90 0.55 
24.93 9.37 7.03 0.84 
37.60 2.85 9.96 0.62 
51.42 -6.85 13.70 0.54 
50.06 -7.64 13.37 0.55 
50.00 -8.60 13.40 0.61 
51.15 -9.80 13.75 0.67 
51.14 -10.80 13.81 0.65 
53.84 -12.44 14.59 0.72 
50.80 -13.78 13.90 0.80 
57.83 -29.60 17.16 0.48 
57.54 -30.84 17.24 0.63 
56.25 -31.54 17.03 0.48 
56.26 -32.96 17.22 0.63 
54.74 -33.47 16.94 0.42 
11.84 -7.87 3.75 0.75 
11.82 -8.19 3.80 0.75 
11.84 -8.53 3.85 0.64 
11.85 -9.61 4.03 0.70 
11.87 -10.00 4.10 0.63 
11.86 -10.39 4.17 0.74 
23.41 -22.97 8.66 0.81 
28.22 -39.16 12.75 0.77 
27.50 -39.72 12.76 0.78 
27.29 -41.05 13.02 0.77 
-60.16 -117.52 34.87 0.47 
-62.64 -116.87 35.02 0.48 
-64.67 -101.39 31.76 0.49 
-67.34 -101.30 32.13 0.15 
-67.38 -97.32 31.26 0.43 
-56.81 -78.81 25.66 0.50 
-58.23 -77.65 25.63 0.53 
-60.53 -77.60 25.99 0.52 
-8.14 -10.03 3.41 0.59 
-8.16 -9.69 3.35 0.66 
-8.14 -9.30 3.26 0.53 
-8.17 -8.65 3.14 0.37 
-8.13 -8.29 3.07 0.70 
-47.09 10.88 12.70 0.66 
-45.34 11.39 12.29 0.57 
-46.95 12.74 12.79 0.68 
-46.42 13.54 12.71 0.79 
-45.97 14.36 12.66 0.74 
-45.40 15.13 12.58 0.74 
-57.85 28.25 16.92 0.51 
-56.91 29.13 16.80 0.72 
-56.65 30.37 16.89 0.62 
-15.63 10.39 4.93 0.77 
-15.60 10.80 4.99 0.58 
-26.70 30.49 10.65 0.77 
-26.27 31.17 10.71 0.76 
-25.88 31.92 10.80 0.75 
-19.15 26.57 8.61 0.75 
-18.81 27.17 8.68 0.77 
-18.46 27.77 8.76 0.73 
-7.15 13.34 3.98 0.90 
-6.90 13.48 3.98 0.89 
2.99 78.88 20.75 0.08 
4.47 78.64 20.70 0.69 
5.97 78.75 20.76 0.69 
7.48 78.86 20.82 0.69 
4.34 13.01 3.61 0.27 
4.35 12.26 3.42 0.34 
4.34 10.92 3.09 0.23 
5.92 13.38 3.85 0.88 
6.22 13.38 3.88 0.55 
21.07 7.92 5.92 0.49 
37.60 2.85 9.91 0.62 
51.38 -6.85 13.62 0.46 
50.07 -7.64 13.31 0.55 
49.98 -8.60 13.33 0.61 
51.15 -9.80 13.69 0.67 
51.14 -10.80 13.74 0.65 
53.88 -12.45 14.53 0.72 
50.82 -13.79 13.84 0.80 
57.76 -29.57 17.06 0.48 
57.57 -30.86 17.17 0.63 
56.32 -31.58 16.97 0.48 
56.30 -32.98 17.15 0.63 
56.36 -34.47 17.36 0.64 
11.84 -7.87 3.74 0.75 
11.82 -8.18 3.78 0.78 
11.84 -8.53 3.84 0.64 
11.85 -9.61 4.01 0.70 
11.87 -10.00 4.08 0.63 
11.87 -10.39 4.14 0.74 
23.41 -22.97 8.62 0.81 
28.22 -39.15 12.69 0.77 
27.50 -39.71 12.70 0.78 
27.29 -41.06 12.96 0.77 
-60.15 -117.50 34.69 0.47 
-62.64 -116.85 34.85 0.48 
-67.35 -101.32 31.98 0.33 
-67.37 -97.30 31.11 0.34 
-56.81 -78.81 25.53 0.51 
-58.23 -77.65 25.51 0.53 
-60.53 -77.60 25.87 0.52 
-8.14 -10.03 3.40 0.58 
-8.16 -9.69 3.33 0.66 
-8.14 -9.30 3.25 0.53 
-8.17 -8.65 3.13 0.37 
-8.14 -8.29 3.05 0.47 
-47.37 10.01 12.66 0.67 
-47.06 10.88 12.63 0.66 
-45.32 11.38 12.22 0.57 
-46.95 12.74 12.72 0.68 
-46.95 13.70 12.79 0.75 
-46.32 14.47 12.69 0.76 
-45.40 15.13 12.52 0.75 
-57.85 28.25 16.84 0.51 
-56.91 29.13 16.72 0.72 
-56.65 30.37 16.81 0.62 
-15.63 10.39 4.91 0.77 
-15.61 10.81 4.97 0.76 
-26.70 30.49 10.60 0.77 
-26.27 31.17 10.66 0.76 
-25.88 31.92 10.75 0.77 
-19.15 26.56 8.56 0.75 
-18.81 27.17 8.64 0.77 
-18.46 27.77 8.72 0.73 
-7.15 13.33 3.96 0.90 
-6.90 13.48 3.96 0.89 
7.48 78.86 20.72 0.69 
4.34 13.01 3.59 0.27 
4.35 12.26 3.40 0.35 
4.34 10.92 3.07 0.42 
5.92 13.38 3.83 0.88 
6.22 13.38 3.86 0.55 
21.07 7.92 5.89 0.83 
37.60 2.85 9.86 0.62 
51.34 -6.84 13.55 0.58 
50.09 -7.64 13.25 0.55 
49.95 -8.59 13.26 0.61 
51.15 -9.80 13.62 0.67 
51.14 -10.80 13.67 0.65 
53.92 -12.46 14.47 0.72 
50.84 -13.80 13.78 0.80 
57.74 -28.19 16.80 0.54 
57.70 -29.54 16.95 0.48 
57.59 -30.87 17.09 0.63 
56.40 -31.62 16.91 0.48 
56.34 -33.00 17.08 0.64 
56.41 -34.50 17.29 0.70 
11.84 -7.87 3.72 0.75 
11.82 -8.19 3.76 0.70 
11.84 -8.53 3.82 0.64 
11.85 -9.61 3.99 0.70 
11.87 -10.00 4.06 0.63 
11.87 -10.39 4.12 0.75 
23.41 -22.97 8.58 0.81 
28.22 -39.15 12.62 0.77 
27.50 -39.71 12.63 0.78 
27.30 -41.07 12.90 0.77 
-60.14 -117.48 34.52 0.47 
-62.63 -116.84 34.67 0.48 
-67.30 -101.24 31.80 0.51 
-67.37 -97.30 30.95 0.34 
-56.81 -78.81 25.41 0.51 
-58.23 -77.65 25.39 0.53 
-60.53 -77.60 25.74 0.52 
-8.14 -10.03 3.38 0.58 
-8.16 -9.69 3.31 0.66 
-8.14 -9.30 3.23 0.53 
-8.17 -8.65 3.11 0.37 
-47.35 10.00 12.60 0.67 
-47.04 10.87 12.57 0.66 
-45.29 11.37 12.15 0.57 
-46.95 12.74 12.66 0.68 
-46.96 13.70 12.73 0.75 
-46.34 14.48 12.64 0.76 
-45.39 15.13 12.45 0.75 
-45.76 16.22 12.64 0.39 
-57.85 28.25 16.76 0.51 
-56.91 29.13 16.64 0.72 
-56.64 30.36 16.73 0.62 
-15.64 10.39 4.89 0.77 
-15.64 10.83 4.95 0.77 
-15.61 11.25 5.01 0.53 
-26.70 30.49 10.55 0.77 
-26.26 31.17 10.61 0.76 
-25.89 31.92 10.70 0.77 
-19.12 26.52 8.51 0.62 
-18.81 27.17 8.60 0.77 
-18.46 27.77 8.68 0.74 
-7.15 13.33 3.94 0.90 
-6.90 13.48 3.94 0.89 
4.34 13.02 3.57 0.27 
4.35 12.26 3.39 0.35 
4.35 10.93 3.06 0.42 
5.92 13.38 3.81 0.88 
6.22 13.37 3.84 0.55 
21.12 7.94 5.87 0.14 
37.60 2.85 9.82 0.62 
51.31 -6.84 13.47 0.58 
49.79 -7.60 13.11 0.56 
49.92 -8.59 13.18 0.61 
51.16 -9.80 13.56 0.67 
51.14 -10.80 13.61 0.65 
53.96 -12.47 14.41 0.72 
57.69 -28.17 16.71 0.54 
57.65 -29.51 16.86 0.50 
57.61 -30.88 17.01 0.63 
56.56 -31.71 16.88 0.13 
56.38 -33.02 17.01 0.64 
56.46 -34.52 17.22 0.70 
11.84 -7.87 3.70 0.75 
11.82 -8.18 3.74 0.70 
11.84 -8.53 3.80 0.64 
11.85 -9.61 3.97 0.70 
11.87 -10.00 4.04 0.63 
11.87 -10.39 4.11 0.75 
23.41 -22.97 8.54 0.81 
28.22 -39.15 12.56 0.77 
27.50 -39.71 12.57 0.78 
27.31 -41.09 12.84 0.77 
-60.13 -117.46 34.35 0.47 
-62.62 -116.83 34.50 0.48 
-67.35 -101.32 31.67 0.33 
-67.37 -97.30 30.80 0.34 
-56.81 -78.81 25.29 0.51 
-58.23 -77.65 25.26 0.53 
-60.53 -77.60 25.62 0.52 
-8.14 -10.03 3.36 0.58 
-8.16 -9.69 3.30 0.66 
-8.14 -9.30 3.22 0.53 
-8.17 -8.65 3.10 0.37 
-47.33 10.00 12.53 0.67 
-47.31 10.93 12.58 0.49 
-45.26 11.37 12.09 0.57 
-46.95 12.74 12.60 0.68 
-46.35 14.48 12.58 0.76 
-45.40 15.13 12.40 0.76 
-45.84 16.25 12.60 0.39 
-57.85 28.25 16.67 0.51 
-56.91 29.13 16.56 0.72 
-56.64 30.36 16.64 0.62 
-15.64 10.39 4.86 0.72 
-15.64 10.83 4.93 0.77 
-15.61 11.25 4.98 0.53 
-26.70 30.49 10.50 0.77 
-26.26 31.16 10.56 0.76 
-25.89 31.93 10.65 0.77 
-19.13 26.54 8.47 0.79 
-18.80 27.16 8.56 0.09 
-18.46 27.77 8.64 0.74 
-7.15 13.33 3.92 0.90 
-6.90 13.48 3.92 0.90 
4.34 13.02 3.55 0.31 
4.35 12.26 3.37 0.36 
4.36 10.96 3.05 0.35 
5.92 13.38 3.79 0.88 
6.22 13.37 3.82 0.55 
24.94 9.37 6.90 0.84 
37.60 2.85 9.77 0.62 
51.29 -6.83 13.40 0.58 
49.74 -7.59 13.03 0.56 
51.16 -9.80 13.49 0.67 
51.15 -10.80 13.54 0.65 
54.00 -12.48 14.35 0.72 
57.65 -28.15 16.62 0.54 
57.59 -29.48 16.76 0.50 
57.64 -30.90 16.94 0.63 
56.75 -31.82 16.85 0.13 
56.42 -33.05 16.93 0.64 
58.42 -35.72 17.74 0.44 
11.84 -7.87 3.68 0.75 
11.82 -8.18 3.72 0.70 
11.84 -8.53 3.78 0.65 
11.85 -9.61 3.95 0.70 
11.87 -10.00 4.02 0.62 
11.87 -10.39 4.09 0.75 
23.41 -22.97 8.49 0.81 
28.22 -39.15 12.50 0.77 
27.49 -39.71 12.51 0.78 
27.32 -41.10 12.78 0.77 
-60.12 -117.44 34.17 0.47 
-62.62 -116.82 34.33 0.48 
-67.35 -101.32 31.51 0.33 
-67.37 -97.30 30.65 0.34 
-56.81 -78.81 25.16 0.51 
-58.23 -77.65 25.14 0.53 
-60.53 -77.60 25.49 0.52 
-8.14 -10.03 3.35 0.58 
-8.16 -9.69 3.28 0.66 
-8.14 -9.30 3.20 0.56 
-8.17 -8.65 3.08 0.37 
-47.31 9.99 12.46 0.67 
-47.26 10.92 12.50 0.67 
-45.24 11.36 12.02 0.57 
-46.95 12.74 12.54 0.68 
-45.42 15.14 12.34 0.76 
-45.08 15.98 12.33 0.13 
-57.85 28.25 16.59 0.51 
-56.82 29.09 16.45 0.19 
-56.63 30.36 16.56 0.62 
-15.64 10.40 4.84 0.73 
-15.65 10.83 4.90 0.77 
-15.61 11.25 4.96 0.53 
-26.70 30.49 10.44 0.77 
-26.26 31.17 10.50 0.76 
-25.89 31.93 10.59 0.77 
-18.78 27.12 8.50 0.79 
-18.46 27.77 8.59 0.74 
-7.15 13.33 3.90 0.90 
-6.90 13.48 3.90 0.90 
4.34 13.02 3.54 0.31 
4.35 12.26 3.35 0.36 
4.38 11.02 3.06 0.09 
5.92 13.38 3.77 0.88 
6.22 13.37 3.80 0.55 
24.94 9.38 6.87 0.84 
37.61 2.85 9.72 0.62 
49.69 -7.58 12.96 0.56 
51.16 -9.80 13.42 0.67 
51.15 -10.80 13.47 0.65 
54.04 -12.49 14.29 0.72 
57.54 -29.45 16.66 0.51 
57.66 -30.91 16.86 0.63 
56.93 -31.92 16.82 0.13 
56.46 -33.07 16.86 0.64 
58.68 -35.89 17.73 0.40 
11.84 -7.87 3.66 0.75 
11.82 -8.18 3.70 0.70 
11.84 -8.54 3.76 0.65 
11.85 -9.61 3.93 0.70 
11.86 -10.00 4.00 0.62 
11.87 -10.39 4.07 0.75 
23.41 -22.97 8.45 0.81 
28.21 -39.14 12.44 0.77 
27.49 -39.71 12.45 0.78 
27.33 -41.11 12.72 0.77 
-60.11 -117.42 34.00 0.47 
-62.61 -116.80 34.15 0.48 
-64.70 -101.44 31.01 0.52 
-67.36 -101.34 31.36 0.51 
-67.37 -97.30 30.50 0.34 
-56.81 -78.81 25.04 0.51 
-58.23 -77.65 25.02 0.53 
-60.53 -77.60 25.36 0.52 
-8.14 -10.03 3.33 0.58 
-8.16 -9.69 3.27 0.66 
-8.14 -9.30 3.19 0.56 
-8.13 -8.94 3.12 0.67 
-8.17 -8.65 3.07 0.37 
-47.29 9.99 12.40 0.67 
-47.24 10.92 12.43 0.67 
-45.21 11.35 11.95 0.57 
-46.95 12.74 12.48 0.68 
-45.44 15.15 12.28 0.76 
-57.72 28.18 16.47 0.51 
-57.11 29.23 16.45 0.19 
-56.62 30.35 16.48 0.62 
-15.64 10.40 4.82 0.73 
-15.65 10.84 4.88 0.77 
-15.63 11.26 4.94 0.49 
-26.70 30.49 10.39 0.77 
-26.27 31.17 10.45 0.74 
-25.89 31.93 10.54 0.77 
-18.79 27.14 8.47 0.49 
-18.45 27.75 8.54 0.61 
-7.15 13.33 3.88 0.90 
-6.90 13.48 3.88 0.90 
4.34 13.02 3.52 0.31 
4.35 12.26 3.34 0.36 
5.91 13.38 3.75 0.88 
6.22 13.37 3.78 0.55 
24.94 9.38 6.83 0.84 
37.61 2.85 9.67 0.63 
49.65 -7.57 12.88 0.56 
51.16 -9.80 13.36 0.67 
51.15 -10.80 13.41 0.65 
58.45 -29.92 16.84 0.66 
57.69 -30.92 16.79 0.63 
57.12 -32.03 16.79 0.13 
56.49 -33.09 16.79 0.60 
58.81 -35.96 17.68 0.40 
11.84 -7.87 3.64 0.75 
11.82 -8.18 3.69 0.70 
11.84 -8.54 3.74 0.65 
11.85 -9.61 3.91 0.70 
11.86 -10.00 3.98 0.62 
11.87 -10.39 4.05 0.69 
23.40 -22.97 8.41 0.81 
28.21 -39.14 12.37 0.77 
27.49 -39.70 12.38 0.78 
-60.10 -117.40 33.82 0.47 
-62.60 -116.79 33.98 0.48 
-63.46 -99.49 30.26 0.20 
-67.39 -101.37 31.22 0.51 
-56.80 -78.81 24.91 0.51 
-58.23 -77.65 24.89 0.53 
-60.53 -77.60 25.24 0.52 
-8.14 -10.03 3.31 0.58 
-8.16 -9.69 3.25 0.66 
-8.14 -9.30 3.17 0.51 
-8.13 -8.94 3.10 0.67 
-8.17 -8.65 3.05 0.37 
-47.27 9.99 12.33 0.67 
-47.21 10.91 12.37 0.67 
-45.19 11.35 11.89 0.48 
-46.95 12.74 12.41 0.68 
-47.64 15.88 12.81 0.49 
-57.94 28.29 16.45 0.18 
-57.23 29.30 16.41 0.72 
-56.62 30.35 16.39 0.62 
-15.64 10.40 4.79 0.73 
-15.65 10.84 4.86 0.77 
-15.61 11.71 4.98 0.74 
-26.70 30.49 10.34 0.77 
-26.27 31.17 10.40 0.74 
-25.89 31.93 10.49 0.76 
-18.44 27.74 8.50 0.78 
-7.15 13.33 3.86 0.90 
-6.90 13.47 3.86 0.90 
4.34 13.02 3.50 0.31 
4.35 12.26 3.32 0.36 
5.91 13.38 3.73 0.88 
6.22 13.37 3.76 0.55 
24.94 9.38 6.80 0.84 
37.61 2.85 9.62 0.63 
49.60 -7.57 12.80 0.56 
51.16 -9.80 13.29 0.67 
51.15 -10.80 13.34 0.65 
53.73 -13.49 14.14 0.56 
58.50 -29.95 16.77 0.66 
57.71 -30.93 16.71 0.63 
57.24 -32.09 16.74 0.48 
56.52 -33.11 16.71 0.60 
11.84 -7.87 3.63 0.75 
11.82 -8.18 3.67 0.70 
11.85 -8.54 3.73 0.65 
11.85 -9.61 3.89 0.70 
11.86 -10.00 3.96 0.61 
11.87 -10.39 4.03 0.69 
23.40 -22.96 8.37 0.81 
28.21 -39.14 12.31 0.77 
27.49 -39.70 12.32 0.79 
-60.09 -117.38 33.65 0.47 
-62.60 -116.78 33.81 0.48 
-63.33 -99.30 30.05 0.27 
-67.42 -101.41 31.07 0.51 
-56.80 -78.81 24.79 0.51 
-58.23 -77.65 24.77 0.53 
-60.53 -77.60 25.11 0.52 
-8.14 -10.03 3.30 0.60 
-8.16 -9.69 3.23 0.66 
-8.14 -9.30 3.15 0.51 
-8.13 -8.94 3.08 0.67 
-8.17 -8.65 3.04 0.37 
-47.25 9.98 12.26 0.67 
-47.19 10.90 12.30 0.67 
-45.16 11.34 11.82 0.48 
-46.95 12.74 12.35 0.68 
-47.89 15.96 12.82 0.42 
-58.24 28.43 16.45 0.18 
-57.23 29.30 16.33 0.74 
-56.61 30.35 16.31 0.62 
-15.64 10.40 4.77 0.73 
-15.66 10.84 4.83 0.79 
-15.63 11.72 4.96 0.48 
-26.70 30.49 10.29 0.77 
-26.27 31.17 10.35 0.74 
-25.89 31.93 10.44 0.76 
-18.46 27.76 8.46 0.49 
-7.14 13.33 3.84 0.90 
-6.90 13.47 3.84 0.90 
4.34 13.03 3.49 0.31 
4.35 12.26 3.30 0.36 
5.91 13.37 3.71 0.88 
6.22 13.37 3.74 0.55 
24.94 9.38 6.77 0.85 
37.61 2.85 9.58 0.63 
49.55 -7.56 12.73 0.56 
51.16 -9.80 13.23 0.67 
51.15 -10.80 13.27 0.65 
53.81 -13.51 14.09 0.56 
58.56 -29.98 16.70 0.66 
57.99 -31.08 16.71 0.37 
57.31 -32.13 16.68 0.56 
56.55 -33.12 16.64 0.60 
11.84 -7.87 3.61 0.75 
11.82 -8.18 3.65 0.70 
11.85 -8.54 3.71 0.65 
11.85 -9.61 3.88 0.70 
11.86 -10.00 3.94 0.61 
11.87 -10.39 4.01 0.69 
23.40 -22.96 8.32 0.81 
28.21 -39.14 12.25 0.77 
27.49 -39.70 12.26 0.79 
-62.59 -116.76 33.64 0.48 
-67.44 -101.45 30.93 0.51 
-56.80 -78.81 24.67 0.51 
-58.23 -77.65 24.64 0.53 
-60.53 -77.60 24.99 0.52 
-8.14 -10.03 3.28 0.60 
-8.16 -9.69 3.22 0.66 
-8.14 -9.30 3.14 0.51 
-8.13 -8.94 3.07 0.68 
-8.17 -8.65 3.02 0.37 
-18.14 -7.62 5.00 0.68 
-47.23 9.98 12.19 0.67 
-47.17 10.90 12.23 0.67 
-45.14 11.34 11.76 0.48 
-46.95 12.74 12.29 0.68 
-47.97 15.99 12.78 0.42 
-58.30 28.46 16.39 0.51 
-57.25 29.31 16.25 0.74 
-56.61 30.34 16.23 0.63 
-15.65 10.40 4.75 0.73 
-15.66 10.84 4.81 0.79 
-15.64 12.20 5.01 0.06 
-26.70 30.49 10.24 0.77 
-26.27 31.17 10.30 0.74 
-25.89 31.93 10.39 0.76 
-7.14 13.33 3.82 0.90 
-6.90 13.47 3.82 0.90 
4.34 13.03 3.47 0.31 
4.35 12.26 3.29 0.36 
5.91 13.37 3.69 0.89 
6.22 13.37 3.72 0.55 
24.95 9.38 6.73 0.85 
37.61 2.85 9.53 0.63 
49.51 -7.55 12.65 0.56 
51.17 -9.80 13.16 0.67 
51.15 -10.80 13.21 0.65 
57.93 -31.05 16.60 0.37 
57.39 -32.17 16.62 0.56 
56.57 -33.14 16.56 0.60 
11.84 -7.87 3.59 0.76 
11.82 -8.18 3.63 0.70 
11.85 -8.54 3.69 0.65 
11.85 -9.61 3.86 0.70 
11.86 -9.99 3.92 0.61 
11.87 -10.39 3.99 0.69 
23.40 -22.96 8.28 0.81 
27.49 -39.70 12.20 0.79 
32.90 -82.72 22.49 0.56 
-62.58 -116.75 33.47 0.48 
-67.47 -101.49 30.79 0.51 
-56.80 -78.81 24.54 0.51 
-58.23 -77.65 24.52 0.53 
-60.53 -77.60 24.86 0.52 
-8.14 -10.03 3.26 0.60 
-8.16 -9.69 3.20 0.66 
-8.14 -9.30 3.12 0.51 
-8.13 -8.94 3.05 0.68 
-8.17 -8.65 3.00 0.37 
-18.14 -7.61 4.97 0.85 
-69.26 11.91 17.66 0.34 
-47.21 9.97 12.13 0.67 
-47.14 10.89 12.16 0.68 
-45.12 11.33 11.69 0.48 
-46.96 12.74 12.23 0.68 
-48.12 16.04 12.75 0.72 
-58.31 28.47 16.31 0.54 
-57.26 29.31 16.17 0.74 
-56.60 30.34 16.14 0.63 
-15.65 10.40 4.72 0.73 
-15.66 10.84 4.79 0.79 
-15.62 12.18 4.98 0.73 
-26.70 30.49 10.19 0.78 
-26.27 31.17 10.25 0.74 
-25.89 31.93 10.33 0.76 
-7.14 13.33 3.80 0.90 
-6.90 13.47 3.80 0.90 
4.34 13.03 3.45 0.31 
4.35 12.26 3.27 0.36 
4.32 11.48 3.08 0.22 
5.91 13.37 3.68 0.89 
6.21 13.36 3.70 0.55 
24.95 9.38 6.70 0.85 
37.61 2.85 9.48 0.63 
49.46 -7.55 12.58 0.56 
51.17 -9.80 13.10 0.67 
51.15 -10.81 13.14 0.65 
57.86 -31.02 16.50 0.37 
57.47 -32.22 16.56 0.56 
56.60 -33.16 16.49 0.60 
11.84 -7.87 3.57 0.76 
11.81 -8.18 3.61 0.70 
11.85 -8.54 3.67 0.65 
11.85 -9.61 3.84 0.70 
11.86 -9.99 3.90 0.61 
11.87 -10.39 3.97 0.72 
23.40 -22.96 8.24 0.81 
27.49 -39.70 12.14 0.79 
36.36 -82.23 22.60 0.57 
32.93 -82.81 22.40 0.56 
-62.58 -116.74 33.29 0.48 
-67.49 -101.53 30.64 0.51 
-56.80 -78.81 24.42 0.51 
-58.23 -77.65 24.40 0.53 
-60.52 -77.60 24.74 0.52 
-8.14 -10.03 3.25 0.60 
-8.16 -9.69 3.18 0.56 
-8.14 -9.30 3.11 0.51 
-8.13 -8.94 3.04 0.68 
-8.17 -8.65 2.99 0.37 
-18.13 -8.02 4.98 0.67 
-18.16 -7.62 4.95 0.53 
-69.40 11.94 17.61 0.34 
-47.18 9.97 12.06 0.54 
-47.12 10.89 12.09 0.68 
-45.10 11.32 11.63 0.48 
-46.96 12.74 12.17 0.68 
-48.15 16.05 12.69 0.72 
-58.34 28.48 16.24 0.54 
-57.28 29.32 16.09 0.74 
-56.59 30.34 16.06 0.63 
-15.65 10.40 4.70 0.73 
-15.66 10.84 4.76 0.77 
-15.64 12.19 4.96 0.47 
-26.70 30.49 10.14 0.78 
-26.27 31.18 10.20 0.74 
-25.89 31.93 10.28 0.76 
-7.14 13.33 3.78 0.90 
-6.90 13.47 3.78 0.90 
4.34 13.03 3.44 0.31 
4.35 12.26 3.25 0.36 
4.32 11.49 3.07 0.40 
5.91 13.37 3.66 0.89 
6.21 13.36 3.69 0.55 
24.95 9.38 6.67 0.85 
37.61 2.85 9.43 0.63 
49.42 -7.54 12.50 0.62 
51.17 -9.80 13.03 0.67 
51.15 -10.81 13.07 0.65 
57.80 -30.98 16.40 0.48 
57.55 -32.27 16.50 0.56 
56.63 -33.17 16.41 0.60 
57.15 -34.95 16.75 0.43 
11.84 -7.87 3.55 0.76 
11.81 -8.18 3.59 0.70 
11.85 -8.54 3.65 0.65 
11.85 -9.61 3.82 0.70 
11.86 -9.99 3.88 0.61 
11.87 -10.39 3.95 0.72 
23.40 -22.96 8.20 0.81 
27.48 -39.69 12.07 0.79 
36.40 -82.32 22.51 0.57 
32.97 -82.91 22.31 0.56 
-62.57 -116.72 33.12 0.48 
-67.52 -101.57 30.50 0.51 
-56.80 -78.81 24.30 0.51 
-58.23 -77.65 24.27 0.53 
-60.52 -77.60 24.61 0.52 
-8.14 -10.03 3.23 0.60 
-8.16 -9.69 3.17 0.56 
-8.12 -9.27 3.08 0.48 
-8.15 -8.96 3.03 0.45 
-8.17 -8.65 2.97 0.37 
-18.05 -8.81 5.02 0.72 
-18.14 -8.02 4.96 0.84 
-18.16 -7.62 4.92 0.78 
-69.53 11.96 17.56 0.46 
-47.11 9.95 11.98 0.48 
-47.09 10.88 12.03 0.68 
-49.98 12.55 12.82 0.63 
-46.96 12.74 12.11 0.68 
-48.19 16.06 12.64 0.72 
-58.36 28.49 16.16 0.54 
-57.30 29.33 16.02 0.74 
-56.59 30.33 15.98 0.63 
-15.65 10.40 4.68 0.66 
-15.66 10.84 4.74 0.77 
-15.64 12.20 4.94 0.71 
-15.65 12.69 5.01 0.06 
-26.70 30.49 10.08 0.78 
-26.27 31.18 10.14 0.75 
-25.89 31.93 10.23 0.76 
-7.14 13.33 3.76 0.90 
-6.90 13.47 3.77 0.90 
4.34 13.03 3.42 0.31 
4.34 12.26 3.24 0.36 
5.91 13.37 3.64 0.89 
6.21 13.36 3.67 0.55 
21.20 8.43 5.68 0.48 
24.95 9.38 6.63 0.85 
37.61 2.85 9.39 0.63 
49.40 -7.54 12.43 0.62 
51.17 -9.80 12.96 0.67 
51.15 -10.81 13.01 0.65 
57.77 -30.97 16.31 0.48 
56.66 -33.19 16.34 0.60 
57.07 -34.90 16.64 0.43 
11.84 -7.87 3.54 0.76 
11.82 -8.18 3.58 0.67 
11.85 -8.54 3.64 0.65 
11.85 -9.61 3.80 0.70 
11.86 -9.99 3.86 0.61 
11.87 -10.39 3.93 0.72 
55.40 -50.39 18.63 0.36 
23.40 -22.96 8.16 0.81 
27.48 -39.69 12.01 0.79 
36.44 -82.41 22.42 0.57 
33.01 -83.00 22.23 0.56 
-62.56 -116.71 32.95 0.48 
-67.54 -101.61 30.36 0.51 
-56.80 -78.81 24.17 0.51 
-58.23 -77.65 24.15 0.53 
-60.52 -77.60 24.49 0.52 
-8.14 -10.03 3.21 0.60 
-8.16 -9.69 3.15 0.56 
-8.12 -9.27 3.07 0.66 
-8.17 -8.65 2.96 0.37 
-18.07 -8.82 5.00 0.22 
-18.13 -8.43 4.97 0.84 
-18.14 -8.02 4.94 0.80 
-18.15 -7.62 4.90 0.83 
-69.60 11.97 17.48 0.46 
-47.04 9.94 11.90 0.49 
-47.07 10.88 11.96 0.68 
-50.01 12.56 12.76 0.63 
-46.96 12.74 12.04 0.68 
-48.23 16.08 12.58 0.72 
-58.38 28.50 16.08 0.54 
-57.31 29.34 15.94 0.74 
-56.58 30.33 15.89 0.63 
-15.65 10.40 4.65 0.66 
-15.66 10.84 4.72 0.77 
-15.64 12.20 4.91 0.71 
-15.62 12.67 4.98 0.72 
-26.70 30.49 10.03 0.78 
-26.28 31.18 10.09 0.75 
-25.89 31.93 10.18 0.76 
-7.14 13.33 3.74 0.90 
-6.89 13.47 3.75 0.90 
4.34 13.04 3.40 0.29 
4.34 12.26 3.22 0.36 
5.91 13.37 3.62 0.89 
6.21 13.36 3.65 0.55 
21.20 8.43 5.65 0.83 
24.95 9.38 6.60 0.85 
37.61 2.85 9.34 0.63 
49.37 -7.53 12.36 0.62 
51.17 -9.80 12.90 0.67 
51.15 -10.81 12.94 0.65 
57.75 -30.95 16.22 0.48 
56.68 -33.20 16.26 0.60 
56.98 -34.85 16.53 0.43 
11.83 -7.87 3.52 0.76 
11.82 -8.18 3.56 0.67 
11.86 -8.55 3.62 0.65 
11.85 -9.61 3.78 0.70 
11.85 -9.99 3.84 0.61 
11.87 -10.39 3.91 0.72 
55.51 -50.49 18.57 0.36 
23.40 -22.96 8.11 0.81 
27.48 -39.69 11.95 0.79 
36.48 -82.49 22.33 0.58 
-62.55 -116.70 32.78 0.48 
-64.32 -96.75 28.76 0.44 
-56.80 -78.81 24.05 0.51 
-58.23 -77.65 24.03 0.53 
-60.52 -77.60 24.36 0.52 
-8.14 -10.03 3.20 0.58 
-8.16 -9.68 3.14 0.56 
-8.13 -9.28 3.05 0.45 
-8.17 -8.65 2.94 0.37 
-18.16 -8.87 5.00 0.22 
-18.14 -8.44 4.95 0.52 
-18.14 -8.02 4.91 0.80 
-18.15 -7.62 4.87 0.83 
-69.67 11.98 17.41 0.46 
-46.98 9.92 11.83 0.49 
-47.04 10.87 11.89 0.68 
-50.04 12.57 12.71 0.63 
-46.96 12.74 11.98 0.68 
-48.26 16.09 12.53 0.77 
-58.40 28.51 16.01 0.54 
-57.33 29.35 15.86 0.74 
-56.58 30.33 15.81 0.63 
-15.65 10.40 4.63 0.66 
-15.66 10.84 4.69 0.77 
-15.65 12.20 4.89 0.71 
-15.64 12.68 4.96 0.46 
-26.70 30.49 9.98 0.78 
-26.28 31.18 10.04 0.75 
-25.89 31.93 10.12 0.76 
-7.14 13.32 3.72 0.90 
-6.89 13.47 3.73 0.90 
4.34 13.04 3.38 0.29 
4.34 12.26 3.20 0.36 
5.91 13.37 3.60 0.89 
6.21 13.36 3.63 0.55 
21.23 8.44 5.63 0.64 
24.95 9.38 6.57 0.85 
37.61 2.85 9.29 0.63 
51.18 -9.80 12.83 0.67 
51.16 -10.81 12.88 0.66 
57.72 -30.94 16.13 0.48 
58.23 -32.65 16.44 0.32 
56.71 -33.22 16.19 0.60 
56.90 -34.80 16.43 0.43 
56.46 -36.01 16.49 0.43 
11.83 -7.87 3.50 0.76 
11.82 -8.18 3.54 0.67 
11.86 -8.55 3.60 0.65 
11.85 -9.61 3.76 0.70 
11.85 -9.99 3.82 0.62 
11.87 -10.39 3.89 0.72 
55.98 -50.92 18.64 0.41 
55.41 -52.35 18.77 0.09 
23.39 -22.96 8.07 0.81 
27.48 -39.69 11.89 0.79 
36.50 -82.55 22.23 0.58 
-60.00 -117.22 32.43 0.15 
-62.55 -116.69 32.61 0.48 
-56.80 -78.81 23.93 0.51 
-58.23 -77.65 23.90 0.53 
-60.52 -77.60 24.24 0.52 
-8.13 -10.03 3.18 0.58 
-8.16 -9.68 3.12 0.56 
-8.17 -8.65 2.93 0.37 
-18.05 -8.81 4.95 0.72 
-18.15 -8.44 4.93 0.78 
-18.13 -8.02 4.88 0.80 
-18.15 -7.62 4.85 0.83 
-69.74 11.99 17.34 0.46 
-46.92 9.91 11.75 0.49 
-47.02 10.87 11.82 0.68 
-50.08 12.57 12.65 0.63 
-46.96 12.74 11.92 0.68 
-48.31 16.10 12.48 0.63 
-58.42 28.52 15.93 0.54 
-57.34 29.35 15.78 0.74 
-56.57 30.32 15.73 0.63 
-15.65 10.40 4.60 0.66 
-15.66 10.84 4.67 0.77 
-15.65 12.20 4.86 0.71 
-15.65 12.69 4.94 0.70 
-26.70 30.49 9.93 0.78 
-26.28 31.19 9.99 0.75 
-25.89 31.93 10.07 0.76 
-7.14 13.32 3.70 0.90 
-6.89 13.47 3.71 0.90 
4.34 13.03 3.37 0.30 
4.34 12.26 3.19 0.36 
5.91 13.37 3.58 0.89 
6.21 13.36 3.61 0.55 
24.95 9.38 6.53 0.85 
37.61 2.85 9.24 0.63 
51.18 -9.80 12.77 0.67 
51.16 -10.81 12.81 0.66 
60.48 -30.96 16.65 0.54 
57.70 -30.93 16.04 0.48 
58.03 -32.53 16.30 0.27 
56.74 -33.24 16.11 0.65 
56.86 -34.77 16.33 0.65 
56.38 -35.96 16.39 0.43 
11.83 -7.87 3.48 0.76 
11.82 -8.18 3.52 0.67 
11.86 -8.55 3.58 0.65 
11.85 -9.61 3.74 0.70 
11.85 -9.99 3.80 0.62 
11.87 -10.39 3.87 0.72 
56.06 -50.99 18.57 0.41 
55.69 -52.62 18.77 0.64 
23.39 -22.95 8.03 0.81 
27.48 -39.69 11.83 0.79 
36.53 -82.60 22.13 0.58 
-59.77 -122.42 33.38 0.23 
-59.68 -116.58 32.09 0.50 
-62.54 -116.67 32.43 0.48 
-64.05 -96.36 28.35 0.50 
-67.01 -96.78 28.84 0.44 
-56.80 -78.81 23.80 0.51 
-58.23 -77.65 23.78 0.53 
-60.52 -77.60 24.11 0.52 
-8.13 -10.03 3.16 0.58 
-8.12 -9.63 3.09 0.47 
-8.17 -8.65 2.91 0.37 
-18.12 -9.28 4.99 0.65 
-18.05 -8.81 4.92 0.72 
-18.15 -8.44 4.90 0.77 
-18.13 -8.02 4.86 0.80 
-18.15 -7.62 4.82 0.83 
-69.80 12.01 17.26 0.46 
-47.51 10.04 11.84 0.76 
-47.00 10.86 11.76 0.68 
-50.11 12.58 12.59 0.63 
-46.96 12.74 11.86 0.68 
-48.36 16.12 12.43 0.63 
-58.44 28.54 15.85 0.54 
-57.15 29.26 15.65 0.66 
-56.56 30.32 15.64 0.63 
-15.65 10.40 4.58 0.66 
-15.66 10.84 4.64 0.77 
-15.65 12.20 4.84 0.69 
-15.65 12.69 4.91 0.70 
-26.70 30.49 9.88 0.78 
-26.28 31.19 9.94 0.75 
-25.89 31.93 10.02 0.76 
-7.14 13.32 3.68 0.90 
-6.89 13.47 3.69 0.41 
4.34 13.03 3.35 0.32 
4.34 12.26 3.17 0.36 
5.91 13.37 3.56 0.89 
6.21 13.36 3.59 0.55 
24.96 9.38 6.50 0.85 
37.62 2.85 9.19 0.63 
51.18 -9.80 12.70 0.67 
51.16 -10.81 12.74 0.66 
60.42 -30.93 16.54 0.37 
57.67 -30.91 15.95 0.48 
56.62 -31.74 15.82 0.09 
57.32 -33.58 16.19 0.75 
57.37 -35.08 16.39 0.76 
56.72 -36.18 16.40 0.76 
11.83 -7.87 3.46 0.76 
11.82 -8.18 3.50 0.67 
11.86 -8.55 3.56 0.65 
11.85 -9.61 3.72 0.70 
11.85 -9.99 3.78 0.64 
11.87 -10.40 3.85 0.72 
56.14 -51.06 18.50 0.41 
55.73 -52.65 18.69 0.64 
23.39 -22.95 7.99 0.81 
27.48 -39.68 11.77 0.79 
36.55 -82.65 22.03 0.58 
-59.75 -122.38 33.20 0.23 
-59.68 -116.58 31.92 0.50 
-62.53 -116.66 32.26 0.48 
-62.60 -98.15 28.38 0.33 
-64.05 -96.36 28.20 0.50 
-68.17 -98.46 29.19 0.30 
-56.80 -78.81 23.68 0.51 
-58.23 -77.65 23.66 0.53 
-60.52 -77.60 23.99 0.52 
-8.13 -10.03 3.15 0.60 
-8.11 -9.63 3.07 0.64 
-8.17 -8.64 2.90 0.37 
-18.12 -9.28 4.96 0.82 
-18.15 -8.44 4.88 0.77 
-18.13 -8.02 4.83 0.80 
-18.15 -7.62 4.80 0.83 
-69.87 12.02 17.19 0.46 
-47.38 9.07 11.70 0.77 
-47.52 10.04 11.78 0.76 
-46.97 10.85 11.69 0.68 
-50.14 12.59 12.54 0.63 
-46.96 12.74 11.80 0.68 
-58.47 28.55 15.78 0.54 
-57.15 29.26 15.57 0.41 
-56.56 30.32 15.56 0.63 
-15.65 10.40 4.56 0.66 
-15.65 10.84 4.62 0.77 
-15.65 12.21 4.81 0.69 
-15.65 12.69 4.89 0.72 
-26.70 30.49 9.83 0.78 
-26.29 31.19 9.89 0.75 
-25.89 31.93 9.97 0.76 
-7.14 13.32 3.67 0.90 
-6.89 13.47 3.67 0.41 
4.34 13.04 3.33 0.32 
4.35 12.26 3.15 0.36 
5.91 13.36 3.54 0.89 
6.21 13.35 3.57 0.55 
24.96 9.38 6.47 0.85 
37.62 2.85 9.15 0.63 
51.18 -9.80 12.64 0.67 
51.16 -10.81 12.68 0.47 
60.31 -30.88 16.43 0.37 
58.69 -31.46 16.15 0.52 
56.23 -31.52 15.63 0.09 
57.55 -33.71 16.17 0.65 
57.39 -35.09 16.31 0.76 
56.74 -36.19 16.32 0.76 
11.83 -7.87 3.45 0.76 
11.82 -8.18 3.49 0.67 
11.86 -8.55 3.55 0.65 
11.85 -9.61 3.70 0.70 
11.85 -9.99 3.76 0.64 
11.87 -10.40 3.83 0.72 
56.22 -51.13 18.43 0.41 
55.77 -52.69 18.60 0.64 
23.39 -22.95 7.95 0.81 
27.48 -39.68 11.70 0.79 
-59.73 -122.34 33.01 0.23 
-59.68 -116.58 31.76 0.50 
-62.51 -116.61 32.08 0.49 
-62.60 -98.15 28.23 0.33 
-64.05 -96.36 28.06 0.50 
-56.80 -78.81 23.56 0.51 
-58.23 -77.65 23.54 0.53 
-60.52 -77.60 23.86 0.52 
-8.13 -10.03 3.13 0.60 
-8.12 -9.64 3.06 0.64 
-8.17 -8.64 2.88 0.37 
-18.11 -9.71 4.98 0.65 
-18.15 -9.29 4.94 0.79 
-18.15 -8.44 4.85 0.77 
-18.12 -8.01 4.81 0.80 
-18.14 -7.62 4.77 0.83 
-69.94 12.03 17.12 0.45 
-47.41 9.08 11.64 0.74 
-47.35 10.00 11.67 0.50 
-47.63 11.01 11.79 0.44 
-50.18 12.60 12.48 0.63 
-46.96 12.74 11.74 0.68 
-58.50 28.56 15.70 0.53 
-57.45 29.41 15.57 0.70 
-56.55 30.31 15.48 0.63 
-15.65 10.40 4.53 0.66 
-15.65 10.84 4.59 0.78 
-15.65 12.21 4.79 0.69 
-15.65 12.69 4.86 0.72 
-26.69 30.49 9.77 0.79 
-26.29 31.20 9.84 0.75 
-25.89 31.93 9.92 0.76 
-7.14 13.32 3.65 0.90 
-6.89 13.47 3.65 0.41 
4.35 13.04 3.31 0.32 
4.35 12.26 3.14 0.36 
5.91 13.36 3.52 0.89 
6.21 13.35 3.55 0.55 
24.96 9.38 6.43 0.85 
37.62 2.85 9.10 0.63 
51.18 -9.80 12.57 0.67 
51.19 -10.81 12.62 0.47 
59.23 -30.32 16.05 0.51 
57.86 -31.01 15.83 0.33 
55.96 -31.37 15.48 0.67 
57.53 -33.70 16.08 0.65 
57.41 -35.11 16.23 0.76 
56.76 -36.20 16.24 0.76 
11.83 -7.87 3.43 0.76 
11.82 -8.18 3.47 0.67 
11.87 -8.55 3.53 0.65 
11.85 -9.61 3.68 0.70 
11.85 -9.99 3.74 0.64 
11.87 -10.40 3.81 0.72 
56.40 -51.30 18.39 0.05 
55.81 -52.73 18.52 0.64 
23.39 -22.95 7.90 0.81 
27.48 -39.68 11.64 0.79 
-59.71 -122.30 32.83 0.23 
-62.51 -116.61 31.92 0.49 
-62.60 -98.15 28.08 0.33 
-66.73 -96.37 28.27 0.49 
-56.80 -78.81 23.43 0.51 
-58.23 -77.65 23.41 0.53 
-60.52 -77.60 23.74 0.52 
-8.13 -10.03 3.11 0.60 
-8.14 -9.66 3.05 0.44 
-8.17 -8.64 2.87 0.37 
-18.12 -9.71 4.96 0.81 
-18.14 -9.29 4.92 0.79 
-18.15 -8.44 4.83 0.77 
-18.12 -8.01 4.78 0.80 
-18.14 -7.62 4.75 0.83 
-70.00 12.04 17.04 0.45 
-47.44 9.09 11.59 0.74 
-47.30 9.99 11.60 0.50 
-50.21 12.61 12.42 0.63 
-46.96 12.74 11.68 0.68 
-58.55 28.59 15.64 0.53 
-57.49 29.43 15.50 0.70 
-56.55 30.31 15.39 0.63 
-15.65 10.40 4.51 0.66 
-15.65 10.84 4.57 0.76 
-15.65 12.21 4.76 0.70 
-15.65 12.69 4.83 0.72 
-26.69 30.49 9.72 0.79 
-26.29 31.20 9.79 0.74 
-25.89 31.93 9.86 0.76 
-7.14 13.32 3.63 0.90 
-6.89 13.47 3.63 0.41 
4.35 13.04 3.30 0.32 
4.35 12.26 3.12 0.36 
5.91 13.36 3.51 0.89 
6.21 13.35 3.53 0.55 
24.96 9.38 6.40 0.85 
37.62 2.85 9.05 0.63 
51.19 -9.80 12.51 0.67 
51.22 -10.82 12.56 0.47 
60.11 -30.77 16.20 0.37 
57.76 -30.96 15.72 0.39 
55.95 -31.37 15.39 0.67 
57.50 -33.68 15.99 0.65 
56.76 -36.21 16.16 0.70 
11.83 -7.87 3.41 0.76 
11.82 -8.18 3.45 0.67 
11.87 -8.55 3.51 0.65 
11.85 -9.61 3.66 0.70 
11.85 -9.99 3.72 0.64 
11.87 -10.40 3.79 0.72 
56.69 -51.57 18.39 0.54 
55.85 -52.76 18.43 0.64 
23.39 -22.95 7.86 0.81 
27.47 -39.68 11.58 0.79 
-59.72 -122.31 32.66 0.51 
-62.51 -116.61 31.75 0.49 
-65.40 -116.65 32.09 0.49 
-66.73 -96.37 28.13 0.49 
-56.80 -78.81 23.31 0.51 
-58.23 -77.65 23.29 0.53 
-60.52 -77.60 23.61 0.52 
-8.11 -10.01 3.09 0.46 
-8.17 -8.64 2.85 0.37 
-18.11 -10.15 4.98 0.64 
-18.14 -9.72 4.94 0.78 
-18.14 -9.29 4.89 0.79 
-18.15 -8.44 4.80 0.77 
-18.12 -8.01 4.75 0.81 
-18.14 -7.62 4.72 0.87 
-70.07 12.05 16.97 0.45 
-47.48 9.09 11.54 0.74 
-47.25 9.98 11.53 0.50 
-50.25 12.62 12.37 0.63 
-46.96 12.74 11.62 0.68 
-58.61 28.62 15.57 0.52 
-57.53 29.45 15.43 0.70 
-56.54 30.31 15.31 0.63 
-15.65 10.40 4.48 0.72 
-15.65 10.83 4.54 0.76 
-15.65 12.21 4.74 0.70 
-15.65 12.69 4.81 0.72 
-26.69 30.49 9.67 0.79 
-26.29 31.20 9.74 0.78 
-25.89 31.93 9.81 0.76 
-7.14 13.32 3.61 0.90 
-6.89 13.47 3.61 0.41 
4.35 13.04 3.28 0.32 
4.33 12.22 3.09 0.21 
5.91 13.36 3.49 0.89 
6.21 13.35 3.51 0.56 
24.96 9.38 6.37 0.85 
37.62 2.85 9.00 0.63 
51.19 -9.80 12.44 0.67 
51.24 -10.82 12.50 0.47 
59.18 -30.30 15.87 0.58 
57.67 -30.91 15.62 0.39 
55.94 -31.36 15.31 0.67 
57.48 -33.67 15.90 0.65 
56.75 -36.20 16.07 0.70 
11.83 -7.87 3.39 0.77 
11.82 -8.18 3.43 0.67 
11.87 -8.56 3.49 0.65 
11.85 -9.61 3.64 0.70 
11.85 -9.99 3.70 0.64 
11.87 -10.40 3.77 0.70 
55.88 -52.80 18.35 0.64 
23.39 -22.95 7.82 0.81 
27.47 -39.68 11.52 0.79 
-59.04 -120.91 32.12 0.25 
-65.40 -116.65 31.92 0.49 
-56.80 -78.81 23.19 0.51 
-58.23 -77.65 23.17 0.53 
-60.52 -77.60 23.49 0.52 
-8.11 -10.00 3.07 0.63 
-8.17 -8.64 2.84 0.37 
-18.11 -10.16 4.96 0.81 
-18.14 -9.72 4.91 0.78 
-18.14 -9.29 4.86 0.79 
-18.15 -8.44 4.78 0.77 
-18.12 -8.01 4.73 0.81 
-18.14 -7.62 4.70 0.87 
-70.14 12.06 16.90 0.45 
-70.11 13.43 16.95 0.33 
-47.20 9.97 11.45 0.50 
-50.31 12.63 12.32 0.48 
-46.97 12.74 11.55 0.68 
-58.67 28.65 15.50 0.52 
-57.57 29.47 15.36 0.70 
-56.53 30.30 15.23 0.63 
-15.65 10.40 4.46 0.72 
-15.64 10.83 4.52 0.76 
-15.65 12.21 4.71 0.70 
-15.65 12.69 4.78 0.72 
-26.69 30.49 9.62 0.79 
-26.29 31.20 9.69 0.78 
-25.89 31.93 9.76 0.76 
-7.14 13.32 3.59 0.90 
-6.89 13.47 3.59 0.41 
4.35 13.04 3.26 0.32 
4.33 12.21 3.08 0.38 
5.91 13.36 3.47 0.89 
6.21 13.35 3.50 0.56 
24.96 9.38 6.33 0.85 
37.62 2.85 8.96 0.63 
51.19 -9.80 12.37 0.67 
51.27 -10.83 12.44 0.47 
61.42 -29.99 16.23 0.34 
59.14 -30.28 15.77 0.58 
57.59 -30.87 15.51 0.39 
55.92 -31.35 15.22 0.67 
57.45 -33.66 15.81 0.65 
56.74 -36.19 15.98 0.70 
11.83 -7.87 3.37 0.77 
11.82 -8.18 3.41 0.67 
11.87 -8.56 3.47 0.65 
11.85 -9.61 3.62 0.70 
11.85 -9.99 3.68 0.64 
11.87 -10.40 3.75 0.70 
56.60 -51.49 18.17 0.11 
55.91 -52.82 18.26 0.62 
23.38 -22.95 7.78 0.81 
27.47 -39.67 11.46 0.79 
-59.04 -120.91 31.95 0.25 
-65.40 -116.64 31.75 0.49 
-56.80 -78.81 23.07 0.51 
-58.23 -77.65 23.04 0.53 
-60.52 -77.60 23.37 0.52 
-8.11 -10.01 3.06 0.63 
-8.17 -8.64 2.82 0.37 
-18.14 -10.17 4.94 0.78 
-18.14 -9.72 4.89 0.78 
-18.14 -9.29 4.84 0.79 
-18.15 -8.44 4.75 0.79 
-18.12 -8.01 4.70 0.81 
-18.14 -7.62 4.67 0.88 
-70.83 9.44 16.88 0.35 
-70.21 12.08 16.82 0.45 
-70.07 13.42 16.85 0.33 
-47.15 9.96 11.38 0.50 
-50.41 12.66 12.27 0.47 
-46.97 12.74 11.49 0.68 
-58.73 28.67 15.43 0.52 
-57.62 29.49 15.29 0.70 
-56.53 30.30 15.15 0.63 
-15.65 10.40 4.44 0.72 
-15.64 10.83 4.49 0.76 
-15.66 12.21 4.69 0.70 
-15.65 12.69 4.76 0.72 
-26.69 30.49 9.57 0.79 
-26.30 31.21 9.64 0.79 
-25.89 31.93 9.71 0.76 
-7.14 13.32 3.57 0.90 
-6.89 13.46 3.57 0.41 
4.35 13.04 3.25 0.32 
4.33 12.22 3.06 0.38 
5.91 13.36 3.45 0.89 
6.21 13.35 3.48 0.56 
24.96 9.38 6.30 0.85 
37.62 2.85 8.91 0.63 
51.19 -9.81 12.31 0.67 
51.30 -10.84 12.38 0.47 
61.31 -29.93 16.11 0.34 
59.07 -30.24 15.67 0.46 
57.48 -30.81 15.40 0.31 
55.91 -31.35 15.14 0.67 
58.09 -34.03 15.90 0.71 
11.84 -7.87 3.36 0.77 
11.82 -8.18 3.40 0.68 
11.87 -8.56 3.46 0.65 
11.86 -9.61 3.60 0.70 
11.85 -9.99 3.66 0.64 
11.87 -10.40 3.73 0.70 
56.61 -51.49 18.07 0.23 
55.94 -52.85 18.17 0.62 
23.38 -22.94 7.74 0.81 
27.47 -39.67 11.40 0.79 
-59.04 -120.91 31.78 0.25 
-62.59 -102.35 28.33 0.31 
-68.19 -98.48 28.29 0.34 
-56.80 -78.81 22.94 0.51 
-58.23 -77.65 22.92 0.53 
-60.52 -77.60 23.24 0.52 
-8.13 -10.03 3.05 0.43 
-8.17 -8.64 2.81 0.37 
-18.14 -10.17 4.91 0.78 
-18.13 -9.72 4.86 0.78 
-18.14 -9.29 4.81 0.81 
-18.15 -8.44 4.73 0.81 
-18.12 -8.01 4.68 0.81 
-18.14 -7.62 4.65 0.88 
-71.36 9.51 16.91 0.45 
-71.04 10.84 16.88 0.68 
-70.28 12.09 16.75 0.45 
-70.02 13.41 16.75 0.33 
-47.11 9.95 11.31 0.68 
-50.50 12.68 12.23 0.47 
-46.97 12.74 11.43 0.68 
-58.85 28.73 15.38 0.24 
-57.66 29.52 15.22 0.70 
-56.52 30.30 15.06 0.63 
-15.65 10.40 4.41 0.72 
-15.64 10.83 4.47 0.76 
-15.66 12.21 4.66 0.70 
-15.65 12.69 4.73 0.72 
-26.69 30.49 9.52 0.79 
-26.30 31.21 9.59 0.79 
-25.89 31.93 9.66 0.76 
-7.14 13.32 3.55 0.90 
-6.89 13.46 3.55 0.41 
4.35 13.04 3.23 0.32 
4.35 12.26 3.05 0.32 
5.91 13.36 3.43 0.89 
6.21 13.35 3.46 0.56 
21.33 8.95 5.43 0.47 
24.97 9.39 6.27 0.85 
37.62 2.85 8.86 0.63 
51.19 -9.81 12.24 0.67 
51.33 -10.84 12.32 0.47 
61.65 -30.10 16.11 0.56 
57.45 -29.41 15.16 0.51 
57.36 -30.75 15.29 0.40 
55.90 -31.34 15.05 0.67 
58.13 -34.05 15.82 0.71 
11.84 -7.87 3.34 0.77 
11.82 -8.19 3.38 0.69 
11.88 -8.56 3.44 0.66 
11.86 -9.61 3.59 0.70 
11.85 -9.99 3.64 0.64 
11.87 -10.40 3.71 0.70 
56.69 -51.56 18.00 0.23 
55.96 -52.87 18.08 0.62 
23.38 -22.94 7.69 0.81 
27.47 -39.67 11.33 0.79 
36.77 -83.15 21.36 0.06 
-59.86 -122.60 32.05 0.50 
-62.59 -102.35 28.18 0.31 
-65.02 -101.95 28.40 0.50 
-68.19 -98.48 28.14 0.34 
-56.80 -78.81 22.82 0.51 
-58.23 -77.65 22.80 0.53 
-60.52 -77.60 23.12 0.52 
-62.88 -77.55 23.45 0.51 
-8.17 -8.64 2.79 0.37 
-18.14 -10.17 4.88 0.78 
-18.13 -9.72 4.83 0.78 
-18.14 -9.29 4.79 0.81 
-18.15 -8.44 4.70 0.81 
-18.12 -8.01 4.65 0.82 
-18.14 -7.62 4.62 0.88 
-71.68 9.55 16.90 0.14 
-71.00 10.83 16.78 0.38 
-70.34 12.10 16.68 0.45 
-69.97 13.40 16.65 0.33 
-47.08 9.95 11.24 0.68 
-46.97 12.74 11.37 0.68 
-64.11 29.81 16.52 0.63 
-58.98 28.80 15.33 0.24 
-57.72 29.55 15.15 0.51 
-56.52 30.29 14.98 0.63 
-15.65 10.41 4.39 0.72 
-15.63 10.82 4.44 0.76 
-15.66 12.21 4.64 0.66 
-15.65 12.69 4.71 0.72 
-26.69 30.49 9.47 0.79 
-26.30 31.21 9.54 0.79 
-25.89 31.93 9.60 0.76 
-7.14 13.32 3.53 0.90 
-6.89 13.46 3.53 0.41 
4.35 13.04 3.21 0.30 
5.91 13.36 3.41 0.89 
6.21 13.35 3.44 0.56 
21.33 8.95 5.40 0.82 
24.97 9.39 6.23 0.85 
37.62 2.85 8.82 0.63 
51.19 -9.81 12.18 0.67 
51.36 -10.85 12.26 0.47 
61.65 -30.10 16.03 0.68 
57.39 -29.38 15.06 0.51 
57.30 -30.71 15.19 0.40 
55.89 -31.33 14.97 0.67 
57.55 -33.71 15.58 0.44 
11.84 -7.87 3.32 0.78 
11.82 -8.19 3.36 0.70 
11.88 -8.56 3.42 0.66 
11.86 -9.61 3.57 0.70 
11.85 -9.99 3.62 0.67 
11.87 -10.40 3.69 0.70 
56.77 -51.64 17.93 0.23 
55.99 -52.90 18.00 0.65 
23.38 -22.94 7.65 0.81 
27.47 -39.67 11.27 0.79 
36.86 -83.36 21.29 0.69 
32.29 -85.90 21.44 0.22 
-59.86 -122.60 31.88 0.50 
-65.04 -121.34 32.17 0.27 
-62.59 -102.35 28.03 0.31 
-65.02 -101.95 28.25 0.50 
-56.80 -78.81 22.70 0.51 
-58.23 -77.65 22.68 0.53 
-60.52 -77.60 22.99 0.52 
-62.88 -77.55 23.33 0.51 
-8.17 -8.64 2.78 0.37 
-18.14 -10.17 4.86 0.78 
-18.13 -9.72 4.81 0.78 
-18.14 -9.29 4.76 0.81 
-18.15 -8.44 4.68 0.81 
-18.12 -8.01 4.63 0.82 
-18.14 -7.62 4.60 0.88 
-70.91 10.82 16.67 0.38 
-70.38 12.10 16.60 0.58 
-69.93 13.39 16.54 0.33 
-47.06 9.94 11.18 0.68 
-46.97 12.74 11.31 0.68 
-47.16 13.76 11.42 0.55 
-64.10 29.81 16.43 0.63 
-59.11 28.86 15.28 0.24 
-57.81 29.59 15.09 0.51 
-56.51 30.29 14.90 0.63 
-15.65 10.40 4.37 0.67 
-15.63 10.82 4.42 0.76 
-15.66 12.21 4.61 0.67 
-15.65 12.69 4.68 0.72 
-26.69 30.49 9.42 0.79 
-26.31 31.22 9.49 0.79 
-25.89 31.93 9.55 0.76 
-7.14 13.32 3.51 0.90 
-6.89 13.46 3.51 0.41 
4.34 13.03 3.19 0.30 
5.91 13.36 3.39 0.89 
6.21 13.34 3.42 0.56 
21.35 8.96 5.38 0.64 
24.97 9.39 6.20 0.84 
37.62 2.85 8.77 0.63 
51.20 -9.81 12.11 0.67 
51.38 -10.85 12.20 0.46 
61.66 -30.11 15.95 0.68 
57.34 -29.35 14.97 0.55 
57.23 -30.68 15.09 0.40 
55.88 -31.33 14.89 0.67 
56.15 -32.89 15.12 0.51 
11.84 -7.87 3.30 0.78 
11.83 -8.19 3.34 0.70 
11.88 -8.56 3.40 0.63 
11.86 -9.61 3.55 0.70 
11.85 -9.99 3.60 0.67 
11.87 -10.40 3.67 0.70 
56.85 -51.71 17.86 0.23 
56.02 -52.92 17.91 0.65 
23.38 -22.94 7.61 0.81 
27.47 -39.67 11.21 0.79 
36.87 -83.38 21.19 0.69 
32.46 -86.35 21.44 0.26 
-62.77 -122.63 32.01 0.49 
-65.04 -121.34 31.99 0.27 
-65.02 -101.95 28.10 0.50 
-56.80 -78.81 22.58 0.51 
-58.23 -77.65 22.55 0.53 
-60.52 -77.60 22.87 0.52 
-62.88 -77.55 23.20 0.51 
-8.17 -8.64 2.76 0.37 
-18.14 -10.17 4.83 0.78 
-18.13 -9.72 4.78 0.78 
-18.14 -9.29 4.74 0.81 
-18.15 -8.44 4.65 0.81 
-18.12 -8.01 4.60 0.82 
-18.14 -7.62 4.57 0.88 
-70.81 10.80 16.55 0.38 
-70.43 12.11 16.52 0.58 
-70.57 13.52 16.61 0.74 
-47.04 9.94 11.11 0.68 
-46.97 12.74 11.25 0.68 
-47.18 13.77 11.36 0.55 
-65.41 28.92 16.53 0.09 
-64.09 29.80 16.34 0.63 
-58.25 28.44 14.98 0.39 
-57.90 29.64 15.03 0.51 
-56.51 30.29 14.82 0.63 
-15.65 10.40 4.34 0.67 
-15.63 10.82 4.39 0.76 
-15.66 12.21 4.59 0.67 
-15.65 12.69 4.66 0.72 
-26.70 30.49 9.37 0.79 
-26.31 31.22 9.44 0.78 
-25.89 31.93 9.50 0.76 
-7.14 13.31 3.49 0.90 
-6.89 13.46 3.50 0.41 
4.34 13.03 3.17 0.32 
5.91 13.35 3.37 0.89 
6.20 13.34 3.40 0.56 
24.97 9.39 6.16 0.84 
37.62 2.85 8.72 0.63 
51.20 -9.81 12.05 0.67 
51.41 -10.86 12.14 0.46 
61.67 -30.11 15.86 0.68 
57.29 -29.33 14.87 0.55 
58.24 -31.22 15.27 0.56 
55.86 -31.32 14.80 0.67 
56.12 -32.87 15.03 0.51 
11.84 -7.87 3.29 0.78 
11.83 -8.19 3.33 0.70 
11.88 -8.56 3.38 0.63 
11.86 -9.61 3.53 0.70 
11.85 -9.98 3.58 0.68 
11.87 -10.40 3.65 0.70 
56.93 -51.78 17.79 0.23 
56.05 -52.95 17.82 0.65 
23.38 -22.94 7.57 0.81 
27.46 -39.67 11.15 0.79 
36.88 -83.41 21.08 0.69 
32.51 -86.49 21.36 0.54 
-62.77 -122.63 31.84 0.49 
-65.04 -121.34 31.82 0.27 
-67.78 -101.96 28.30 0.49 
-56.80 -78.81 22.45 0.51 
-58.23 -77.65 22.43 0.53 
-60.52 -77.60 22.75 0.52 
-62.88 -77.55 23.08 0.51 
-8.17 -8.64 2.75 0.37 
-18.14 -10.17 4.81 0.78 
-18.13 -9.72 4.75 0.79 
-18.14 -9.29 4.71 0.81 
-18.15 -8.44 4.63 0.81 
-18.12 -8.01 4.58 0.82 
-18.15 -7.62 4.55 0.88 
-70.75 10.79 16.45 0.49 
-70.48 12.12 16.44 0.62 
-70.59 13.52 16.52 0.74 
-46.97 12.74 11.19 0.68 
-47.20 13.77 11.30 0.55 
-64.92 28.71 16.32 0.19 
-64.08 29.80 16.24 0.63 
-58.25 28.44 14.90 0.65 
-58.00 29.69 14.98 0.51 
-56.50 30.29 14.74 0.63 
-15.64 10.40 4.32 0.67 
-15.63 10.82 4.37 0.79 
-15.66 12.21 4.57 0.66 
-15.65 12.69 4.63 0.72 
-26.70 30.49 9.31 0.79 
-26.31 31.22 9.39 0.78 
-25.89 31.93 9.45 0.76 
-7.14 13.31 3.47 0.90 
-6.89 13.46 3.48 0.41 
4.34 13.03 3.16 0.32 
5.91 13.35 3.36 0.89 
6.20 13.34 3.38 0.56 
24.97 9.39 6.13 0.84 
37.62 2.85 8.67 0.63 
51.20 -9.81 11.98 0.67 
51.44 -10.87 12.09 0.46 
61.64 -30.09 15.77 0.56 
57.24 -29.30 14.78 0.55 
58.27 -31.23 15.20 0.56 
55.85 -31.31 14.72 0.67 
56.09 -32.86 14.94 0.51 
11.84 -7.87 3.27 0.78 
11.83 -8.19 3.31 0.70 
11.88 -8.56 3.37 0.63 
11.86 -9.61 3.51 0.70 
11.85 -9.98 3.56 0.68 
11.87 -10.40 3.63 0.70 
57.01 -51.86 17.72 0.23 
56.08 -52.98 17.73 0.65 
23.38 -22.94 7.53 0.81 
27.46 -39.66 11.09 0.79 
36.90 -83.43 20.97 0.69 
32.55 -86.59 21.26 0.54 
-67.78 -101.96 28.14 0.49 
-59.19 -78.93 22.68 0.50 
-60.52 -77.60 22.62 0.52 
-62.88 -77.55 22.95 0.51 
-8.17 -8.64 2.73 0.37 
-18.14 -10.17 4.78 0.78 
-18.13 -9.72 4.73 0.79 
-18.14 -9.29 4.68 0.81 
-18.16 -8.44 4.60 0.81 
-18.12 -8.01 4.55 0.79 
-18.14 -7.62 4.52 0.84 
-70.69 10.79 16.35 0.49 
-70.51 12.13 16.36 0.62 
-70.61 13.53 16.44 0.74 
-46.97 12.74 11.13 0.68 
-47.22 13.78 11.24 0.55 
-84.50 33.60 20.79 0.40 
-64.66 28.59 16.16 0.20 
-64.06 29.79 16.15 0.21 
-58.30 28.46 14.83 0.65 
-58.09 29.74 14.92 0.50 
-56.49 30.28 14.65 0.63 
-15.64 10.40 4.29 0.77 
-15.63 10.82 4.34 0.79 
-15.66 12.21 4.54 0.66 
-15.65 12.69 4.61 0.72 
-26.70 30.49 9.26 0.79 
-26.31 31.23 9.34 0.78 
-25.89 31.93 9.40 0.76 
-7.14 13.31 3.45 0.90 
-6.89 13.46 3.46 0.41 
4.34 13.03 3.14 0.32 
5.90 13.35 3.34 0.89 
6.20 13.34 3.36 0.56 
24.97 9.39 6.10 0.84 
37.63 2.85 8.63 0.63 
51.20 -9.81 11.92 0.67 
51.47 -10.87 12.03 0.46 
61.60 -30.08 15.67 0.57 
57.19 -29.27 14.69 0.55 
58.30 -31.25 15.12 0.56 
55.84 -31.31 14.63 0.67 
56.06 -32.84 14.85 0.51 
11.84 -7.87 3.25 0.78 
11.83 -8.19 3.29 0.70 
11.88 -8.56 3.35 0.63 
11.86 -9.61 3.49 0.69 
11.85 -9.98 3.54 0.73 
11.87 -10.40 3.61 0.70 
57.09 -51.93 17.64 0.23 
56.84 -53.70 17.88 0.72 
23.37 -22.94 7.49 0.81 
27.46 -39.66 11.03 0.79 
36.91 -83.46 20.86 0.69 
32.61 -86.76 21.19 0.29 
-59.19 -78.93 22.55 0.50 
-60.52 -77.60 22.50 0.52 
-62.88 -77.55 22.82 0.51 
-8.17 -8.64 2.72 0.37 
-18.14 -10.17 4.75 0.78 
-18.13 -9.72 4.70 0.79 
-18.14 -9.29 4.66 0.81 
-18.16 -8.44 4.58 0.81 
-18.13 -8.02 4.53 0.79 
-18.14 -7.62 4.50 0.84 
-70.64 10.78 16.25 0.50 
-70.59 12.14 16.28 0.58 
-70.63 13.53 16.35 0.74 
-46.97 12.75 11.07 0.68 
-47.24 13.78 11.19 0.55 
-84.28 33.52 20.62 0.11 
-64.73 28.63 16.09 0.69 
-64.06 29.79 16.06 0.63 
-58.18 29.78 14.86 0.50 
-56.49 30.28 14.57 0.63 
-15.64 10.40 4.27 0.77 
-15.62 10.82 4.32 0.68 
-15.66 12.21 4.51 0.66 
-15.65 12.69 4.58 0.72 
-26.70 30.49 9.21 0.79 
-26.32 31.23 9.28 0.78 
-25.89 31.93 9.34 0.74 
-7.14 13.31 3.43 0.90 
-6.89 13.46 3.44 0.41 
4.34 13.02 3.12 0.32 
5.90 13.35 3.32 0.89 
6.20 13.34 3.34 0.56 
24.97 9.39 6.06 0.85 
37.63 2.85 8.58 0.63 
51.20 -9.81 11.85 0.67 
51.50 -10.88 11.97 0.46 
59.66 -29.13 15.09 0.54 
57.11 -29.24 14.59 0.42 
58.33 -31.26 15.05 0.56 
55.83 -31.30 14.55 0.67 
56.02 -32.82 14.76 0.28 
11.84 -7.87 3.23 0.78 
11.83 -8.19 3.27 0.70 
11.88 -8.56 3.33 0.63 
11.86 -9.61 3.47 0.69 
11.85 -9.98 3.52 0.73 
11.87 -10.40 3.59 0.70 
57.64 -52.42 17.71 0.25 
56.85 -53.71 17.78 0.72 
23.37 -22.93 7.44 0.81 
27.46 -39.66 10.97 0.79 
36.92 -83.49 20.75 0.69 
34.02 -85.55 20.93 0.61 
32.70 -86.98 21.13 0.29 
-59.19 -78.93 22.43 0.50 
-60.52 -77.60 22.37 0.52 
-62.88 -77.55 22.70 0.51 
-8.17 -8.64 2.70 0.37 
-18.14 -10.17 4.73 0.78 
-18.13 -9.72 4.68 0.79 
-18.14 -9.29 4.63 0.81 
-18.16 -8.44 4.55 0.83 
-18.13 -8.02 4.51 0.79 
-18.14 -7.62 4.47 0.84 
-71.49 10.91 16.35 0.49 
-70.65 13.53 16.26 0.74 
-71.01 15.00 16.41 0.52 
-47.24 12.82 11.07 0.59 
-47.26 13.79 11.13 0.55 
-64.73 28.62 16.00 0.69 
-64.05 29.78 15.97 0.63 
-58.28 29.83 14.80 0.50 
-56.48 30.28 14.49 0.63 
-15.64 10.40 4.25 0.77 
-15.62 10.82 4.30 0.68 
-15.66 12.21 4.49 0.66 
-15.65 12.69 4.56 0.72 
-26.70 30.49 9.16 0.79 
-26.32 31.23 9.23 0.78 
-25.88 31.92 9.29 0.74 
-7.14 13.31 3.41 0.90 
-6.89 13.46 3.42 0.41 
4.32 12.96 3.09 0.20 
5.90 13.35 3.30 0.89 
6.20 13.34 3.33 0.56 
24.97 9.39 6.03 0.85 
37.63 2.85 8.53 0.63 
51.21 -9.81 11.79 0.65 
51.52 -10.88 11.91 0.46 
59.61 -29.11 15.00 0.54 
57.03 -29.19 14.48 0.42 
59.06 -31.66 15.15 0.76 
55.82 -31.29 14.47 0.68 
55.89 -32.74 14.64 0.28 
11.84 -7.87 3.21 0.78 
11.84 -8.20 3.26 0.70 
11.88 -8.56 3.31 0.63 
11.86 -9.61 3.45 0.69 
11.85 -9.98 3.50 0.73 
11.87 -10.39 3.57 0.67 
57.85 -52.62 17.68 0.60 
57.23 -54.07 17.80 0.42 
23.37 -22.93 7.40 0.81 
27.46 -39.66 10.91 0.79 
36.93 -83.51 20.64 0.69 
33.98 -85.46 20.79 0.29 
-61.66 -79.05 22.67 0.49 
-62.88 -77.55 22.57 0.51 
-8.17 -8.64 2.69 0.37 
-18.13 -10.17 4.70 0.78 
-18.13 -9.72 4.65 0.79 
-18.14 -9.29 4.61 0.82 
-18.16 -8.44 4.53 0.85 
-18.13 -8.02 4.48 0.79 
-18.14 -7.61 4.45 0.84 
-71.57 10.92 16.28 0.49 
-71.48 13.69 16.36 0.63 
-67.99 14.36 15.62 0.29 
-47.25 12.82 11.01 0.59 
-47.28 13.79 11.07 0.55 
-64.73 28.62 15.91 0.69 
-64.04 29.78 15.88 0.63 
-60.36 29.47 15.10 0.63 
-58.37 29.88 14.74 0.50 
-56.48 30.27 14.41 0.63 
-15.64 10.40 4.22 0.77 
-15.62 10.81 4.27 0.69 
-15.66 12.21 4.47 0.66 
-15.65 12.69 4.53 0.72 
-26.70 30.49 9.11 0.78 
-26.32 31.23 9.18 0.78 
-25.88 31.92 9.24 0.74 
-7.13 13.31 3.40 0.91 
-6.89 13.46 3.40 0.41 
4.32 12.96 3.07 0.36 
5.90 13.35 3.28 0.89 
6.20 13.34 3.31 0.56 
24.97 9.39 6.00 0.85 
37.63 2.85 8.48 0.63 
51.21 -9.81 11.72 0.65 
51.55 -10.89 11.85 0.46 
59.55 -29.08 14.90 0.20 
56.97 -29.16 14.39 0.53 
59.08 -31.67 15.07 0.76 
55.81 -31.29 14.38 0.68 
55.76 -32.66 14.53 0.28 
56.91 -34.80 15.00 0.23 
11.84 -7.87 3.20 0.80 
11.84 -8.20 3.24 0.70 
11.88 -8.56 3.29 0.63 
11.86 -9.62 3.43 0.69 
11.85 -9.98 3.48 0.73 
11.87 -10.39 3.55 0.67 
57.91 -52.68 17.60 0.60 
57.16 -54.00 17.68 0.63 
23.37 -22.93 7.36 0.81 
59.38 -65.28 19.84 0.57 
57.31 -65.46 19.56 0.28 
27.46 -39.66 10.84 0.79 
36.94 -83.54 20.54 0.69 
33.92 -85.29 20.64 0.29 
-61.66 -79.05 22.54 0.49 
-62.88 -77.55 22.45 0.51 
-8.17 -8.64 2.67 0.37 
-18.13 -10.17 4.67 0.78 
-18.13 -9.72 4.62 0.76 
-18.14 -9.29 4.58 0.82 
-18.16 -8.44 4.50 0.85 
-18.14 -8.02 4.46 0.79 
-18.14 -7.61 4.42 0.84 
-72.82 11.11 16.47 0.42 
-71.45 13.69 16.27 0.63 
-67.84 14.33 15.50 0.50 
-70.53 16.30 16.19 0.51 
-47.25 12.82 10.95 0.59 
-47.29 13.80 11.01 0.55 
-64.73 28.62 15.82 0.69 
-64.03 29.78 15.79 0.63 
-60.40 29.49 15.03 0.39 
-56.98 29.17 14.31 0.61 
-56.47 30.27 14.32 0.63 
-15.64 10.40 4.20 0.77 
-15.61 10.81 4.25 0.69 
-15.66 12.21 4.44 0.65 
-15.65 12.69 4.51 0.73 
-26.70 30.49 9.06 0.78 
-26.32 31.23 9.13 0.79 
-25.88 31.92 9.19 0.75 
-7.13 13.31 3.38 0.91 
-6.89 13.46 3.38 0.41 
4.33 12.98 3.06 0.31 
5.90 13.35 3.26 0.89 
6.20 13.33 3.29 0.56 
24.97 9.39 5.96 0.85 
37.63 2.85 8.44 0.63 
51.21 -9.81 11.66 0.65 
51.58 -10.90 11.79 0.46 
59.46 -29.03 14.79 0.57 
56.91 -29.13 14.29 0.53 
59.10 -31.68 14.99 0.76 
55.78 -31.28 14.30 0.65 
55.70 -32.63 14.43 0.57 
56.79 -34.73 14.88 0.23 
11.84 -7.87 3.18 0.80 
11.84 -8.20 3.22 0.70 
11.88 -8.56 3.27 0.63 
11.86 -9.62 3.41 0.69 
11.85 -9.98 3.46 0.73 
11.87 -10.39 3.53 0.67 
56.24 -51.16 17.00 0.62 
57.13 -53.98 17.57 0.63 
23.37 -22.93 7.32 0.81 
59.44 -65.35 19.75 0.57 
57.42 -65.58 19.49 0.28 
27.46 -39.65 10.78 0.79 
36.95 -83.56 20.43 0.69 
34.93 -83.22 20.18 0.09 
33.85 -85.13 20.48 0.29 
-61.66 -79.05 22.41 0.49 
-64.20 -79.18 22.79 0.48 
-8.17 -8.64 2.66 0.37 
-18.13 -10.17 4.65 0.78 
-18.12 -9.72 4.60 0.76 
-18.14 -9.29 4.56 0.82 
-18.16 -8.44 4.48 0.85 
-18.14 -8.02 4.44 0.79 
-18.14 -7.61 4.40 0.84 
-72.72 11.09 16.35 0.42 
-73.14 12.58 16.50 0.05 
-69.61 13.33 15.76 0.37 
-67.83 14.33 15.41 0.50 
-70.64 16.32 16.12 0.51 
-47.25 12.82 10.88 0.59 
-46.99 13.71 10.88 0.73 
-64.73 28.62 15.74 0.69 
-64.02 29.77 15.70 0.63 
-56.97 29.16 14.23 0.61 
-56.46 30.27 14.24 0.63 
-15.64 10.40 4.18 0.75 
-15.61 10.81 4.22 0.69 
-15.66 12.21 4.41 0.65 
-15.65 12.69 4.48 0.73 
-26.70 30.49 9.01 0.78 
-26.32 31.23 9.08 0.77 
-25.88 31.92 9.14 0.75 
-7.13 13.31 3.36 0.91 
-6.89 13.46 3.36 0.41 
4.34 13.03 3.05 0.31 
5.90 13.35 3.24 0.89 
6.20 13.33 3.27 0.56 
24.97 9.39 5.93 0.85 
37.63 2.85 8.39 0.63 
51.21 -9.81 11.59 0.65 
51.61 -10.90 11.73 0.46 
59.42 -29.01 14.70 0.57 
59.50 -30.46 14.86 0.68 
59.12 -31.69 14.91 0.76 
55.76 -31.26 14.21 0.65 
55.66 -32.61 14.34 0.57 
56.63 -34.63 14.76 0.27 
11.85 -7.87 3.16 0.80 
11.84 -8.20 3.20 0.69 
11.87 -8.56 3.25 0.73 
11.86 -9.62 3.39 0.68 
11.85 -9.98 3.44 0.73 
11.87 -10.39 3.51 0.67 
56.22 -51.13 16.90 0.62 
57.11 -53.96 17.47 0.63 
23.37 -22.93 7.28 0.81 
59.50 -65.42 19.66 0.28 
57.54 -65.71 19.42 0.28 
27.46 -39.65 10.72 0.79 
36.96 -83.59 20.32 0.69 
35.01 -83.40 20.11 0.09 
33.83 -85.07 20.35 0.55 
-72.69 -93.20 26.28 0.47 
-64.20 -79.18 22.66 0.48 
-8.17 -8.64 2.64 0.37 
-18.13 -10.17 4.62 0.78 
