VERSION 0.7
FIELDS x y z intensity
SIZE 4 4 4 8
TYPE F F F F
COUNT 1 1 1 1
WIDTH 2022
HEIGHT 1
VIEWPOINT 0.0 0.0 0.0 1.0 0.0 0.0 0.0
POINTS 2022
DATA ascii
-7.52 -10.43 -1.53 0.11 
-7.71 -10.28 -1.53 0.11 
-7.91 -10.14 -1.53 0.11 
-8.10 -9.98 -1.53 0.11 
-8.28 -9.83 -1.53 0.11 
-8.47 -9.67 -1.53 0.11 
-8.00 -8.80 -1.41 0.65 
-8.07 -8.54 -1.40 0.69 
-9.00 -9.18 -1.53 0.11 
-9.18 -9.00 -1.53 0.11 
-9.34 -8.83 -1.53 0.11 
-9.51 -8.65 -1.53 0.11 
-9.67 -8.47 -1.53 0.11 
-9.83 -8.28 -1.53 0.11 
-9.98 -8.10 -1.53 0.11 
-10.14 -7.91 -1.53 0.11 
-10.43 -7.82 -1.55 0.58 
-10.84 -7.82 -1.59 0.56 
-11.28 -7.81 -1.63 0.55 
-11.72 -7.79 -1.67 0.12 
-11.89 -7.58 -1.68 0.12 
-12.06 -7.37 -1.68 0.12 
-12.20 -7.15 -1.68 0.11 
-12.33 -6.91 -1.68 0.11 
-12.46 -6.68 -1.68 0.11 
-12.58 -6.44 -1.68 0.11 
-12.70 -6.20 -1.68 0.11 
-12.82 -5.96 -1.68 0.11 
-12.93 -5.72 -1.68 0.11 
-13.03 -5.47 -1.68 0.11 
-13.14 -5.22 -1.68 0.11 
-13.23 -4.97 -1.68 0.11 
-13.32 -4.72 -1.68 0.11 
-13.41 -4.47 -1.68 0.11 
-13.49 -4.22 -1.68 0.11 
-13.57 -3.96 -1.68 0.11 
-13.64 -3.70 -1.68 0.11 
-13.71 -3.44 -1.68 0.11 
-13.77 -3.18 -1.68 0.11 
-13.83 -2.92 -1.68 0.11 
-13.88 -2.66 -1.68 0.11 
-13.93 -2.40 -1.68 0.11 
-13.97 -2.13 -1.68 0.11 
-8.26 -1.10 -0.99 0.52 
-8.13 -0.93 -0.97 0.90 
-8.09 -0.77 -0.97 0.91 
-8.05 -0.61 -0.96 0.92 
-8.02 -0.46 -0.96 0.95 
-8.01 -0.30 -0.95 0.95 
-7.99 -0.15 -0.95 0.96 
-7.99 -0.00 -0.96 0.96 
-8.01 0.15 -0.96 0.96 
-8.03 0.30 -0.97 0.95 
-8.06 0.46 -0.97 0.92 
-8.10 0.61 -0.98 0.91 
-8.14 0.77 -0.98 0.91 
-13.90 1.59 -1.68 0.11 
-13.87 1.85 -1.68 0.11 
-13.83 2.11 -1.68 0.11 
-13.79 2.37 -1.68 0.11 
-13.74 2.63 -1.68 0.11 
-13.69 2.89 -1.68 0.11 
-13.63 3.15 -1.68 0.11 
-13.57 3.41 -1.68 0.11 
-8.89 2.41 -1.11 0.25 
-8.32 2.43 -1.04 0.33 
-7.81 2.44 -0.98 0.29 
-7.33 2.44 -0.93 0.31 
-6.89 2.44 -0.88 0.32 
-6.50 2.44 -0.83 0.34 
-6.18 2.46 -0.80 0.35 
-5.89 2.47 -0.77 0.38 
-5.61 2.48 -0.74 0.65 
-5.47 2.54 -0.72 0.66 
-5.34 2.60 -0.71 0.67 
-5.20 2.66 -0.70 0.63 
-5.16 2.77 -0.70 0.88 
-5.15 2.89 -0.71 0.87 
-5.14 3.01 -0.72 0.86 
-5.14 3.14 -0.72 0.85 
-5.13 3.27 -0.73 0.84 
-5.12 3.40 -0.74 0.84 
-5.12 3.55 -0.75 0.76 
-5.13 3.70 -0.76 0.75 
-5.13 3.85 -0.77 0.77 
-5.13 4.00 -0.78 0.76 
-5.13 4.16 -0.79 0.75 
-7.10 5.98 -1.12 0.61 
-6.83 5.98 -1.09 0.63 
-6.58 5.98 -1.07 0.65 
-6.34 5.99 -1.05 0.66 
-6.10 5.98 -1.03 0.66 
-5.87 5.98 -1.01 0.65 
-5.80 6.14 -1.01 0.41 
-5.45 5.99 -0.97 0.71 
-5.31 6.07 -0.97 0.24 
-5.08 6.02 -0.95 0.90 
-4.93 6.08 -0.94 0.91 
-4.79 6.14 -0.94 0.97 
-4.67 6.23 -0.94 0.97 
-4.56 6.32 -0.94 0.80 
-4.50 6.49 -0.95 0.78 
-4.45 6.70 -0.97 0.58 
-4.44 6.96 -0.99 0.48 
-4.45 7.28 -1.02 0.47 
-6.52 11.12 -1.55 0.82 
-6.24 11.13 -1.53 0.66 
-6.01 11.21 -1.53 0.11 
-5.80 11.33 -1.53 0.11 
-5.58 11.43 -1.53 0.11 
-5.37 11.54 -1.53 0.11 
-5.15 11.64 -1.53 0.11 
-4.93 11.73 -1.53 0.11 
-4.70 11.82 -1.53 0.11 
-4.48 11.91 -1.53 0.11 
-4.25 11.99 -1.53 0.11 
-4.02 12.07 -1.53 0.11 
-3.79 12.15 -1.53 0.11 
-3.56 12.22 -1.53 0.11 
-3.33 12.28 -1.53 0.11 
-3.10 12.34 -1.53 0.11 
-2.87 12.40 -1.53 0.11 
-2.63 12.45 -1.53 0.11 
-2.39 12.50 -1.53 0.11 
-2.16 12.54 -1.53 0.11 
-1.92 12.58 -1.53 0.11 
-1.68 12.61 -1.53 0.11 
-1.44 12.64 -1.53 0.11 
-1.20 12.67 -1.53 0.11 
-0.96 12.69 -1.53 0.11 
-0.72 12.70 -1.53 0.11 
-0.48 12.72 -1.53 0.11 
-0.24 12.72 -1.53 0.11 
-0.00 12.72 -1.53 0.11 
0.24 12.72 -1.53 0.11 
0.48 12.72 -1.53 0.11 
0.72 12.70 -1.53 0.11 
0.96 12.69 -1.53 0.11 
1.20 12.67 -1.53 0.11 
1.44 12.64 -1.53 0.11 
1.68 12.61 -1.53 0.11 
1.92 12.58 -1.53 0.11 
2.16 12.54 -1.53 0.11 
2.39 12.50 -1.53 0.11 
2.63 12.45 -1.53 0.11 
2.87 12.40 -1.53 0.11 
3.10 12.34 -1.53 0.11 
3.33 12.28 -1.53 0.11 
3.56 12.22 -1.53 0.11 
3.79 12.15 -1.53 0.11 
4.02 12.07 -1.53 0.11 
4.20 11.86 -1.51 0.33 
4.36 11.60 -1.49 0.88 
4.70 11.82 -1.53 0.11 
4.92 11.73 -1.53 0.11 
5.15 11.64 -1.53 0.11 
5.37 11.54 -1.53 0.11 
5.58 11.43 -1.53 0.11 
5.80 11.33 -1.53 0.11 
6.01 11.21 -1.53 0.11 
6.23 11.11 -1.53 0.67 
6.50 11.10 -1.54 0.84 
6.78 11.09 -1.56 0.83 
7.06 11.07 -1.58 0.82 
7.35 11.06 -1.60 0.82 
7.65 11.04 -1.61 0.81 
7.94 11.02 -1.63 0.80 
8.25 11.00 -1.65 0.79 
2.94 3.77 -0.57 0.17 
2.89 3.57 -0.55 0.41 
2.89 3.43 -0.54 0.52 
2.90 3.31 -0.53 0.50 
2.92 3.21 -0.52 0.51 
2.94 3.11 -0.51 0.59 
2.97 3.03 -0.51 0.73 
3.02 2.96 -0.51 0.75 
3.09 2.92 -0.51 0.73 
3.20 2.91 -0.52 0.64 
3.32 2.90 -0.53 0.64 
3.44 2.90 -0.54 0.62 
3.57 2.89 -0.55 0.61 
3.71 2.90 -0.57 0.55 
3.87 2.91 -0.58 0.49 
4.06 2.92 -0.60 0.40 
8.45 5.85 -1.23 0.53 
8.81 5.86 -1.27 0.52 
9.19 5.86 -1.31 0.49 
9.61 5.88 -1.35 0.44 
9.92 5.81 -1.38 0.48 
10.37 5.81 -1.43 0.46 
12.33 6.61 -1.68 0.11 
12.46 6.38 -1.68 0.11 
12.57 6.14 -1.68 0.11 
12.69 5.90 -1.68 0.11 
12.80 5.66 -1.68 0.11 
12.90 5.42 -1.68 0.11 
13.00 5.17 -1.68 0.11 
13.10 4.92 -1.68 0.11 
13.19 4.68 -1.68 0.11 
13.28 4.42 -1.68 0.11 
13.36 4.17 -1.68 0.11 
13.43 3.92 -1.68 0.11 
13.50 3.66 -1.68 0.11 
13.57 3.41 -1.68 0.11 
13.63 3.15 -1.68 0.11 
13.69 2.89 -1.68 0.11 
13.74 2.63 -1.68 0.11 
13.79 2.37 -1.68 0.11 
13.83 2.11 -1.68 0.11 
13.87 1.85 -1.68 0.11 
13.90 1.59 -1.68 0.11 
13.93 1.32 -1.68 0.11 
13.95 1.06 -1.68 0.11 
13.97 0.79 -1.68 0.11 
13.98 0.53 -1.68 0.11 
13.99 0.26 -1.68 0.11 
13.99 -0.00 -1.68 0.11 
13.99 -0.26 -1.68 0.11 
13.98 -0.53 -1.68 0.11 
13.97 -0.79 -1.68 0.11 
13.95 -1.06 -1.68 0.11 
13.93 -1.32 -1.68 0.11 
13.90 -1.59 -1.68 0.11 
13.87 -1.85 -1.68 0.11 
13.83 -2.11 -1.68 0.11 
13.79 -2.37 -1.68 0.11 
13.74 -2.63 -1.68 0.11 
13.69 -2.89 -1.68 0.11 
13.63 -3.15 -1.68 0.11 
13.57 -3.41 -1.68 0.11 
13.50 -3.66 -1.68 0.11 
13.43 -3.92 -1.68 0.11 
13.36 -4.17 -1.68 0.11 
13.28 -4.42 -1.68 0.11 
13.19 -4.68 -1.68 0.11 
13.10 -4.92 -1.68 0.11 
13.00 -5.17 -1.68 0.11 
12.90 -5.42 -1.68 0.11 
12.80 -5.66 -1.68 0.11 
12.69 -5.90 -1.68 0.11 
12.57 -6.14 -1.68 0.11 
12.46 -6.38 -1.68 0.11 
12.33 -6.61 -1.68 0.11 
12.21 -6.84 -1.68 0.11 
12.07 -7.07 -1.68 0.11 
11.94 -7.30 -1.68 0.11 
11.80 -7.52 -1.68 0.11 
11.65 -7.75 -1.68 0.11 
11.50 -7.96 -1.68 0.12 
11.32 -8.16 -1.68 0.12 
11.10 -8.33 -1.67 0.46 
10.59 -8.26 -1.61 0.47 
10.11 -8.19 -1.56 0.49 
9.73 -8.20 -1.53 0.11 
9.57 -8.38 -1.53 0.11 
9.41 -8.56 -1.53 0.11 
9.25 -8.74 -1.53 0.11 
9.08 -8.91 -1.53 0.11 
8.91 -9.08 -1.53 0.11 
8.74 -9.25 -1.53 0.11 
8.56 -9.41 -1.53 0.11 
8.38 -9.57 -1.53 0.11 
8.20 -9.73 -1.53 0.11 
8.01 -9.88 -1.53 0.11 
7.83 -10.03 -1.53 0.11 
7.63 -10.18 -1.53 0.11 
7.44 -10.32 -1.53 0.11 
7.24 -10.46 -1.53 0.11 
7.04 -10.60 -1.53 0.11 
6.84 -10.73 -1.53 0.11 
6.64 -10.86 -1.53 0.11 
6.43 -10.98 -1.53 0.11 
6.22 -11.10 -1.53 0.11 
6.01 -11.21 -1.53 0.11 
5.80 -11.33 -1.53 0.11 
5.58 -11.43 -1.53 0.11 
5.37 -11.54 -1.53 0.11 
5.15 -11.64 -1.53 0.11 
4.93 -11.73 -1.53 0.11 
4.70 -11.82 -1.53 0.11 
4.48 -11.91 -1.53 0.11 
1.14 -3.23 -0.41 0.24 
1.05 -3.16 -0.40 0.78 
0.98 -3.15 -0.40 0.86 
0.92 -3.15 -0.39 0.83 
0.86 -3.15 -0.39 0.84 
0.79 -3.16 -0.39 0.85 
0.73 -3.16 -0.39 0.80 
0.67 -3.16 -0.39 0.80 
0.61 -3.17 -0.39 0.81 
0.55 -3.18 -0.39 0.81 
0.49 -3.19 -0.39 0.78 
0.43 -3.19 -0.39 0.78 
0.37 -3.21 -0.39 0.78 
0.31 -3.27 -0.39 0.30 
0.25 -3.35 -0.40 0.19 
0.20 -3.49 -0.42 0.12 
0.14 -3.65 -0.44 0.13 
0.24 -12.72 -1.53 0.11 
-0.00 -12.72 -1.53 0.11 
-0.24 -12.72 -1.53 0.11 
-0.48 -12.72 -1.53 0.11 
-0.72 -12.70 -1.53 0.11 
-0.96 -12.69 -1.53 0.11 
-1.20 -12.67 -1.53 0.11 
-1.44 -12.64 -1.53 0.11 
-1.68 -12.61 -1.53 0.11 
-1.92 -12.58 -1.53 0.11 
-2.16 -12.54 -1.53 0.11 
-2.39 -12.50 -1.53 0.11 
-2.63 -12.45 -1.53 0.11 
-2.87 -12.40 -1.53 0.11 
-3.10 -12.34 -1.53 0.11 
-3.33 -12.28 -1.53 0.11 
-3.56 -12.22 -1.53 0.11 
-3.79 -12.15 -1.53 0.11 
-4.02 -12.07 -1.53 0.11 
-4.25 -11.99 -1.53 0.11 
-4.48 -11.91 -1.53 0.11 
-4.70 -11.82 -1.53 0.11 
-4.93 -11.73 -1.53 0.11 
-5.15 -11.64 -1.53 0.11 
-5.37 -11.54 -1.53 0.11 
-5.58 -11.43 -1.53 0.11 
-5.80 -11.33 -1.53 0.11 
-6.01 -11.22 -1.53 0.11 
-6.22 -11.10 -1.53 0.11 
-6.43 -10.98 -1.53 0.11 
-6.64 -10.86 -1.53 0.11 
-6.84 -10.73 -1.53 0.11 
-7.04 -10.60 -1.53 0.11 
-7.24 -10.46 -1.53 0.11 
-7.44 -10.32 -1.53 0.11 
-7.63 -10.18 -1.53 0.11 
-7.83 -10.03 -1.53 0.11 
-8.01 -9.88 -1.53 0.11 
-8.20 -9.73 -1.53 0.11 
-8.38 -9.57 -1.53 0.11 
-8.00 -8.80 -1.43 0.65 
-8.07 -8.54 -1.41 0.69 
-8.91 -9.08 -1.53 0.11 
-9.08 -8.91 -1.53 0.11 
-9.25 -8.74 -1.53 0.11 
-9.41 -8.56 -1.53 0.11 
-9.57 -8.38 -1.53 0.11 
-9.73 -8.20 -1.53 0.11 
-9.88 -8.01 -1.53 0.11 
-10.04 -7.83 -1.53 0.49 
-10.43 -7.82 -1.57 0.58 
-10.84 -7.81 -1.60 0.56 
-11.27 -7.80 -1.65 0.55 
-11.61 -7.72 -1.67 0.12 
-11.78 -7.51 -1.68 0.12 
-11.94 -7.30 -1.68 0.11 
-12.07 -7.07 -1.68 0.11 
-12.21 -6.84 -1.68 0.11 
-12.33 -6.61 -1.68 0.11 
-12.46 -6.38 -1.68 0.11 
-12.57 -6.14 -1.68 0.11 
-12.69 -5.90 -1.68 0.11 
-12.80 -5.66 -1.68 0.11 
-12.90 -5.42 -1.68 0.11 
-13.00 -5.17 -1.68 0.11 
-13.10 -4.92 -1.68 0.11 
-13.19 -4.68 -1.68 0.11 
-13.28 -4.42 -1.68 0.11 
-13.36 -4.17 -1.68 0.11 
-13.43 -3.92 -1.68 0.11 
-13.51 -3.66 -1.68 0.11 
-13.57 -3.41 -1.68 0.11 
-13.63 -3.15 -1.68 0.11 
-13.69 -2.89 -1.68 0.11 
-13.74 -2.63 -1.68 0.11 
-13.79 -2.37 -1.68 0.11 
-13.83 -2.11 -1.68 0.11 
-8.26 -1.10 -1.00 0.52 
-8.13 -0.93 -0.98 0.90 
-8.09 -0.77 -0.98 0.91 
-8.05 -0.61 -0.97 0.92 
-8.02 -0.46 -0.97 0.95 
-8.01 -0.30 -0.96 0.95 
-7.99 -0.15 -0.96 0.96 
-7.99 -0.00 -0.97 0.96 
-8.01 0.15 -0.97 0.96 
-8.03 0.30 -0.97 0.95 
-8.06 0.46 -0.98 0.92 
-8.10 0.61 -0.99 0.91 
-8.14 0.77 -0.99 0.91 
-13.76 1.57 -1.68 0.11 
-13.73 1.83 -1.68 0.11 
-13.69 2.09 -1.68 0.11 
-13.65 2.35 -1.68 0.11 
-13.61 2.61 -1.68 0.11 
-13.55 2.86 -1.68 0.11 
-13.50 3.12 -1.68 0.11 
-13.44 3.37 -1.68 0.11 
-8.89 2.41 -1.12 0.25 
-8.31 2.43 -1.05 0.33 
-7.81 2.44 -0.99 0.29 
-7.33 2.44 -0.94 0.31 
-6.89 2.44 -0.89 0.32 
-6.50 2.44 -0.84 0.34 
-6.17 2.45 -0.81 0.35 
-5.88 2.47 -0.77 0.33 
-5.60 2.48 -0.74 0.65 
-5.47 2.54 -0.73 0.66 
-5.33 2.60 -0.72 0.67 
-5.20 2.66 -0.71 0.63 
-5.16 2.76 -0.71 0.86 
-5.15 2.89 -0.72 0.87 
-5.14 3.01 -0.72 0.86 
-5.14 3.14 -0.73 0.85 
-5.13 3.27 -0.74 0.84 
-5.12 3.40 -0.75 0.84 
-5.12 3.55 -0.76 0.76 
-5.13 3.70 -0.77 0.75 
-5.13 3.85 -0.78 0.77 
-5.13 4.00 -0.79 0.76 
-5.13 4.16 -0.80 0.74 
-7.10 5.98 -1.13 0.61 
-6.83 5.98 -1.10 0.64 
-6.58 5.98 -1.08 0.65 
-6.33 5.98 -1.06 0.66 
-6.10 5.98 -1.04 0.66 
-5.86 5.98 -1.02 0.65 
-5.81 6.15 -1.03 0.40 
-5.45 5.99 -0.98 0.71 
-5.29 6.05 -0.98 0.45 
-5.07 6.02 -0.96 0.90 
-4.93 6.08 -0.95 0.91 
-4.79 6.14 -0.95 0.97 
-4.67 6.23 -0.95 0.97 
-4.56 6.32 -0.95 0.80 
-4.50 6.49 -0.96 0.78 
-4.45 6.69 -0.98 0.58 
-4.44 6.95 -1.00 0.48 
-4.45 7.28 -1.03 0.47 
-6.51 11.12 -1.56 0.82 
-6.24 11.12 -1.55 0.83 
-5.97 11.13 -1.53 0.67 
-5.74 11.21 -1.53 0.11 
-5.53 11.32 -1.53 0.11 
-5.31 11.42 -1.53 0.11 
-5.09 11.52 -1.53 0.11 
-4.88 11.62 -1.53 0.11 
-4.66 11.71 -1.53 0.11 
-4.43 11.79 -1.53 0.11 
-4.21 11.87 -1.53 0.11 
-3.98 11.95 -1.53 0.11 
-3.76 12.02 -1.53 0.11 
-3.53 12.09 -1.53 0.11 
-3.30 12.16 -1.53 0.11 
-3.07 12.22 -1.53 0.11 
-2.84 12.27 -1.53 0.11 
-2.60 12.33 -1.53 0.11 
-2.37 12.37 -1.53 0.11 
-2.14 12.41 -1.53 0.11 
-1.90 12.45 -1.53 0.11 
-1.66 12.49 -1.53 0.11 
-1.43 12.52 -1.53 0.11 
-1.19 12.54 -1.53 0.11 
-0.95 12.56 -1.53 0.11 
-0.71 12.58 -1.53 0.11 
-0.48 12.59 -1.53 0.11 
-0.24 12.59 -1.53 0.11 
-0.00 12.60 -1.53 0.11 
0.24 12.59 -1.53 0.11 
0.48 12.59 -1.53 0.11 
0.71 12.58 -1.53 0.11 
0.95 12.56 -1.53 0.11 
1.19 12.54 -1.53 0.11 
1.43 12.52 -1.53 0.11 
1.66 12.49 -1.53 0.11 
1.90 12.45 -1.53 0.11 
2.14 12.41 -1.53 0.11 
2.37 12.37 -1.53 0.11 
2.60 12.33 -1.53 0.11 
2.84 12.27 -1.53 0.11 
3.07 12.22 -1.53 0.11 
3.30 12.16 -1.53 0.11 
3.53 12.09 -1.53 0.11 
3.76 12.02 -1.53 0.11 
3.98 11.95 -1.53 0.11 
4.20 11.86 -1.53 0.33 
4.36 11.60 -1.50 0.88 
4.66 11.71 -1.53 0.11 
4.88 11.62 -1.53 0.11 
5.09 11.52 -1.53 0.11 
5.31 11.42 -1.53 0.11 
5.53 11.32 -1.53 0.11 
5.74 11.21 -1.53 0.11 
5.96 11.12 -1.53 0.67 
6.23 11.11 -1.54 0.84 
6.50 11.10 -1.56 0.84 
6.78 11.08 -1.58 0.83 
7.06 11.07 -1.59 0.82 
7.35 11.06 -1.61 0.82 
7.64 11.04 -1.63 0.81 
7.94 11.02 -1.65 0.80 
8.25 11.00 -1.67 0.79 
2.93 3.76 -0.58 0.18 
2.89 3.56 -0.56 0.41 
2.89 3.43 -0.54 0.52 
2.90 3.31 -0.53 0.57 
2.91 3.20 -0.52 0.51 
2.94 3.11 -0.52 0.59 
2.97 3.02 -0.51 0.73 
3.01 2.96 -0.51 0.75 
3.08 2.91 -0.51 0.73 
3.19 2.91 -0.52 0.64 
3.31 2.90 -0.53 0.65 
3.44 2.90 -0.55 0.62 
3.57 2.89 -0.56 0.61 
3.71 2.89 -0.57 0.54 
3.87 2.90 -0.59 0.49 
4.05 2.92 -0.61 0.40 
8.45 5.85 -1.25 0.53 
8.81 5.86 -1.28 0.52 
9.19 5.86 -1.32 0.49 
9.75 5.96 -1.39 0.77 
9.92 5.81 -1.39 0.48 
10.37 5.81 -1.44 0.46 
12.21 6.54 -1.68 0.11 
12.33 6.31 -1.68 0.11 
12.45 6.08 -1.68 0.11 
12.56 5.84 -1.68 0.11 
12.67 5.60 -1.68 0.11 
12.77 5.36 -1.68 0.11 
12.87 5.12 -1.68 0.11 
12.97 4.87 -1.68 0.11 
13.06 4.63 -1.68 0.11 
13.14 4.38 -1.68 0.11 
13.22 4.13 -1.68 0.11 
13.30 3.88 -1.68 0.11 
13.37 3.63 -1.68 0.11 
13.44 3.37 -1.68 0.11 
13.50 3.12 -1.68 0.11 
13.55 2.86 -1.68 0.11 
13.61 2.61 -1.68 0.11 
13.65 2.35 -1.68 0.11 
13.69 2.09 -1.68 0.11 
13.73 1.83 -1.68 0.11 
13.76 1.57 -1.68 0.11 
13.79 1.31 -1.68 0.11 
13.81 1.05 -1.68 0.11 
13.83 0.79 -1.68 0.11 
13.84 0.52 -1.68 0.11 
13.85 0.26 -1.68 0.11 
13.85 -0.00 -1.68 0.11 
13.85 -0.26 -1.68 0.11 
13.84 -0.52 -1.68 0.11 
13.83 -0.79 -1.68 0.11 
13.81 -1.05 -1.68 0.11 
13.79 -1.31 -1.68 0.11 
13.76 -1.57 -1.68 0.11 
13.73 -1.83 -1.68 0.11 
13.69 -2.09 -1.68 0.11 
13.65 -2.35 -1.68 0.11 
13.61 -2.61 -1.68 0.11 
13.55 -2.86 -1.68 0.11 
13.50 -3.12 -1.68 0.11 
13.44 -3.37 -1.68 0.11 
13.37 -3.63 -1.68 0.11 
13.30 -3.88 -1.68 0.11 
13.22 -4.13 -1.68 0.11 
13.14 -4.38 -1.68 0.11 
13.06 -4.63 -1.68 0.11 
12.97 -4.87 -1.68 0.11 
12.87 -5.12 -1.68 0.11 
12.77 -5.36 -1.68 0.11 
12.67 -5.60 -1.68 0.11 
12.56 -5.84 -1.68 0.11 
12.45 -6.08 -1.68 0.11 
12.33 -6.31 -1.68 0.11 
12.21 -6.54 -1.68 0.11 
12.08 -6.77 -1.68 0.11 
11.95 -7.00 -1.68 0.11 
11.82 -7.23 -1.68 0.11 
11.68 -7.45 -1.68 0.11 
11.54 -7.67 -1.68 0.11 
11.39 -7.89 -1.68 0.11 
11.22 -8.08 -1.68 0.12 
11.04 -8.28 -1.67 0.12 
10.58 -8.25 -1.63 0.47 
10.10 -8.19 -1.58 0.49 
9.65 -8.14 -1.53 0.43 
9.48 -8.30 -1.53 0.11 
9.32 -8.48 -1.53 0.11 
9.16 -8.65 -1.53 0.11 
8.99 -8.82 -1.53 0.11 
8.82 -8.99 -1.53 0.11 
8.65 -9.16 -1.53 0.11 
8.48 -9.32 -1.53 0.11 
8.30 -9.48 -1.53 0.11 
8.12 -9.63 -1.53 0.11 
7.93 -9.78 -1.53 0.11 
7.75 -9.93 -1.53 0.11 
7.56 -10.08 -1.53 0.11 
7.37 -10.22 -1.53 0.11 
7.17 -10.36 -1.53 0.11 
6.97 -10.49 -1.53 0.11 
6.77 -10.62 -1.53 0.11 
6.57 -10.75 -1.53 0.11 
6.37 -10.87 -1.53 0.11 
6.16 -10.99 -1.53 0.11 
5.95 -11.10 -1.53 0.11 
5.74 -11.21 -1.53 0.11 
5.53 -11.32 -1.53 0.11 
5.31 -11.42 -1.53 0.11 
5.09 -11.52 -1.53 0.11 
4.88 -11.62 -1.53 0.11 
4.66 -11.71 -1.53 0.11 
4.43 -11.79 -1.53 0.11 
1.14 -3.22 -0.41 0.31 
1.05 -3.15 -0.40 0.78 
0.98 -3.15 -0.40 0.86 
0.92 -3.15 -0.40 0.83 
0.86 -3.15 -0.40 0.84 
0.79 -3.15 -0.39 0.85 
0.73 -3.16 -0.39 0.85 
0.67 -3.16 -0.39 0.80 
0.61 -3.17 -0.39 0.81 
0.55 -3.17 -0.39 0.81 
0.49 -3.18 -0.39 0.78 
0.43 -3.19 -0.39 0.78 
0.37 -3.21 -0.39 0.78 
0.31 -3.26 -0.40 0.30 
0.25 -3.33 -0.40 0.19 
0.20 -3.46 -0.42 0.15 
0.14 -3.62 -0.44 0.16 
0.24 -12.60 -1.53 0.11 
0.00 -12.60 -1.53 0.11 
-0.24 -12.60 -1.53 0.11 
-0.48 -12.59 -1.53 0.11 
-0.71 -12.58 -1.53 0.11 
-0.95 -12.56 -1.53 0.11 
-1.19 -12.54 -1.53 0.11 
-1.43 -12.52 -1.53 0.11 
-1.66 -12.49 -1.53 0.11 
-1.90 -12.45 -1.53 0.11 
-2.14 -12.42 -1.53 0.11 
-2.37 -12.37 -1.53 0.11 
-2.60 -12.33 -1.53 0.11 
-2.84 -12.27 -1.53 0.11 
-3.07 -12.22 -1.53 0.11 
-3.30 -12.16 -1.53 0.11 
-3.53 -12.09 -1.53 0.11 
-3.76 -12.02 -1.53 0.11 
-3.98 -11.95 -1.53 0.11 
-4.21 -11.87 -1.53 0.11 
-4.43 -11.79 -1.53 0.11 
-4.66 -11.71 -1.53 0.11 
-4.88 -11.62 -1.53 0.11 
-5.09 -11.52 -1.53 0.11 
-5.31 -11.42 -1.53 0.11 
-5.53 -11.32 -1.53 0.11 
-5.74 -11.21 -1.53 0.11 
-5.95 -11.10 -1.53 0.11 
-6.16 -10.99 -1.53 0.11 
-6.37 -10.87 -1.53 0.11 
-6.57 -10.75 -1.53 0.11 
-6.77 -10.62 -1.53 0.11 
-6.97 -10.49 -1.53 0.11 
-7.17 -10.36 -1.53 0.11 
-7.37 -10.22 -1.53 0.11 
-7.56 -10.08 -1.53 0.11 
-7.75 -9.93 -1.53 0.11 
-7.93 -9.79 -1.53 0.11 
-8.12 -9.63 -1.53 0.11 
-8.30 -9.48 -1.53 0.11 
-8.00 -8.80 -1.44 0.65 
-8.06 -8.54 -1.42 0.69 
-8.82 -8.99 -1.53 0.11 
-8.99 -8.82 -1.53 0.11 
-9.16 -8.65 -1.53 0.11 
-9.32 -8.48 -1.53 0.11 
-9.48 -8.30 -1.53 0.11 
-9.63 -8.12 -1.53 0.11 
-9.79 -7.93 -1.53 0.11 
-10.03 -7.82 -1.54 0.59 
-10.42 -7.82 -1.58 0.58 
-10.83 -7.81 -1.62 0.56 
-11.27 -7.80 -1.66 0.55 
-11.50 -7.65 -1.68 0.12 
-11.67 -7.44 -1.68 0.12 
-11.82 -7.23 -1.68 0.11 
-11.95 -7.00 -1.68 0.11 
-12.08 -6.77 -1.68 0.11 
-12.21 -6.55 -1.68 0.11 
-12.33 -6.31 -1.68 0.11 
-12.45 -6.08 -1.68 0.11 
-12.56 -5.84 -1.68 0.11 
-12.67 -5.60 -1.68 0.11 
-12.77 -5.36 -1.68 0.11 
-12.87 -5.12 -1.68 0.11 
-12.97 -4.87 -1.68 0.11 
-13.06 -4.63 -1.68 0.11 
-13.14 -4.38 -1.68 0.11 
-13.22 -4.13 -1.68 0.11 
-13.30 -3.88 -1.68 0.11 
-13.37 -3.63 -1.68 0.11 
-13.44 -3.37 -1.68 0.11 
-13.50 -3.12 -1.68 0.11 
-13.55 -2.86 -1.68 0.11 
-13.61 -2.61 -1.68 0.11 
-13.65 -2.35 -1.68 0.11 
-13.69 -2.09 -1.68 0.11 
-8.27 -1.10 -1.01 0.52 
-8.13 -0.93 -0.99 0.90 
-8.08 -0.77 -0.99 0.91 
-8.05 -0.61 -0.98 0.92 
-8.02 -0.46 -0.98 0.95 
-8.01 -0.30 -0.97 0.95 
-7.99 -0.15 -0.97 0.96 
-7.99 -0.00 -0.98 0.96 
-8.01 0.15 -0.98 0.96 
-8.03 0.30 -0.98 0.95 
-8.06 0.46 -0.99 0.92 
-8.10 0.61 -1.00 0.91 
-8.14 0.77 -1.00 0.91 
-13.63 1.55 -1.68 0.12 
-13.60 1.81 -1.68 0.12 
-13.56 2.07 -1.68 0.12 
-13.52 2.33 -1.68 0.12 
-13.47 2.58 -1.68 0.12 
-13.42 2.83 -1.68 0.12 
-13.36 3.09 -1.68 0.12 
-13.30 3.34 -1.68 0.12 
-8.89 2.41 -1.13 0.25 
-8.36 2.44 -1.07 0.83 
-7.81 2.44 -1.00 0.29 
-7.33 2.44 -0.95 0.31 
-6.89 2.44 -0.90 0.32 
-6.50 2.44 -0.85 0.34 
-6.16 2.45 -0.81 0.35 
-5.87 2.46 -0.78 0.33 
-5.60 2.48 -0.75 0.65 
-5.46 2.54 -0.74 0.66 
-5.32 2.60 -0.73 0.62 
-5.19 2.66 -0.71 0.63 
-5.15 2.76 -0.72 0.86 
-5.15 2.89 -0.72 0.85 
-5.14 3.01 -0.73 0.86 
-5.14 3.14 -0.74 0.85 
-5.13 3.27 -0.75 0.84 
-5.12 3.40 -0.75 0.83 
-5.12 3.55 -0.76 0.76 
-5.13 3.70 -0.78 0.78 
-5.13 3.85 -0.79 0.77 
-5.13 4.00 -0.80 0.76 
-5.13 4.16 -0.81 0.74 
-7.09 5.98 -1.14 0.61 
-6.83 5.98 -1.11 0.64 
-6.58 5.98 -1.09 0.65 
-6.33 5.98 -1.07 0.66 
-6.09 5.98 -1.05 0.66 
-5.86 5.98 -1.03 0.65 
-5.82 6.16 -1.04 0.40 
-5.45 5.99 -0.99 0.71 
-5.28 6.03 -0.98 0.45 
-5.07 6.02 -0.96 0.90 
-4.92 6.07 -0.96 0.91 
-4.79 6.14 -0.95 0.97 
-4.67 6.23 -0.95 0.97 
-4.56 6.32 -0.95 0.80 
-4.49 6.49 -0.97 0.78 
-4.45 6.69 -0.98 0.58 
-4.43 6.95 -1.01 0.56 
-4.45 7.27 -1.04 0.47 
-6.51 11.12 -1.58 0.82 
-6.23 11.12 -1.56 0.83 
-5.96 11.12 -1.55 0.84 
-5.70 11.13 -1.53 0.68 
-5.47 11.21 -1.53 0.12 
-5.26 11.31 -1.53 0.12 
-5.04 11.41 -1.53 0.12 
-4.83 11.50 -1.53 0.12 
-4.61 11.59 -1.53 0.12 
-4.39 11.67 -1.53 0.12 
-4.17 11.76 -1.53 0.12 
-3.94 11.83 -1.53 0.12 
-3.72 11.90 -1.53 0.12 
-3.49 11.97 -1.53 0.12 
-3.27 12.04 -1.53 0.12 
-3.04 12.10 -1.53 0.12 
-2.81 12.15 -1.53 0.12 
-2.58 12.20 -1.53 0.12 
-2.35 12.25 -1.53 0.12 
-2.11 12.29 -1.53 0.12 
-1.88 12.33 -1.53 0.12 
-1.65 12.36 -1.53 0.12 
-1.41 12.39 -1.53 0.12 
-1.18 12.42 -1.53 0.12 
-0.94 12.44 -1.53 0.12 
-0.71 12.45 -1.53 0.12 
-0.47 12.46 -1.53 0.12 
-0.24 12.47 -1.53 0.12 
-0.00 12.47 -1.53 0.12 
0.24 12.47 -1.53 0.12 
0.47 12.46 -1.53 0.12 
0.71 12.45 -1.53 0.12 
0.94 12.44 -1.53 0.12 
1.18 12.42 -1.53 0.12 
1.41 12.39 -1.53 0.12 
1.65 12.36 -1.53 0.12 
1.88 12.33 -1.53 0.12 
2.11 12.29 -1.53 0.12 
2.35 12.25 -1.53 0.12 
2.58 12.20 -1.53 0.12 
2.81 12.15 -1.53 0.12 
3.04 12.10 -1.53 0.12 
3.27 12.04 -1.53 0.12 
3.49 11.97 -1.53 0.12 
3.72 11.90 -1.53 0.12 
3.94 11.83 -1.53 0.12 
4.17 11.76 -1.53 0.12 
4.36 11.60 -1.52 0.88 
4.61 11.59 -1.53 0.12 
4.83 11.50 -1.53 0.12 
5.04 11.41 -1.53 0.12 
5.26 11.31 -1.53 0.12 
5.47 11.21 -1.53 0.12 
5.69 11.12 -1.53 0.68 
5.96 11.11 -1.54 0.84 
6.23 11.10 -1.56 0.84 
6.50 11.09 -1.58 0.84 
6.78 11.08 -1.59 0.83 
7.06 11.07 -1.61 0.82 
7.35 11.06 -1.63 0.82 
7.64 11.04 -1.64 0.81 
7.94 11.02 -1.66 0.80 
8.20 10.93 -1.67 0.13 
2.92 3.74 -0.58 0.18 
2.88 3.55 -0.56 0.41 
2.88 3.42 -0.55 0.52 
2.89 3.30 -0.54 0.57 
2.90 3.19 -0.53 0.58 
2.93 3.10 -0.52 0.60 
2.96 3.02 -0.52 0.73 
3.01 2.95 -0.52 0.75 
3.08 2.91 -0.52 0.73 
3.19 2.90 -0.53 0.64 
3.31 2.90 -0.54 0.65 
3.43 2.89 -0.55 0.62 
3.56 2.89 -0.56 0.61 
3.71 2.89 -0.58 0.54 
3.87 2.90 -0.59 0.49 
4.05 2.92 -0.61 0.43 
8.45 5.85 -1.26 0.53 
8.81 5.86 -1.30 0.52 
9.19 5.86 -1.34 0.49 
9.75 5.96 -1.40 0.77 
9.92 5.81 -1.41 0.48 
10.37 5.81 -1.46 0.46 
12.09 6.48 -1.68 0.12 
12.21 6.25 -1.68 0.12 
12.33 6.02 -1.68 0.12 
12.44 5.78 -1.68 0.12 
12.54 5.55 -1.68 0.12 
12.65 5.31 -1.68 0.12 
12.75 5.07 -1.68 0.12 
12.84 4.83 -1.68 0.12 
12.93 4.58 -1.68 0.12 
13.01 4.34 -1.68 0.12 
13.09 4.09 -1.68 0.12 
13.17 3.84 -1.68 0.12 
13.24 3.59 -1.68 0.12 
13.30 3.34 -1.68 0.12 
13.36 3.09 -1.68 0.12 
13.42 2.83 -1.68 0.12 
13.47 2.58 -1.68 0.12 
13.52 2.32 -1.68 0.12 
13.56 2.07 -1.68 0.12 
13.60 1.81 -1.68 0.12 
13.63 1.55 -1.68 0.12 
13.65 1.30 -1.68 0.12 
13.68 1.04 -1.68 0.12 
13.69 0.78 -1.68 0.12 
13.71 0.52 -1.68 0.12 
13.71 0.26 -1.68 0.12 
13.72 -0.00 -1.68 0.12 
13.71 -0.26 -1.68 0.12 
13.71 -0.52 -1.68 0.12 
13.69 -0.78 -1.68 0.12 
13.68 -1.04 -1.68 0.12 
13.65 -1.30 -1.68 0.12 
13.63 -1.55 -1.68 0.12 
13.60 -1.81 -1.68 0.12 
13.56 -2.07 -1.68 0.12 
13.52 -2.33 -1.68 0.12 
13.47 -2.58 -1.68 0.12 
13.42 -2.83 -1.68 0.12 
13.36 -3.09 -1.68 0.12 
13.30 -3.34 -1.68 0.12 
13.24 -3.59 -1.68 0.12 
13.17 -3.84 -1.68 0.12 
13.09 -4.09 -1.68 0.12 
13.01 -4.34 -1.68 0.12 
12.93 -4.58 -1.68 0.12 
12.84 -4.83 -1.68 0.12 
12.75 -5.07 -1.68 0.12 
12.65 -5.31 -1.68 0.12 
12.54 -5.55 -1.68 0.12 
12.44 -5.78 -1.68 0.12 
12.33 -6.02 -1.68 0.12 
12.21 -6.25 -1.68 0.12 
12.09 -6.48 -1.68 0.12 
11.96 -6.71 -1.68 0.12 
11.84 -6.93 -1.68 0.12 
11.70 -7.16 -1.68 0.12 
11.56 -7.38 -1.68 0.12 
11.42 -7.59 -1.68 0.12 
11.28 -7.81 -1.68 0.12 
11.11 -8.01 -1.68 0.12 
10.93 -8.20 -1.67 0.12 
10.58 -8.25 -1.64 0.47 
10.10 -8.19 -1.59 0.49 
9.65 -8.13 -1.55 0.51 
9.38 -8.22 -1.53 0.12 
9.23 -8.39 -1.53 0.12 
9.07 -8.57 -1.53 0.12 
8.90 -8.74 -1.53 0.12 
8.74 -8.90 -1.53 0.12 
8.57 -9.07 -1.53 0.12 
8.39 -9.23 -1.53 0.12 
8.22 -9.38 -1.53 0.12 
8.04 -9.54 -1.53 0.12 
7.86 -9.69 -1.53 0.12 
7.67 -9.84 -1.53 0.12 
7.48 -9.98 -1.53 0.12 
7.29 -10.12 -1.53 0.12 
7.10 -10.25 -1.53 0.12 
6.90 -10.39 -1.53 0.12 
6.71 -10.52 -1.53 0.12 
6.51 -10.64 -1.53 0.12 
6.30 -10.76 -1.53 0.12 
6.10 -10.88 -1.53 0.12 
5.89 -10.99 -1.53 0.12 
5.68 -11.10 -1.53 0.12 
5.47 -11.21 -1.53 0.12 
5.26 -11.31 -1.53 0.12 
5.04 -11.41 -1.53 0.12 
4.83 -11.50 -1.53 0.12 
4.61 -11.59 -1.53 0.12 
4.39 -11.68 -1.53 0.12 
1.14 -3.21 -0.42 0.31 
1.05 -3.15 -0.41 0.78 
0.98 -3.15 -0.40 0.86 
0.92 -3.15 -0.40 0.83 
0.85 -3.15 -0.40 0.84 
0.79 -3.15 -0.40 0.85 
0.73 -3.15 -0.40 0.85 
0.67 -3.16 -0.40 0.81 
0.61 -3.16 -0.39 0.81 
0.55 -3.17 -0.39 0.81 
0.48 -3.18 -0.39 0.78 
0.42 -3.19 -0.39 0.78 
0.37 -3.20 -0.40 0.78 
0.31 -3.25 -0.40 0.30 
0.25 -3.31 -0.41 0.30 
0.20 -3.43 -0.42 0.15 
0.14 -3.60 -0.44 0.16 
0.24 -12.47 -1.53 0.12 
-0.00 -12.47 -1.53 0.12 
-0.24 -12.47 -1.53 0.12 
-0.47 -12.46 -1.53 0.12 
-0.71 -12.45 -1.53 0.12 
-0.94 -12.44 -1.53 0.12 
-1.18 -12.42 -1.53 0.12 
-1.41 -12.39 -1.53 0.12 
-1.65 -12.36 -1.53 0.12 
-1.88 -12.33 -1.53 0.12 
-2.11 -12.29 -1.53 0.12 
-2.35 -12.25 -1.53 0.12 
-2.58 -12.20 -1.53 0.12 
-2.81 -12.15 -1.53 0.12 
-3.04 -12.10 -1.53 0.12 
-3.27 -12.04 -1.53 0.12 
-3.49 -11.97 -1.53 0.12 
-3.72 -11.91 -1.53 0.12 
-3.94 -11.83 -1.53 0.12 
-4.17 -11.76 -1.53 0.12 
-4.39 -11.68 -1.53 0.12 
-4.61 -11.59 -1.53 0.12 
-4.83 -11.50 -1.53 0.12 
-5.04 -11.41 -1.53 0.12 
-5.26 -11.31 -1.53 0.12 
-5.47 -11.21 -1.53 0.12 
-5.68 -11.10 -1.53 0.12 
-5.89 -10.99 -1.53 0.12 
-6.10 -10.88 -1.53 0.12 
-6.30 -10.76 -1.53 0.12 
-6.51 -10.64 -1.53 0.12 
-6.71 -10.52 -1.53 0.12 
-6.90 -10.39 -1.53 0.12 
-7.10 -10.25 -1.53 0.12 
-7.29 -10.12 -1.53 0.12 
-7.48 -9.98 -1.53 0.12 
-7.67 -9.84 -1.53 0.12 
-7.86 -9.69 -1.53 0.12 
-8.04 -9.54 -1.53 0.12 
-8.22 -9.38 -1.53 0.12 
-8.00 -8.80 -1.46 0.65 
-8.06 -8.54 -1.44 0.69 
-8.74 -8.90 -1.53 0.12 
-8.90 -8.74 -1.53 0.12 
-9.07 -8.57 -1.53 0.12 
-9.23 -8.39 -1.53 0.12 
-9.38 -8.22 -1.53 0.12 
-9.54 -8.04 -1.53 0.12 
-9.69 -7.86 -1.53 0.12 
-10.03 -7.82 -1.56 0.59 
-10.42 -7.81 -1.60 0.58 
-10.83 -7.81 -1.64 0.56 
-11.23 -7.77 -1.67 0.12 
-11.40 -7.58 -1.68 0.12 
-11.56 -7.37 -1.68 0.12 
-11.70 -7.16 -1.68 0.12 
-11.84 -6.93 -1.68 0.12 
-11.96 -6.71 -1.68 0.12 
-12.09 -6.48 -1.68 0.12 
-12.21 -6.25 -1.68 0.12 
-12.33 -6.02 -1.68 0.12 
-12.44 -5.78 -1.68 0.12 
-12.54 -5.55 -1.68 0.12 
-12.65 -5.31 -1.68 0.12 
-12.75 -5.07 -1.68 0.12 
-12.84 -4.83 -1.68 0.12 
-12.93 -4.58 -1.68 0.12 
-13.01 -4.34 -1.68 0.12 
-13.09 -4.09 -1.68 0.12 
-13.17 -3.84 -1.68 0.12 
-13.24 -3.59 -1.68 0.12 
-13.30 -3.34 -1.68 0.12 
-13.36 -3.09 -1.68 0.12 
-13.42 -2.83 -1.68 0.12 
-13.47 -2.58 -1.68 0.12 
-13.52 -2.33 -1.68 0.12 
-13.56 -2.07 -1.68 0.12 
-8.27 -1.10 -1.02 0.52 
-8.12 -0.93 -1.00 0.90 
-8.08 -0.77 -1.00 0.91 
-8.04 -0.61 -0.99 0.92 
-8.02 -0.46 -0.98 0.95 
-8.01 -0.30 -0.98 0.95 
-7.99 -0.15 -0.98 0.96 
-7.99 -0.00 -0.99 0.96 
-8.01 0.15 -0.99 0.96 
-8.03 0.30 -0.99 0.95 
-8.06 0.46 -1.00 0.92 
-8.10 0.61 -1.00 0.91 
-8.14 0.77 -1.01 0.91 
-13.49 1.54 -1.68 0.12 
-13.46 1.79 -1.68 0.12 
-13.43 2.05 -1.68 0.12 
-13.39 2.30 -1.68 0.12 
-13.34 2.56 -1.68 0.12 
-13.29 2.81 -1.68 0.12 
-13.23 3.06 -1.68 0.12 
-13.17 3.31 -1.68 0.12 
-8.89 2.41 -1.14 0.25 
-8.36 2.44 -1.08 0.83 
-7.81 2.44 -1.01 0.29 
-7.33 2.44 -0.96 0.31 
-6.89 2.44 -0.91 0.32 
-6.50 2.44 -0.86 0.34 
-6.15 2.45 -0.82 0.36 
-5.85 2.46 -0.79 0.33 
-5.59 2.47 -0.76 0.65 
-5.45 2.54 -0.74 0.66 
-5.32 2.60 -0.73 0.62 
-5.19 2.65 -0.72 0.91 
-5.15 2.76 -0.72 0.86 
-5.15 2.89 -0.73 0.85 
-5.14 3.01 -0.74 0.86 
-5.14 3.14 -0.75 0.85 
-5.13 3.27 -0.75 0.84 
-5.12 3.40 -0.76 0.83 
-5.12 3.55 -0.77 0.76 
-5.13 3.70 -0.78 0.78 
-5.13 3.85 -0.79 0.77 
-5.13 4.00 -0.80 0.75 
-5.12 4.15 -0.82 0.74 
-7.09 5.98 -1.15 0.62 
-6.83 5.98 -1.12 0.64 
-6.57 5.98 -1.10 0.65 
-6.33 5.98 -1.08 0.66 
-6.09 5.98 -1.06 0.66 
-5.86 5.97 -1.04 0.65 
-5.83 6.17 -1.05 0.40 
-5.45 5.99 -1.00 0.71 
-5.27 6.02 -0.99 0.45 
-5.07 6.02 -0.97 0.90 
-4.92 6.07 -0.97 0.92 
-4.79 6.14 -0.96 0.97 
-4.67 6.23 -0.96 0.97 
-4.55 6.32 -0.96 0.80 
-4.49 6.49 -0.98 0.78 
-4.45 6.69 -0.99 0.58 
-4.43 6.95 -1.02 0.56 
-4.45 7.27 -1.05 0.47 
-6.51 11.11 -1.59 0.82 
-6.23 11.12 -1.58 0.83 
-5.96 11.12 -1.56 0.84 
-5.69 11.12 -1.55 0.85 
-5.43 11.13 -1.53 0.68 
-5.21 11.20 -1.53 0.12 
-4.99 11.30 -1.53 0.12 
-4.78 11.39 -1.53 0.12 
-4.56 11.48 -1.53 0.12 
-4.35 11.56 -1.53 0.12 
-4.13 11.64 -1.53 0.12 
-3.91 11.72 -1.53 0.12 
-3.68 11.79 -1.53 0.12 
-3.46 11.86 -1.53 0.12 
-3.23 11.92 -1.53 0.12 
-3.01 11.98 -1.53 0.12 
-2.78 12.03 -1.53 0.12 
-2.55 12.08 -1.53 0.12 
-2.32 12.13 -1.53 0.12 
-2.09 12.17 -1.53 0.12 
-1.86 12.21 -1.53 0.12 
-1.63 12.24 -1.53 0.12 
-1.40 12.27 -1.53 0.12 
-1.17 12.29 -1.53 0.12 
-0.93 12.31 -1.53 0.12 
-0.70 12.33 -1.53 0.12 
-0.47 12.34 -1.53 0.12 
-0.23 12.35 -1.53 0.12 
0.00 12.35 -1.53 0.12 
0.23 12.35 -1.53 0.12 
0.47 12.34 -1.53 0.12 
0.70 12.33 -1.53 0.12 
0.93 12.31 -1.53 0.12 
1.17 12.29 -1.53 0.12 
1.40 12.27 -1.53 0.12 
1.63 12.24 -1.53 0.12 
1.86 12.21 -1.53 0.12 
2.09 12.17 -1.53 0.12 
2.32 12.13 -1.53 0.12 
2.55 12.08 -1.53 0.12 
2.78 12.03 -1.53 0.12 
3.01 11.98 -1.53 0.12 
3.23 11.92 -1.53 0.12 
3.46 11.86 -1.53 0.12 
3.68 11.79 -1.53 0.12 
3.91 11.72 -1.53 0.12 
4.13 11.64 -1.53 0.12 
4.35 11.56 -1.53 0.12 
4.56 11.48 -1.53 0.12 
4.78 11.39 -1.53 0.12 
4.99 11.30 -1.53 0.12 
5.21 11.20 -1.53 0.12 
5.43 11.12 -1.53 0.69 
5.69 11.12 -1.55 0.85 
5.96 11.11 -1.56 0.84 
6.22 11.10 -1.58 0.84 
6.50 11.09 -1.59 0.84 
6.77 11.08 -1.61 0.83 
7.06 11.07 -1.62 0.82 
7.35 11.05 -1.64 0.82 
7.64 11.03 -1.66 0.81 
7.91 10.97 -1.67 0.13 
8.13 10.83 -1.68 0.13 
2.90 3.72 -0.58 0.18 
2.88 3.55 -0.56 0.41 
2.88 3.42 -0.55 0.52 
2.89 3.30 -0.54 0.58 
2.90 3.19 -0.53 0.59 
2.93 3.10 -0.53 0.60 
2.96 3.02 -0.52 0.73 
3.01 2.95 -0.52 0.75 
3.08 2.91 -0.52 0.74 
3.19 2.90 -0.53 0.64 
3.31 2.90 -0.54 0.65 
3.43 2.89 -0.56 0.62 
3.56 2.89 -0.57 0.61 
3.71 2.89 -0.58 0.54 
3.86 2.90 -0.60 0.49 
4.04 2.91 -0.62 0.43 
8.44 5.85 -1.27 0.53 
8.81 5.85 -1.31 0.52 
9.19 5.86 -1.35 0.49 
9.75 5.96 -1.41 0.77 
9.92 5.81 -1.42 0.48 
10.37 5.81 -1.47 0.46 
11.97 6.42 -1.68 0.12 
12.09 6.19 -1.68 0.12 
12.20 5.96 -1.68 0.12 
12.32 5.73 -1.68 0.12 
12.42 5.49 -1.68 0.12 
12.52 5.26 -1.68 0.12 
12.62 5.02 -1.68 0.12 
12.71 4.78 -1.68 0.12 
12.80 4.54 -1.68 0.12 
12.88 4.29 -1.68 0.12 
12.96 4.05 -1.68 0.12 
13.04 3.80 -1.68 0.12 
13.11 3.56 -1.68 0.12 
13.17 3.31 -1.68 0.12 
13.23 3.06 -1.68 0.12 
13.29 2.81 -1.68 0.12 
13.34 2.56 -1.68 0.12 
13.39 2.30 -1.68 0.12 
13.43 2.05 -1.68 0.12 
13.46 1.79 -1.68 0.12 
13.49 1.54 -1.68 0.12 
13.52 1.28 -1.68 0.12 
13.54 1.03 -1.68 0.12 
13.56 0.77 -1.68 0.12 
13.57 0.51 -1.68 0.12 
13.58 0.26 -1.68 0.12 
13.58 -0.00 -1.68 0.12 
13.58 -0.26 -1.68 0.12 
13.57 -0.51 -1.68 0.12 
13.56 -0.77 -1.68 0.12 
13.54 -1.03 -1.68 0.12 
13.52 -1.28 -1.68 0.12 
13.49 -1.54 -1.68 0.12 
13.46 -1.79 -1.68 0.12 
13.43 -2.05 -1.68 0.12 
13.39 -2.30 -1.68 0.12 
13.34 -2.56 -1.68 0.12 
13.29 -2.81 -1.68 0.12 
13.23 -3.06 -1.68 0.12 
13.17 -3.31 -1.68 0.12 
13.11 -3.56 -1.68 0.12 
13.04 -3.80 -1.68 0.12 
12.96 -4.05 -1.68 0.12 
12.88 -4.29 -1.68 0.12 
12.80 -4.54 -1.68 0.12 
12.71 -4.78 -1.68 0.12 
12.62 -5.02 -1.68 0.12 
12.52 -5.26 -1.68 0.12 
12.42 -5.49 -1.68 0.12 
12.32 -5.73 -1.68 0.12 
12.20 -5.96 -1.68 0.12 
12.09 -6.19 -1.68 0.12 
11.97 -6.42 -1.68 0.12 
11.85 -6.64 -1.68 0.12 
11.72 -6.86 -1.68 0.12 
11.59 -7.09 -1.68 0.12 
11.45 -7.30 -1.68 0.12 
11.31 -7.52 -1.68 0.12 
11.17 -7.73 -1.68 0.12 
11.01 -7.94 -1.68 0.12 
10.83 -8.12 -1.68 0.12 
10.57 -8.25 -1.66 0.47 
10.09 -8.18 -1.61 0.49 
9.64 -8.12 -1.56 0.51 
9.29 -8.14 -1.53 0.12 
9.14 -8.31 -1.53 0.12 
8.98 -8.48 -1.53 0.12 
8.82 -8.65 -1.53 0.12 
8.65 -8.82 -1.53 0.12 
8.48 -8.98 -1.53 0.12 
8.31 -9.14 -1.53 0.12 
8.14 -9.29 -1.53 0.12 
7.96 -9.44 -1.53 0.12 
7.78 -9.59 -1.53 0.12 
7.60 -9.74 -1.53 0.12 
7.41 -9.88 -1.53 0.12 
7.22 -10.02 -1.53 0.12 
7.03 -10.15 -1.53 0.12 
6.84 -10.29 -1.53 0.12 
6.64 -10.41 -1.53 0.12 
6.44 -10.54 -1.53 0.12 
6.24 -10.66 -1.53 0.12 
6.04 -10.77 -1.53 0.12 
5.83 -10.89 -1.53 0.12 
5.63 -10.99 -1.53 0.12 
5.42 -11.10 -1.53 0.12 
5.21 -11.20 -1.53 0.12 
4.99 -11.30 -1.53 0.12 
4.78 -11.39 -1.53 0.12 
4.56 -11.48 -1.53 0.12 
4.35 -11.56 -1.53 0.12 
1.13 -3.20 -0.42 0.31 
1.05 -3.15 -0.41 0.78 
0.98 -3.14 -0.41 0.86 
0.92 -3.15 -0.41 0.83 
0.85 -3.15 -0.40 0.84 
0.79 -3.15 -0.40 0.85 
0.73 -3.15 -0.40 0.85 
0.67 -3.15 -0.40 0.81 
0.61 -3.16 -0.40 0.81 
0.54 -3.17 -0.40 0.81 
0.48 -3.17 -0.40 0.78 
0.42 -3.18 -0.40 0.78 
0.36 -3.20 -0.40 0.78 
0.31 -3.24 -0.40 0.30 
0.25 -3.30 -0.41 0.30 
0.19 -3.41 -0.42 0.14 
0.14 -3.57 -0.44 0.16 
0.23 -12.35 -1.53 0.12 
-0.00 -12.35 -1.53 0.12 
-0.23 -12.35 -1.53 0.12 
-0.47 -12.34 -1.53 0.12 
-0.70 -12.33 -1.53 0.12 
-0.93 -12.31 -1.53 0.12 
-1.17 -12.30 -1.53 0.12 
-1.40 -12.27 -1.53 0.12 
-1.63 -12.24 -1.53 0.12 
-1.86 -12.21 -1.53 0.12 
-2.09 -12.17 -1.53 0.12 
-2.32 -12.13 -1.53 0.12 
-2.55 -12.08 -1.53 0.12 
-2.78 -12.03 -1.53 0.12 
-3.01 -11.98 -1.53 0.12 
-3.23 -11.92 -1.53 0.12 
-3.46 -11.86 -1.53 0.12 
-3.68 -11.79 -1.53 0.12 
-3.91 -11.72 -1.53 0.12 
-4.13 -11.64 -1.53 0.12 
-4.35 -11.56 -1.53 0.12 
-4.56 -11.48 -1.53 0.12 
-4.78 -11.39 -1.53 0.12 
-4.99 -11.30 -1.53 0.12 
-5.21 -11.20 -1.53 0.12 
-5.42 -11.10 -1.53 0.12 
-5.63 -10.99 -1.53 0.12 
-5.83 -10.89 -1.53 0.12 
-6.04 -10.77 -1.53 0.12 
-6.24 -10.66 -1.53 0.12 
-6.44 -10.54 -1.53 0.12 
-6.64 -10.41 -1.53 0.12 
-6.84 -10.29 -1.53 0.12 
-7.03 -10.15 -1.53 0.12 
-7.22 -10.02 -1.53 0.12 
-7.41 -9.88 -1.53 0.12 
-7.60 -9.74 -1.53 0.12 
-7.78 -9.59 -1.53 0.12 
-7.96 -9.44 -1.53 0.12 
-8.14 -9.29 -1.53 0.12 
-8.00 -8.80 -1.47 0.65 
-8.06 -8.53 -1.45 0.69 
-8.65 -8.82 -1.53 0.12 
-8.82 -8.65 -1.53 0.12 
-8.98 -8.48 -1.53 0.12 
-9.14 -8.31 -1.53 0.12 
-9.29 -8.14 -1.53 0.12 
-9.44 -7.96 -1.53 0.12 
-9.65 -7.82 -1.54 0.61 
-10.02 -7.82 -1.57 0.59 
-10.42 -7.81 -1.61 0.58 
-10.83 -7.80 -1.65 0.56 
-11.13 -7.70 -1.67 0.13 
-11.29 -7.51 -1.68 0.13 
-11.45 -7.30 -1.68 0.12 
-11.59 -7.09 -1.68 0.12 
-11.72 -6.86 -1.68 0.12 
-11.85 -6.64 -1.68 0.12 
-11.97 -6.42 -1.68 0.12 
-12.09 -6.19 -1.68 0.12 
-12.20 -5.96 -1.68 0.12 
-12.32 -5.73 -1.68 0.12 
-12.42 -5.49 -1.68 0.12 
-12.52 -5.26 -1.68 0.12 
-12.62 -5.02 -1.68 0.12 
-12.71 -4.78 -1.68 0.12 
-12.80 -4.54 -1.68 0.12 
-12.89 -4.29 -1.68 0.12 
-12.96 -4.05 -1.68 0.12 
-13.04 -3.80 -1.68 0.12 
-13.11 -3.56 -1.68 0.12 
-13.17 -3.31 -1.68 0.12 
-13.23 -3.06 -1.68 0.12 
-13.29 -2.81 -1.68 0.12 
-13.34 -2.56 -1.68 0.12 
-13.39 -2.30 -1.68 0.12 
-13.43 -2.05 -1.68 0.12 
-8.27 -1.10 -1.03 0.52 
-8.12 -0.93 -1.01 0.90 
-8.08 -0.77 -1.00 0.91 
-8.04 -0.61 -1.00 0.92 
-8.02 -0.46 -0.99 0.95 
-8.00 -0.30 -0.99 0.95 
-7.99 -0.15 -0.99 0.96 
-7.99 -0.00 -1.00 0.96 
-8.01 0.15 -1.00 0.96 
-8.03 0.30 -1.00 0.95 
-8.06 0.46 -1.01 0.92 
-8.10 0.61 -1.01 0.91 
-8.14 0.77 -1.02 0.91 
-8.60 0.98 -1.08 0.96 
-13.33 1.78 -1.68 0.12 
-13.30 2.03 -1.68 0.12 
-13.26 2.28 -1.68 0.12 
-13.21 2.53 -1.68 0.12 
-13.16 2.78 -1.68 0.12 
-13.10 3.03 -1.68 0.12 
-13.04 3.28 -1.68 0.12 
-8.89 2.41 -1.15 0.25 
-8.35 2.44 -1.09 0.83 
-7.81 2.44 -1.02 0.29 
-7.33 2.44 -0.97 0.31 
-6.90 2.44 -0.91 0.32 
-6.50 2.44 -0.87 0.34 
-6.15 2.45 -0.83 0.36 
-5.84 2.45 -0.79 0.33 
-5.59 2.47 -0.76 0.65 
-5.45 2.53 -0.75 0.61 
-5.31 2.59 -0.74 0.62 
-5.18 2.65 -0.73 0.91 
-5.15 2.76 -0.73 0.86 
-5.15 2.89 -0.74 0.85 
-5.14 3.01 -0.74 0.84 
-5.14 3.14 -0.75 0.85 
-5.13 3.27 -0.76 0.84 
-5.12 3.40 -0.77 0.83 
-5.12 3.55 -0.78 0.76 
-5.13 3.70 -0.79 0.78 
-5.13 3.84 -0.80 0.77 
-5.12 4.00 -0.81 0.75 
-5.12 4.15 -0.82 0.74 
-7.09 5.97 -1.16 0.62 
-6.82 5.98 -1.13 0.64 
-6.57 5.98 -1.11 0.65 
-6.33 5.98 -1.09 0.66 
-6.09 5.98 -1.07 0.66 
-5.86 5.97 -1.05 0.65 
-5.66 5.99 -1.03 0.71 
-5.45 6.00 -1.01 0.71 
-5.26 6.01 -1.00 0.45 
-5.07 6.02 -0.98 0.90 
-4.92 6.07 -0.98 0.92 
-4.79 6.14 -0.97 0.97 
-4.67 6.23 -0.97 0.97 
-4.55 6.32 -0.97 0.80 
-4.49 6.49 -0.99 0.78 
-4.45 6.69 -1.00 0.58 
-4.43 6.95 -1.03 0.56 
-4.44 7.27 -1.06 0.47 
-6.51 11.11 -1.61 0.82 
-6.23 11.11 -1.59 0.83 
-5.96 11.12 -1.58 0.84 
-5.69 11.12 -1.56 0.85 
-5.43 11.12 -1.55 0.86 
-5.17 11.13 -1.53 0.69 
-4.95 11.19 -1.53 0.12 
-4.73 11.28 -1.53 0.12 
-4.52 11.36 -1.53 0.12 
-4.30 11.45 -1.53 0.12 
-4.09 11.53 -1.53 0.12 
-3.87 11.60 -1.53 0.12 
-3.65 11.67 -1.53 0.12 
-3.43 11.74 -1.53 0.12 
-3.20 11.80 -1.53 0.12 
-2.98 11.86 -1.53 0.12 
-2.75 11.92 -1.53 0.12 
-2.53 11.97 -1.53 0.12 
-2.30 12.01 -1.53 0.12 
-2.07 12.05 -1.53 0.12 
-1.84 12.09 -1.53 0.12 
-1.62 12.12 -1.53 0.12 
-1.39 12.15 -1.53 0.12 
-1.16 12.18 -1.53 0.12 
-0.93 12.20 -1.53 0.12 
-0.69 12.21 -1.53 0.12 
-0.46 12.22 -1.53 0.12 
-0.23 12.23 -1.53 0.12 
-0.00 12.23 -1.53 0.12 
0.23 12.23 -1.53 0.12 
0.46 12.22 -1.53 0.12 
0.69 12.21 -1.53 0.12 
0.93 12.20 -1.53 0.12 
1.16 12.18 -1.53 0.12 
1.39 12.15 -1.53 0.12 
1.62 12.12 -1.53 0.12 
1.84 12.09 -1.53 0.12 
2.07 12.05 -1.53 0.12 
2.30 12.01 -1.53 0.12 
2.53 11.97 -1.53 0.12 
2.75 11.92 -1.53 0.12 
2.98 11.86 -1.53 0.12 
3.20 11.80 -1.53 0.12 
3.43 11.74 -1.53 0.12 
3.65 11.67 -1.53 0.12 
3.87 11.60 -1.53 0.12 
4.09 11.53 -1.53 0.12 
4.30 11.45 -1.53 0.12 
4.52 11.36 -1.53 0.12 
4.74 11.28 -1.53 0.70 
4.95 11.19 -1.53 0.12 
5.17 11.13 -1.53 0.69 
5.43 11.12 -1.55 0.86 
5.69 11.11 -1.56 0.85 
5.95 11.11 -1.57 0.84 
6.22 11.10 -1.59 0.84 
6.50 11.09 -1.61 0.84 
6.77 11.08 -1.62 0.83 
7.06 11.06 -1.64 0.82 
7.35 11.05 -1.66 0.82 
7.62 11.01 -1.67 0.13 
7.84 10.88 -1.68 0.13 
8.05 10.74 -1.68 0.13 
2.89 3.71 -0.59 0.18 
2.87 3.54 -0.57 0.41 
2.87 3.41 -0.56 0.52 
2.88 3.29 -0.55 0.58 
2.90 3.19 -0.54 0.66 
2.92 3.09 -0.53 0.60 
2.96 3.01 -0.53 0.73 
3.00 2.95 -0.53 0.75 
3.07 2.90 -0.53 0.74 
3.19 2.90 -0.54 0.65 
3.31 2.89 -0.55 0.65 
3.43 2.89 -0.56 0.62 
3.56 2.89 -0.57 0.61 
3.70 2.89 -0.59 0.54 
3.86 2.89 -0.60 0.49 
4.04 2.91 -0.62 0.43 
8.44 5.85 -1.28 0.53 
8.80 5.85 -1.32 0.52 
9.19 5.86 -1.36 0.49 
9.76 5.97 -1.43 0.61 
9.92 5.81 -1.44 0.48 
10.37 5.81 -1.49 0.46 
11.85 6.35 -1.68 0.12 
11.97 6.13 -1.68 0.12 
12.09 5.90 -1.68 0.12 
12.20 5.67 -1.68 0.12 
12.30 5.44 -1.68 0.12 
12.40 5.21 -1.68 0.12 
12.50 4.97 -1.68 0.12 
12.59 4.73 -1.68 0.12 
12.68 4.49 -1.68 0.12 
12.76 4.25 -1.68 0.12 
12.84 4.01 -1.68 0.12 
12.91 3.77 -1.68 0.12 
12.98 3.52 -1.68 0.12 
13.04 3.28 -1.68 0.12 
13.10 3.03 -1.68 0.12 
13.16 2.78 -1.68 0.12 
13.21 2.53 -1.68 0.12 
13.26 2.28 -1.68 0.12 
13.30 2.03 -1.68 0.12 
13.33 1.78 -1.68 0.12 
13.36 1.52 -1.68 0.12 
13.39 1.27 -1.68 0.12 
13.41 1.02 -1.68 0.12 
13.43 0.76 -1.68 0.12 
13.44 0.51 -1.68 0.12 
13.45 0.25 -1.68 0.12 
13.45 -0.00 -1.68 0.12 
13.45 -0.25 -1.68 0.12 
13.44 -0.51 -1.68 0.12 
13.43 -0.76 -1.68 0.12 
13.41 -1.02 -1.68 0.12 
13.39 -1.27 -1.68 0.12 
13.36 -1.52 -1.68 0.12 
13.33 -1.78 -1.68 0.12 
13.30 -2.03 -1.68 0.12 
13.26 -2.28 -1.68 0.12 
13.21 -2.53 -1.68 0.12 
13.16 -2.78 -1.68 0.12 
13.10 -3.03 -1.68 0.12 
13.04 -3.28 -1.68 0.12 
12.98 -3.52 -1.68 0.12 
12.91 -3.77 -1.68 0.12 
12.84 -4.01 -1.68 0.12 
12.76 -4.25 -1.68 0.12 
12.68 -4.49 -1.68 0.12 
12.59 -4.73 -1.68 0.12 
12.50 -4.97 -1.68 0.12 
12.40 -5.21 -1.68 0.12 
12.30 -5.44 -1.68 0.12 
12.20 -5.67 -1.68 0.12 
12.09 -5.90 -1.68 0.12 
11.97 -6.13 -1.68 0.12 
11.85 -6.35 -1.68 0.12 
11.73 -6.58 -1.68 0.12 
11.61 -6.80 -1.68 0.12 
11.47 -7.02 -1.68 0.12 
11.34 -7.23 -1.68 0.12 
11.20 -7.45 -1.68 0.12 
11.06 -7.66 -1.68 0.12 
10.91 -7.86 -1.68 0.12 
10.73 -8.05 -1.68 0.13 
10.56 -8.23 -1.67 0.13 
10.09 -8.18 -1.62 0.49 
9.64 -8.12 -1.57 0.51 
9.24 -8.09 -1.53 0.47 
9.05 -8.23 -1.53 0.12 
8.89 -8.40 -1.53 0.12 
8.73 -8.57 -1.53 0.12 
8.57 -8.73 -1.53 0.12 
8.40 -8.89 -1.53 0.12 
8.23 -9.05 -1.53 0.12 
8.06 -9.20 -1.53 0.12 
7.88 -9.35 -1.53 0.12 
7.70 -9.50 -1.53 0.12 
7.52 -9.64 -1.53 0.12 
7.34 -9.78 -1.53 0.12 
7.15 -9.92 -1.53 0.12 
6.96 -10.06 -1.53 0.12 
6.77 -10.19 -1.53 0.12 
6.58 -10.31 -1.53 0.12 
6.38 -10.43 -1.53 0.12 
6.18 -10.55 -1.53 0.12 
5.98 -10.67 -1.53 0.12 
5.78 -10.78 -1.53 0.12 
5.57 -10.89 -1.53 0.12 
5.37 -10.99 -1.53 0.12 
5.16 -11.09 -1.53 0.12 
4.95 -11.19 -1.53 0.12 
4.73 -11.28 -1.53 0.12 
4.52 -11.36 -1.53 0.12 
4.30 -11.45 -1.53 0.12 
1.13 -3.19 -0.42 0.31 
1.05 -3.15 -0.41 0.78 
0.98 -3.14 -0.41 0.83 
0.92 -3.14 -0.41 0.83 
0.85 -3.14 -0.41 0.84 
0.79 -3.15 -0.41 0.85 
0.73 -3.15 -0.40 0.85 
0.67 -3.15 -0.40 0.81 
0.60 -3.16 -0.40 0.81 
0.54 -3.16 -0.40 0.82 
0.48 -3.17 -0.40 0.78 
0.42 -3.18 -0.40 0.78 
0.36 -3.20 -0.40 0.78 
0.31 -3.22 -0.40 0.30 
0.25 -3.29 -0.41 0.30 
0.19 -3.38 -0.42 0.14 
0.13 -3.55 -0.44 0.16 
0.23 -12.23 -1.53 0.12 
-0.00 -12.23 -1.53 0.12 
-0.23 -12.23 -1.53 0.12 
-0.46 -12.22 -1.53 0.12 
-0.69 -12.21 -1.53 0.12 
-0.93 -12.20 -1.53 0.12 
-1.16 -12.18 -1.53 0.12 
-1.39 -12.15 -1.53 0.12 
-1.62 -12.12 -1.53 0.12 
-1.84 -12.09 -1.53 0.12 
-2.07 -12.05 -1.53 0.12 
-2.30 -12.01 -1.53 0.12 
-2.53 -11.97 -1.53 0.12 
-2.75 -11.92 -1.53 0.12 
-2.98 -11.86 -1.53 0.12 
-3.20 -11.80 -1.53 0.12 
-3.43 -11.74 -1.53 0.12 
-3.65 -11.67 -1.53 0.12 
-3.87 -11.60 -1.53 0.12 
-4.09 -11.53 -1.53 0.12 
-4.30 -11.45 -1.53 0.12 
-4.52 -11.36 -1.53 0.12 
-4.73 -11.28 -1.53 0.12 
-4.95 -11.19 -1.53 0.12 
-5.16 -11.09 -1.53 0.12 
-5.37 -10.99 -1.53 0.12 
-5.57 -10.89 -1.53 0.12 
-5.78 -10.78 -1.53 0.12 
-5.98 -10.67 -1.53 0.12 
-6.18 -10.55 -1.53 0.12 
-6.38 -10.43 -1.53 0.12 
-6.58 -10.31 -1.53 0.12 
-6.77 -10.19 -1.53 0.12 
-6.96 -10.06 -1.53 0.12 
-7.15 -9.92 -1.53 0.12 
-7.34 -9.78 -1.53 0.12 
-7.52 -9.64 -1.53 0.12 
-7.70 -9.50 -1.53 0.12 
-7.88 -9.35 -1.53 0.12 
-8.06 -9.20 -1.53 0.12 
-8.00 -8.79 -1.49 0.65 
-8.06 -8.53 -1.47 0.69 
-8.57 -8.73 -1.53 0.12 
-8.73 -8.57 -1.53 0.12 
-8.89 -8.40 -1.53 0.12 
-9.05 -8.23 -1.53 0.12 
-9.20 -8.06 -1.53 0.12 
-9.35 -7.88 -1.53 0.12 
-9.65 -7.82 -1.55 0.61 
-10.02 -7.82 -1.59 0.59 
-10.41 -7.81 -1.63 0.58 
-10.82 -7.80 -1.67 0.56 
-11.03 -7.63 -1.68 0.13 
-11.19 -7.44 -1.68 0.13 
-11.34 -7.23 -1.68 0.12 
-11.47 -7.02 -1.68 0.12 
-11.61 -6.80 -1.68 0.12 
-11.73 -6.58 -1.68 0.12 
-11.85 -6.35 -1.68 0.12 
-11.97 -6.13 -1.68 0.12 
-12.09 -5.90 -1.68 0.12 
-12.20 -5.67 -1.68 0.12 
-12.30 -5.44 -1.68 0.12 
-12.40 -5.21 -1.68 0.12 
-12.50 -4.97 -1.68 0.12 
-12.59 -4.73 -1.68 0.12 
-12.68 -4.49 -1.68 0.12 
-12.76 -4.25 -1.68 0.12 
-12.84 -4.01 -1.68 0.12 
-12.91 -3.77 -1.68 0.12 
-12.98 -3.52 -1.68 0.12 
-13.04 -3.28 -1.68 0.12 
-13.10 -3.03 -1.68 0.12 
-13.16 -2.78 -1.68 0.12 
-13.21 -2.53 -1.68 0.12 
-13.26 -2.28 -1.68 0.12 
-13.30 -2.03 -1.68 0.12 
-8.27 -1.10 -1.04 0.52 
-8.12 -0.93 -1.02 0.90 
-8.08 -0.77 -1.01 0.91 
-8.04 -0.61 -1.01 0.92 
-8.02 -0.46 -1.00 0.95 
-8.00 -0.30 -1.00 0.95 
-7.99 -0.15 -1.00 0.96 
-7.99 -0.00 -1.01 0.96 
-8.01 0.15 -1.01 0.96 
-8.03 0.30 -1.01 0.95 
-8.06 0.46 -1.02 0.92 
-8.10 0.61 -1.02 0.91 
-8.14 0.77 -1.03 0.91 
-8.59 0.98 -1.09 0.96 
-13.20 1.76 -1.68 0.12 
-13.17 2.01 -1.68 0.12 
-13.13 2.26 -1.68 0.12 
-13.08 2.51 -1.68 0.12 
-13.03 2.75 -1.68 0.12 
-12.98 3.00 -1.68 0.12 
-12.92 3.24 -1.68 0.12 
-8.89 2.41 -1.16 0.25 
-8.35 2.43 -1.10 0.83 
-7.82 2.44 -1.03 0.29 
-7.33 2.44 -0.97 0.31 
-6.90 2.44 -0.92 0.32 
-6.50 2.44 -0.88 0.34 
-6.15 2.45 -0.84 0.36 
-5.83 2.45 -0.80 0.34 
-5.58 2.47 -0.77 0.60 
-5.44 2.53 -0.76 0.61 
-5.31 2.59 -0.75 0.62 
-5.18 2.65 -0.73 0.91 
-5.15 2.76 -0.74 0.86 
-5.14 2.88 -0.74 0.85 
-5.14 3.01 -0.75 0.84 
-5.14 3.14 -0.76 0.83 
-5.13 3.27 -0.77 0.84 
-5.12 3.40 -0.78 0.83 
-5.12 3.55 -0.79 0.76 
-5.12 3.69 -0.80 0.78 
-5.12 3.84 -0.81 0.76 
-5.12 3.99 -0.82 0.75 
-5.12 4.15 -0.83 0.74 
-7.09 5.97 -1.17 0.62 
-6.82 5.97 -1.14 0.64 
-6.57 5.98 -1.12 0.65 
-6.33 5.98 -1.10 0.66 
-6.09 5.97 -1.08 0.66 
-5.86 5.97 -1.06 0.65 
-5.66 5.99 -1.04 0.71 
-5.45 6.00 -1.02 0.71 
-5.25 5.99 -1.01 0.45 
-5.07 6.01 -0.99 0.90 
-4.92 6.07 -0.99 0.92 
-4.79 6.14 -0.98 0.97 
-4.67 6.23 -0.98 0.97 
-4.55 6.32 -0.98 0.80 
-4.49 6.49 -1.00 0.78 
-4.45 6.69 -1.01 0.58 
-4.43 6.95 -1.04 0.54 
-4.44 7.26 -1.07 0.47 
-6.51 11.11 -1.62 0.82 
-6.23 11.11 -1.61 0.83 
-5.96 11.11 -1.59 0.84 
-5.69 11.12 -1.58 0.85 
-5.43 11.12 -1.56 0.86 
-5.17 11.12 -1.55 0.86 
-4.92 11.13 -1.54 0.69 
-4.69 11.17 -1.53 0.12 
-4.48 11.26 -1.53 0.12 
-4.26 11.34 -1.53 0.12 
-4.05 11.42 -1.53 0.12 
-3.83 11.49 -1.53 0.12 
-3.61 11.56 -1.53 0.12 
-3.39 11.63 -1.53 0.12 
-3.17 11.69 -1.53 0.12 
-2.95 11.75 -1.53 0.12 
-2.73 11.80 -1.53 0.12 
-2.50 11.85 -1.53 0.12 
-2.28 11.90 -1.53 0.12 
-2.05 11.94 -1.53 0.12 
-1.83 11.97 -1.53 0.12 
-1.60 12.01 -1.53 0.12 
-1.37 12.03 -1.53 0.12 
-1.14 12.06 -1.53 0.12 
-0.92 12.08 -1.53 0.12 
-0.69 12.09 -1.53 0.12 
-0.46 12.10 -1.53 0.12 
-0.23 12.11 -1.53 0.12 
-0.00 12.11 -1.53 0.12 
0.23 12.11 -1.53 0.12 
0.46 12.10 -1.53 0.12 
0.69 12.09 -1.53 0.12 
0.92 12.08 -1.53 0.12 
1.14 12.06 -1.53 0.12 
1.37 12.03 -1.53 0.12 
1.60 12.01 -1.53 0.12 
1.83 11.97 -1.53 0.12 
2.05 11.94 -1.53 0.12 
2.28 11.90 -1.53 0.12 
2.50 11.85 -1.53 0.12 
2.73 11.80 -1.53 0.12 
2.95 11.75 -1.53 0.12 
3.17 11.69 -1.53 0.12 
3.39 11.63 -1.53 0.12 
3.61 11.56 -1.53 0.12 
3.83 11.49 -1.53 0.12 
4.05 11.42 -1.53 0.12 
4.26 11.34 -1.53 0.12 
4.48 11.26 -1.53 0.12 
4.69 11.17 -1.53 0.12 
4.92 11.13 -1.54 0.70 
5.17 11.12 -1.55 0.87 
5.43 11.12 -1.56 0.86 
5.69 11.11 -1.57 0.85 
5.95 11.10 -1.59 0.84 
6.22 11.10 -1.61 0.84 
6.49 11.08 -1.62 0.84 
6.77 11.07 -1.64 0.83 
7.05 11.06 -1.66 0.82 
7.34 11.04 -1.67 0.13 
7.56 10.91 -1.68 0.13 
7.77 10.78 -1.68 0.13 
7.98 10.65 -1.68 0.13 
2.88 3.69 -0.59 0.42 
2.87 3.53 -0.57 0.51 
2.87 3.41 -0.56 0.52 
2.88 3.29 -0.55 0.58 
2.89 3.18 -0.54 0.67 
2.92 3.09 -0.54 0.67 
2.95 3.01 -0.53 0.73 
3.00 2.94 -0.53 0.75 
3.07 2.90 -0.53 0.74 
3.18 2.90 -0.54 0.65 
3.30 2.89 -0.55 0.65 
3.43 2.89 -0.57 0.62 
3.56 2.88 -0.58 0.61 
3.70 2.89 -0.59 0.54 
3.86 2.89 -0.61 0.49 
4.03 2.91 -0.63 0.43 
8.44 5.84 -1.30 0.53 
8.80 5.85 -1.33 0.52 
11.23 7.16 -1.68 0.12 
9.77 5.98 -1.45 0.61 
9.92 5.81 -1.45 0.48 
10.37 5.81 -1.50 0.46 
11.74 6.29 -1.68 0.12 
11.86 6.07 -1.68 0.12 
11.97 5.84 -1.68 0.12 
12.08 5.62 -1.68 0.12 
12.18 5.39 -1.68 0.12 
12.28 5.16 -1.68 0.12 
12.38 4.92 -1.68 0.12 
12.47 4.69 -1.68 0.12 
12.55 4.45 -1.68 0.12 
12.64 4.21 -1.68 0.12 
12.71 3.97 -1.68 0.12 
12.79 3.73 -1.68 0.12 
12.86 3.49 -1.68 0.12 
12.92 3.24 -1.68 0.12 
12.98 3.00 -1.68 0.12 
13.03 2.75 -1.68 0.12 
13.08 2.51 -1.68 0.12 
13.13 2.26 -1.68 0.12 
13.17 2.01 -1.68 0.12 
13.20 1.76 -1.68 0.12 
13.23 1.51 -1.68 0.12 
13.26 1.26 -1.68 0.12 
13.28 1.01 -1.68 0.12 
13.30 0.76 -1.68 0.12 
13.31 0.50 -1.68 0.12 
13.32 0.25 -1.68 0.12 
13.32 -0.00 -1.68 0.12 
13.32 -0.25 -1.68 0.12 
13.31 -0.50 -1.68 0.12 
13.30 -0.76 -1.68 0.12 
13.28 -1.01 -1.68 0.12 
13.26 -1.26 -1.68 0.12 
13.23 -1.51 -1.68 0.12 
13.20 -1.76 -1.68 0.12 
13.17 -2.01 -1.68 0.12 
13.13 -2.26 -1.68 0.12 
13.08 -2.51 -1.68 0.12 
13.03 -2.75 -1.68 0.12 
12.98 -3.00 -1.68 0.12 
12.92 -3.24 -1.68 0.12 
12.86 -3.49 -1.68 0.12 
12.79 -3.73 -1.68 0.12 
12.71 -3.97 -1.68 0.12 
12.64 -4.21 -1.68 0.12 
12.55 -4.45 -1.68 0.12 
12.47 -4.69 -1.68 0.12 
12.38 -4.92 -1.68 0.12 
12.28 -5.16 -1.68 0.12 
12.18 -5.39 -1.68 0.12 
12.08 -5.62 -1.68 0.12 
11.97 -5.84 -1.68 0.12 
11.86 -6.07 -1.68 0.12 
11.74 -6.29 -1.68 0.12 
11.62 -6.51 -1.68 0.12 
11.49 -6.73 -1.68 0.12 
11.36 -6.95 -1.68 0.12 
11.23 -7.16 -1.68 0.12 
11.09 -7.37 -1.68 0.12 
10.95 -7.58 -1.68 0.12 
10.81 -7.79 -1.68 0.12 
10.64 -7.98 -1.68 0.13 
10.46 -8.16 -1.67 0.13 
10.08 -8.18 -1.64 0.49 
9.63 -8.12 -1.59 0.54 
9.23 -8.08 -1.55 0.55 
8.96 -8.15 -1.53 0.12 
8.80 -8.32 -1.53 0.12 
8.65 -8.48 -1.53 0.12 
8.48 -8.65 -1.53 0.12 
8.32 -8.80 -1.53 0.12 
8.15 -8.96 -1.53 0.12 
7.98 -9.11 -1.53 0.12 
7.81 -9.26 -1.53 0.12 
7.63 -9.41 -1.53 0.12 
7.45 -9.55 -1.53 0.12 
7.27 -9.69 -1.53 0.12 
7.08 -9.83 -1.53 0.12 
6.90 -9.96 -1.53 0.12 
6.71 -10.09 -1.53 0.12 
6.51 -10.21 -1.53 0.12 
6.32 -10.33 -1.53 0.12 
6.12 -10.45 -1.53 0.12 
5.92 -10.57 -1.53 0.12 
5.72 -10.68 -1.53 0.12 
5.52 -10.78 -1.53 0.12 
5.31 -10.88 -1.53 0.12 
5.11 -10.98 -1.53 0.12 
4.90 -11.08 -1.53 0.12 
4.69 -11.17 -1.53 0.12 
4.48 -11.26 -1.53 0.12 
4.26 -11.34 -1.53 0.12 
1.13 -3.18 -0.43 0.32 
1.05 -3.15 -0.42 0.78 
0.98 -3.14 -0.42 0.83 
0.92 -3.14 -0.41 0.83 
0.85 -3.14 -0.41 0.84 
0.79 -3.14 -0.41 0.85 
0.73 -3.15 -0.41 0.85 
0.67 -3.15 -0.41 0.81 
0.60 -3.15 -0.41 0.81 
0.54 -3.16 -0.40 0.82 
0.48 -3.17 -0.40 0.78 
0.42 -3.18 -0.40 0.78 
0.36 -3.19 -0.41 0.78 
0.31 -3.22 -0.41 0.78 
0.25 -3.28 -0.41 0.30 
0.19 -3.35 -0.42 0.14 
0.13 -3.52 -0.44 0.12 
0.23 -12.11 -1.53 0.12 
0.00 -12.11 -1.53 0.12 
-0.23 -12.11 -1.53 0.12 
-0.46 -12.10 -1.53 0.12 
-0.69 -12.09 -1.53 0.12 
-0.92 -12.08 -1.53 0.12 
-1.14 -12.06 -1.53 0.12 
-1.37 -12.03 -1.53 0.12 
-1.60 -12.01 -1.53 0.12 
-1.83 -11.97 -1.53 0.12 
-2.05 -11.94 -1.53 0.12 
-2.28 -11.90 -1.53 0.12 
-2.50 -11.85 -1.53 0.12 
-2.73 -11.80 -1.53 0.12 
-2.95 -11.75 -1.53 0.12 
-3.17 -11.69 -1.53 0.12 
-3.39 -11.63 -1.53 0.12 
-3.61 -11.56 -1.53 0.12 
-3.83 -11.49 -1.53 0.12 
-4.05 -11.42 -1.53 0.12 
-4.26 -11.34 -1.53 0.12 
-4.48 -11.26 -1.53 0.12 
-4.69 -11.17 -1.53 0.12 
-4.90 -11.08 -1.53 0.12 
-5.11 -10.98 -1.53 0.12 
-5.31 -10.88 -1.53 0.12 
-5.52 -10.78 -1.53 0.12 
-5.72 -10.68 -1.53 0.12 
-5.92 -10.57 -1.53 0.12 
-6.12 -10.45 -1.53 0.12 
-6.32 -10.33 -1.53 0.12 
-6.51 -10.21 -1.53 0.12 
-6.71 -10.09 -1.53 0.12 
-6.90 -9.96 -1.53 0.12 
-7.08 -9.83 -1.53 0.12 
-7.27 -9.69 -1.53 0.12 
-7.45 -9.55 -1.53 0.12 
-7.63 -9.41 -1.53 0.12 
-7.81 -9.26 -1.53 0.12 
-7.98 -9.11 -1.53 0.12 
-8.00 -8.79 -1.50 0.65 
-8.06 -8.53 -1.48 0.68 
-8.48 -8.65 -1.53 0.12 
-8.65 -8.48 -1.53 0.12 
-8.80 -8.32 -1.53 0.12 
-8.96 -8.15 -1.53 0.12 
-9.11 -7.98 -1.53 0.12 
-9.29 -7.83 -1.53 0.51 
-9.64 -7.82 -1.57 0.61 
-10.02 -7.81 -1.60 0.59 
-10.41 -7.81 -1.64 0.58 
-10.76 -7.76 -1.67 0.13 
-10.93 -7.57 -1.68 0.13 
-11.09 -7.37 -1.68 0.13 
-11.23 -7.16 -1.68 0.12 
-11.36 -6.95 -1.68 0.12 
-11.49 -6.73 -1.68 0.12 
-11.62 -6.51 -1.68 0.12 
-11.74 -6.29 -1.68 0.12 
-11.86 -6.07 -1.68 0.12 
-11.97 -5.84 -1.68 0.12 
-12.08 -5.62 -1.68 0.12 
-12.18 -5.39 -1.68 0.12 
-12.28 -5.16 -1.68 0.12 
