VERSION 0.7
FIELDS x y z intensity
SIZE 4 4 4 8
TYPE F F F F
COUNT 1 1 1 1
WIDTH 2002
HEIGHT 1
VIEWPOINT 0.0 0.0 0.0 1.0 0.0 0.0 0.0
POINTS 2002
DATA ascii
6.27 18.82 -1.54 0.07 
4.20 11.84 -0.98 0.33 
4.37 11.63 -0.97 0.89 
7.33 18.43 -1.54 0.07 
5.58 13.30 -1.12 0.32 
5.79 13.09 -1.11 0.93 
6.07 13.04 -1.12 0.58 
8.70 17.81 -1.54 0.07 
9.03 17.64 -1.54 0.07 
9.15 17.06 -1.51 0.61 
9.66 17.23 -1.54 0.70 
10.01 17.09 -1.54 0.07 
10.33 16.90 -1.54 0.07 
10.66 16.71 -1.54 0.07 
10.97 16.51 -1.54 0.07 
11.29 16.30 -1.54 0.07 
11.60 16.09 -1.54 0.07 
11.91 15.88 -1.55 0.07 
12.21 15.65 -1.55 0.07 
12.51 15.42 -1.55 0.07 
6.38 7.57 -0.77 0.30 
6.28 7.17 -0.74 0.26 
6.28 6.91 -0.73 0.27 
6.32 6.69 -0.72 0.29 
6.37 6.49 -0.71 0.36 
6.45 6.33 -0.70 0.49 
6.52 6.16 -0.70 0.29 
6.60 6.01 -0.69 0.30 
6.75 5.91 -0.70 0.56 
6.95 5.86 -0.71 0.52 
7.24 5.87 -0.73 0.57 
7.54 5.88 -0.74 0.57 
7.85 5.88 -0.76 0.55 
8.17 5.89 -0.78 0.54 
8.51 5.90 -0.81 0.52 
8.87 5.90 -0.83 0.52 
9.25 5.90 -0.85 0.50 
9.61 5.88 -0.88 0.59 
9.93 5.82 -0.90 0.48 
10.41 5.84 -0.93 0.37 
17.89 9.59 -1.58 0.62 
18.45 9.44 -1.61 0.61 
19.03 9.29 -1.65 0.59 
19.62 9.12 -1.68 0.59 
20.05 8.86 -1.71 0.08 
20.27 8.51 -1.71 0.08 
20.44 8.13 -1.71 0.07 
20.59 7.74 -1.71 0.07 
20.74 7.35 -1.71 0.07 
20.88 6.96 -1.71 0.07 
21.01 6.56 -1.71 0.07 
21.13 6.17 -1.71 0.07 
21.25 5.77 -1.71 0.07 
21.36 5.36 -1.71 0.07 
21.46 4.96 -1.71 0.07 
21.55 4.55 -1.72 0.07 
21.64 4.14 -1.72 0.07 
21.71 3.73 -1.72 0.07 
21.78 3.32 -1.72 0.07 
21.84 2.91 -1.72 0.07 
21.90 2.50 -1.72 0.07 
21.94 2.08 -1.72 0.07 
21.98 1.67 -1.72 0.07 
22.01 1.25 -1.72 0.07 
22.03 0.83 -1.72 0.07 
22.04 0.42 -1.72 0.07 
22.05 -0.00 -1.72 0.07 
22.04 -0.42 -1.72 0.07 
22.03 -0.83 -1.72 0.07 
22.01 -1.25 -1.72 0.07 
21.98 -1.67 -1.72 0.07 
21.95 -2.08 -1.72 0.07 
21.91 -2.50 -1.72 0.07 
21.85 -2.91 -1.72 0.07 
21.79 -3.33 -1.72 0.07 
21.73 -3.74 -1.72 0.07 
21.65 -4.15 -1.72 0.07 
21.57 -4.56 -1.72 0.07 
21.48 -4.96 -1.72 0.07 
21.38 -5.37 -1.72 0.07 
21.27 -5.77 -1.72 0.07 
21.16 -6.17 -1.72 0.07 
21.03 -6.57 -1.72 0.07 
20.90 -6.97 -1.72 0.07 
20.77 -7.36 -1.72 0.07 
20.62 -7.75 -1.72 0.07 
20.47 -8.14 -1.72 0.07 
20.31 -8.52 -1.71 0.07 
20.14 -8.91 -1.71 0.07 
19.97 -9.28 -1.71 0.07 
19.78 -9.66 -1.71 0.07 
19.59 -10.03 -1.71 0.07 
19.38 -10.39 -1.71 0.07 
18.79 -10.53 -1.68 0.11 
17.26 -10.11 -1.56 0.07 
17.07 -10.44 -1.56 0.07 
16.86 -10.75 -1.56 0.07 
16.65 -11.07 -1.56 0.07 
16.44 -11.38 -1.56 0.07 
16.21 -11.69 -1.56 0.07 
15.99 -11.99 -1.56 0.07 
11.69 -9.12 -1.15 0.74 
4.02 -3.26 -0.40 0.53 
3.88 -3.27 -0.39 0.56 
3.74 -3.28 -0.39 0.56 
3.62 -3.30 -0.38 0.58 
3.52 -3.32 -0.38 0.27 
3.46 -3.40 -0.38 0.40 
3.43 -3.49 -0.38 0.33 
3.40 -3.60 -0.39 0.31 
3.38 -3.72 -0.39 0.29 
3.37 -3.85 -0.40 0.25 
12.84 -15.23 -1.55 0.07 
11.63 -14.34 -1.44 0.73 
11.26 -14.44 -1.43 0.56 
11.27 -15.03 -1.46 0.55 
11.64 -16.14 -1.55 0.07 
11.32 -16.35 -1.55 0.07 
11.01 -16.56 -1.55 0.07 
10.69 -16.76 -1.55 0.07 
10.37 -16.95 -1.55 0.07 
10.04 -17.14 -1.55 0.07 
9.71 -17.32 -1.55 0.07 
9.38 -17.50 -1.55 0.07 
9.04 -17.67 -1.55 0.07 
8.70 -17.83 -1.54 0.07 
8.36 -17.98 -1.54 0.07 
8.02 -18.13 -1.54 0.07 
7.67 -18.27 -1.54 0.07 
7.32 -18.41 -1.54 0.07 
6.97 -18.54 -1.54 0.07 
6.61 -18.66 -1.54 0.07 
6.26 -18.77 -1.54 0.07 
5.90 -18.88 -1.54 0.07 
5.54 -18.98 -1.54 0.07 
5.18 -19.08 -1.54 0.07 
4.81 -19.16 -1.54 0.07 
2.84 -12.30 -0.98 0.54 
2.62 -12.42 -0.99 0.93 
3.71 -19.38 -1.54 0.07 
3.34 -19.44 -1.54 0.07 
2.97 -19.50 -1.54 0.07 
2.60 -19.54 -1.53 0.07 
2.23 -19.58 -1.53 0.07 
1.86 -19.61 -1.53 0.07 
1.49 -19.63 -1.53 0.07 
1.12 -19.65 -1.53 0.07 
0.74 -19.66 -1.53 0.07 
0.37 -19.66 -1.53 0.07 
-0.00 -19.66 -1.53 0.07 
-0.37 -19.65 -1.53 0.07 
-0.74 -19.63 -1.53 0.07 
-1.11 -19.60 -1.53 0.07 
-1.48 -19.57 -1.53 0.07 
-1.85 -19.53 -1.53 0.07 
-2.22 -19.49 -1.53 0.07 
-2.59 -19.43 -1.53 0.07 
-2.96 -19.37 -1.53 0.07 
-3.32 -19.30 -1.53 0.07 
-3.68 -19.23 -1.52 0.07 
-4.05 -19.15 -1.52 0.07 
-4.41 -19.06 -1.52 0.07 
-4.76 -18.97 -1.52 0.07 
-5.12 -18.87 -1.52 0.07 
-5.47 -18.76 -1.52 0.07 
-5.82 -18.65 -1.52 0.07 
-6.17 -18.52 -1.52 0.07 
-4.42 -12.46 -1.03 0.90 
-6.87 -18.26 -1.52 0.07 
-7.21 -18.12 -1.52 0.07 
-7.55 -17.98 -1.52 0.07 
-7.88 -17.82 -1.52 0.07 
-8.21 -17.66 -1.52 0.07 
-8.54 -17.50 -1.52 0.07 
-8.87 -17.33 -1.52 0.07 
-9.19 -17.15 -1.52 0.07 
-9.51 -16.97 -1.51 0.07 
-9.83 -16.78 -1.51 0.07 
-10.14 -16.58 -1.51 0.07 
-10.45 -16.38 -1.51 0.07 
-10.75 -16.18 -1.51 0.07 
-11.05 -15.96 -1.51 0.07 
-11.35 -15.75 -1.51 0.07 
-11.64 -15.52 -1.51 0.07 
-11.93 -15.30 -1.51 0.07 
-12.21 -15.06 -1.51 0.07 
-12.49 -14.82 -1.51 0.07 
-12.77 -14.58 -1.51 0.07 
-13.04 -14.33 -1.51 0.07 
-8.09 -8.56 -0.92 0.69 
-13.56 -13.82 -1.51 0.07 
-13.82 -13.56 -1.51 0.07 
-14.06 -13.29 -1.51 0.07 
-14.31 -13.02 -1.51 0.07 
-14.55 -12.74 -1.51 0.07 
-14.78 -12.46 -1.51 0.07 
-15.01 -12.17 -1.50 0.07 
-15.24 -11.88 -1.50 0.07 
-15.45 -11.59 -1.50 0.07 
-15.67 -11.29 -1.50 0.07 
-15.87 -10.99 -1.50 0.07 
-16.07 -10.69 -1.50 0.07 
-16.27 -10.38 -1.50 0.07 
-16.46 -10.06 -1.50 0.07 
-16.64 -9.75 -1.50 0.07 
-16.82 -9.43 -1.50 0.07 
-16.99 -9.11 -1.50 0.07 
-17.16 -8.78 -1.50 0.07 
-17.32 -8.46 -1.50 0.07 
-17.47 -8.12 -1.50 0.07 
-19.30 -8.54 -1.64 0.07 
-19.53 -8.20 -1.65 0.07 
-19.68 -7.83 -1.65 0.07 
-19.82 -7.45 -1.65 0.07 
-19.95 -7.07 -1.65 0.07 
-20.08 -6.69 -1.65 0.07 
-20.20 -6.31 -1.65 0.07 
-20.31 -5.93 -1.65 0.07 
-14.43 -3.92 -1.16 0.35 
-13.98 -3.51 -1.12 0.90 
-14.34 -3.31 -1.15 0.37 
-20.69 -4.37 -1.65 0.07 
-20.77 -3.98 -1.65 0.07 
-20.84 -3.58 -1.65 0.07 
-20.90 -3.19 -1.65 0.07 
-7.15 -0.95 -0.56 0.69 
-7.07 -0.81 -0.55 0.70 
-7.00 -0.66 -0.55 0.88 
-6.98 -0.53 -0.54 0.91 
-6.96 -0.40 -0.54 0.92 
-6.94 -0.26 -0.54 0.92 
-6.93 -0.13 -0.54 0.93 
-6.93 -0.00 -0.55 0.92 
-6.95 0.13 -0.55 0.92 
-6.97 0.26 -0.55 0.92 
-6.98 0.40 -0.55 0.89 
-7.03 0.53 -0.56 0.72 
-7.11 0.67 -0.56 0.71 
-7.20 0.82 -0.57 0.39 
-20.63 2.75 -1.65 0.07 
-20.58 3.14 -1.65 0.07 
-20.52 3.53 -1.65 0.07 
-20.45 3.92 -1.65 0.07 
-20.37 4.30 -1.65 0.07 
-20.29 4.69 -1.65 0.07 
-20.19 5.07 -1.65 0.07 
-20.10 5.45 -1.65 0.07 
-8.56 2.50 -0.71 0.38 
-8.10 2.53 -0.67 0.28 
-7.64 2.55 -0.64 0.30 
-7.22 2.56 -0.61 0.31 
-6.84 2.57 -0.58 0.34 
-6.51 2.59 -0.55 0.36 
-6.20 2.60 -0.53 0.37 
-5.91 2.61 -0.51 0.37 
-5.68 2.64 -0.49 0.62 
-5.52 2.70 -0.49 0.63 
-5.40 2.76 -0.48 0.82 
-5.39 2.89 -0.48 0.81 
-5.38 3.01 -0.49 0.80 
-5.37 3.14 -0.49 0.79 
-5.35 3.27 -0.50 0.73 
-5.34 3.41 -0.50 0.72 
-5.34 3.55 -0.51 0.66 
-5.34 3.70 -0.51 0.65 
-5.35 3.86 -0.52 0.64 
-5.35 4.02 -0.53 0.63 
-5.36 4.18 -0.54 0.62 
-7.41 6.01 -0.75 0.58 
-7.12 6.00 -0.74 0.65 
-6.87 6.02 -0.72 0.58 
-6.63 6.03 -0.71 0.73 
-6.43 6.07 -0.70 0.83 
-6.24 6.13 -0.69 0.80 
-6.09 6.20 -0.69 0.93 
-5.95 6.30 -0.69 0.96 
-5.87 6.46 -0.69 0.85 
-5.82 6.64 -0.70 0.71 
-5.79 6.87 -0.71 0.66 
-5.80 7.16 -0.73 0.52 
-11.72 15.02 -1.51 0.07 
-11.43 15.25 -1.51 0.07 
-11.15 15.46 -1.51 0.07 
-10.85 15.68 -1.51 0.07 
-10.56 15.88 -1.51 0.07 
-10.26 16.09 -1.51 0.07 
-9.96 16.28 -1.51 0.07 
-9.65 16.47 -1.51 0.07 
-7.28 12.98 -1.18 0.49 
-7.03 13.12 -1.18 0.94 
-6.87 13.43 -1.19 0.43 
-8.39 17.18 -1.51 0.07 
-8.07 17.34 -1.51 0.07 
-7.45 16.86 -1.46 0.65 
-7.30 17.39 -1.49 0.68 
-7.09 17.83 -1.52 0.07 
-6.76 17.97 -1.52 0.07 
-6.42 18.11 -1.52 0.07 
-6.08 18.25 -1.52 0.07 
-5.74 18.38 -1.52 0.07 
-5.40 18.50 -1.52 0.07 
-5.05 18.61 -1.52 0.07 
-4.70 18.72 -1.53 0.07 
-3.96 17.12 -1.39 0.90 
-3.99 18.91 -1.53 0.07 
-3.64 19.00 -1.53 0.07 
-3.28 19.07 -1.53 0.07 
-2.92 19.15 -1.53 0.07 
-2.56 19.21 -1.53 0.07 
-1.93 16.90 -1.34 0.58 
-1.83 19.32 -1.53 0.07 
-1.47 19.36 -1.53 0.07 
-1.10 19.39 -1.54 0.07 
-0.74 19.42 -1.54 0.07 
-0.37 19.44 -1.54 0.07 
0.00 19.45 -1.54 0.07 
0.37 19.45 -1.54 0.07 
0.74 19.45 -1.54 0.07 
1.11 19.44 -1.54 0.07 
1.31 17.31 -1.37 0.76 
1.84 19.40 -1.54 0.07 
2.21 19.36 -1.54 0.07 
2.57 19.26 -1.54 0.91 
2.94 19.27 -1.54 0.07 
3.31 19.22 -1.54 0.07 
3.29 17.17 -1.38 0.74 
3.59 16.97 -1.37 0.39 
4.39 19.01 -1.54 0.07 
4.75 18.92 -1.54 0.07 
5.11 18.83 -1.54 0.07 
5.46 18.73 -1.54 0.07 
5.82 18.62 -1.54 0.07 
6.17 18.51 -1.54 0.07 
4.20 11.84 -0.99 0.33 
4.37 11.63 -0.98 0.89 
7.21 18.13 -1.54 0.07 
5.58 13.30 -1.14 0.32 
5.79 13.09 -1.13 0.93 
6.06 13.04 -1.14 0.58 
8.55 17.52 -1.54 0.07 
8.88 17.35 -1.54 0.07 
9.15 17.08 -1.53 0.61 
9.53 17.00 -1.54 0.07 
9.86 16.82 -1.54 0.07 
10.18 16.64 -1.54 0.07 
10.49 16.45 -1.54 0.07 
10.81 16.25 -1.54 0.07 
11.12 16.05 -1.54 0.07 
11.42 15.85 -1.54 0.07 
11.72 15.63 -1.54 0.07 
12.02 15.41 -1.55 0.07 
12.31 15.19 -1.55 0.07 
6.36 7.54 -0.78 0.30 
6.25 7.14 -0.75 0.26 
6.26 6.88 -0.74 0.27 
6.30 6.67 -0.73 0.36 
6.36 6.48 -0.72 0.46 
6.44 6.31 -0.71 0.49 
6.49 6.13 -0.71 0.29 
6.58 5.98 -0.70 0.30 
6.74 5.90 -0.71 0.56 
6.95 5.86 -0.72 0.62 
7.24 5.87 -0.74 0.57 
7.53 5.88 -0.76 0.58 
7.84 5.88 -0.78 0.55 
8.17 5.89 -0.80 0.54 
8.51 5.89 -0.82 0.52 
8.87 5.90 -0.84 0.52 
9.25 5.90 -0.87 0.50 
9.61 5.88 -0.89 0.60 
9.93 5.82 -0.91 0.48 
10.41 5.84 -0.94 0.37 
17.89 9.59 -1.60 0.62 
18.44 9.44 -1.64 0.61 
19.02 9.29 -1.67 0.59 
19.55 9.09 -1.70 0.08 
19.77 8.74 -1.71 0.08 
19.96 8.38 -1.71 0.07 
20.12 8.00 -1.71 0.07 
20.27 7.62 -1.71 0.07 
20.42 7.24 -1.71 0.07 
20.56 6.85 -1.71 0.07 
20.68 6.46 -1.71 0.07 
20.81 6.07 -1.71 0.07 
20.92 5.68 -1.71 0.07 
21.03 5.28 -1.71 0.07 
21.13 4.88 -1.71 0.07 
21.22 4.48 -1.71 0.07 
21.30 4.08 -1.71 0.07 
21.38 3.68 -1.71 0.07 
21.44 3.27 -1.72 0.07 
21.50 2.87 -1.72 0.07 
21.56 2.46 -1.72 0.07 
21.60 2.05 -1.72 0.07 
21.64 1.64 -1.72 0.07 
21.67 1.23 -1.72 0.07 
21.69 0.82 -1.72 0.07 
21.70 0.41 -1.72 0.07 
21.70 0.00 -1.72 0.07 
21.70 -0.41 -1.72 0.07 
21.69 -0.82 -1.72 0.07 
21.67 -1.23 -1.72 0.07 
21.64 -1.64 -1.72 0.07 
21.61 -2.05 -1.72 0.07 
21.57 -2.46 -1.72 0.07 
21.51 -2.87 -1.72 0.07 
21.46 -3.27 -1.72 0.07 
21.39 -3.68 -1.72 0.07 
21.32 -4.08 -1.72 0.07 
21.23 -4.49 -1.72 0.07 
21.14 -4.89 -1.72 0.07 
21.05 -5.28 -1.72 0.07 
20.94 -5.68 -1.72 0.07 
20.83 -6.08 -1.72 0.07 
20.71 -6.47 -1.72 0.07 
20.58 -6.86 -1.72 0.07 
20.44 -7.25 -1.71 0.07 
20.30 -7.63 -1.71 0.07 
20.15 -8.01 -1.71 0.07 
19.99 -8.39 -1.71 0.07 
19.83 -8.77 -1.71 0.07 
19.66 -9.14 -1.71 0.07 
19.48 -9.51 -1.71 0.07 
19.29 -9.88 -1.71 0.07 
19.09 -10.23 -1.71 0.07 
18.75 -10.51 -1.70 0.11 
16.99 -9.96 -1.56 0.07 
16.80 -10.27 -1.56 0.07 
16.60 -10.59 -1.56 0.07 
16.39 -10.90 -1.56 0.07 
16.18 -11.20 -1.56 0.07 
15.96 -11.51 -1.56 0.07 
15.74 -11.80 -1.56 0.07 
11.69 -9.12 -1.17 0.74 
4.02 -3.26 -0.41 0.53 
3.87 -3.26 -0.40 0.56 
3.74 -3.27 -0.39 0.56 
3.62 -3.29 -0.39 0.58 
3.51 -3.31 -0.38 0.59 
3.45 -3.39 -0.38 0.40 
3.41 -3.48 -0.39 0.33 
3.39 -3.59 -0.39 0.31 
3.37 -3.71 -0.40 0.29 
3.35 -3.83 -0.40 0.25 
12.64 -15.00 -1.55 0.07 
11.63 -14.34 -1.46 0.73 
11.26 -14.44 -1.45 0.56 
11.27 -15.03 -1.49 0.55 
11.46 -15.89 -1.55 0.07 
11.15 -16.10 -1.55 0.07 
10.84 -16.31 -1.55 0.07 
10.53 -16.50 -1.55 0.07 
10.21 -16.69 -1.55 0.07 
9.89 -16.88 -1.55 0.07 
9.56 -17.06 -1.55 0.07 
9.24 -17.23 -1.55 0.07 
8.90 -17.39 -1.54 0.07 
8.57 -17.55 -1.54 0.07 
8.23 -17.71 -1.54 0.07 
7.89 -17.85 -1.54 0.07 
7.55 -17.99 -1.54 0.07 
7.21 -18.13 -1.54 0.07 
6.86 -18.25 -1.54 0.07 
6.51 -18.37 -1.54 0.07 
6.16 -18.49 -1.54 0.07 
5.81 -18.59 -1.54 0.07 
5.45 -18.69 -1.54 0.07 
5.10 -18.79 -1.54 0.07 
4.74 -18.87 -1.54 0.07 
2.84 -12.29 -1.00 0.82 
2.62 -12.42 -1.00 0.93 
3.66 -19.09 -1.54 0.07 
3.29 -19.15 -1.54 0.07 
2.93 -19.20 -1.54 0.07 
2.56 -19.24 -1.53 0.07 
2.20 -19.28 -1.53 0.07 
1.83 -19.31 -1.53 0.07 
1.47 -19.33 -1.53 0.07 
1.10 -19.35 -1.53 0.07 
0.73 -19.36 -1.53 0.07 
0.37 -19.36 -1.53 0.07 
-0.00 -19.36 -1.53 0.07 
-0.37 -19.35 -1.53 0.07 
-0.73 -19.33 -1.53 0.07 
-1.10 -19.31 -1.53 0.07 
-1.46 -19.27 -1.53 0.07 
-1.83 -19.23 -1.53 0.07 
-2.19 -19.19 -1.53 0.07 
-2.55 -19.14 -1.53 0.07 
-2.91 -19.08 -1.53 0.07 
-3.27 -19.01 -1.53 0.07 
-3.63 -18.94 -1.52 0.07 
-3.98 -18.86 -1.52 0.07 
-4.34 -18.77 -1.52 0.07 
-4.69 -18.68 -1.52 0.07 
-5.04 -18.58 -1.52 0.07 
-5.39 -18.48 -1.52 0.07 
-5.74 -18.36 -1.52 0.07 
-6.08 -18.24 -1.52 0.07 
-4.42 -12.47 -1.05 0.90 
-6.76 -17.99 -1.52 0.07 
-7.10 -17.85 -1.52 0.07 
-7.43 -17.70 -1.52 0.07 
-7.76 -17.55 -1.52 0.07 
-8.09 -17.40 -1.52 0.07 
-8.42 -17.24 -1.52 0.07 
-8.74 -17.07 -1.52 0.07 
-9.05 -16.89 -1.52 0.07 
-9.37 -16.71 -1.51 0.07 
-9.68 -16.53 -1.51 0.07 
-9.99 -16.33 -1.51 0.07 
-10.29 -16.14 -1.51 0.07 
-10.59 -15.93 -1.51 0.07 
-10.89 -15.72 -1.51 0.07 
-11.18 -15.51 -1.51 0.07 
-11.47 -15.29 -1.51 0.07 
-11.75 -15.07 -1.51 0.07 
-12.03 -14.84 -1.51 0.07 
-12.30 -14.60 -1.51 0.07 
-12.57 -14.36 -1.51 0.07 
-12.84 -14.12 -1.51 0.07 
-8.09 -8.56 -0.93 0.69 
-13.36 -13.61 -1.51 0.07 
-13.61 -13.35 -1.51 0.07 
-13.85 -13.09 -1.51 0.07 
-14.10 -12.82 -1.51 0.07 
-14.33 -12.55 -1.51 0.07 
-14.56 -12.27 -1.51 0.07 
-14.79 -11.99 -1.51 0.07 
-15.01 -11.70 -1.50 0.07 
-15.22 -11.42 -1.50 0.07 
-15.43 -11.12 -1.50 0.07 
-15.64 -10.83 -1.50 0.07 
-15.83 -10.53 -1.50 0.07 
-16.03 -10.22 -1.50 0.07 
-16.21 -9.91 -1.50 0.07 
-16.39 -9.60 -1.50 0.07 
-16.57 -9.29 -1.50 0.07 
-16.74 -8.97 -1.50 0.07 
-16.90 -8.65 -1.50 0.07 
-17.06 -8.33 -1.50 0.07 
-17.22 -8.01 -1.50 0.23 
-19.02 -8.41 -1.64 0.07 
-19.24 -8.08 -1.65 0.07 
-19.38 -7.71 -1.65 0.07 
-19.52 -7.34 -1.65 0.07 
-19.66 -6.97 -1.65 0.07 
-19.78 -6.59 -1.65 0.07 
-19.90 -6.22 -1.65 0.07 
-20.01 -5.84 -1.65 0.07 
-20.11 -5.46 -1.65 0.07 
-13.98 -3.51 -1.14 0.90 
-14.36 -3.32 -1.17 0.37 
-20.38 -4.31 -1.65 0.07 
-20.46 -3.92 -1.65 0.07 
-20.53 -3.53 -1.65 0.07 
-20.59 -3.14 -1.65 0.07 
-7.14 -0.95 -0.57 0.69 
-7.06 -0.81 -0.56 0.70 
-7.00 -0.66 -0.56 0.88 
-6.97 -0.53 -0.55 0.91 
-6.96 -0.40 -0.55 0.92 
-6.94 -0.26 -0.55 0.92 
-6.93 -0.13 -0.55 0.93 
-6.93 -0.00 -0.56 0.93 
-6.95 0.13 -0.56 0.92 
-6.96 0.26 -0.56 0.92 
-6.98 0.40 -0.56 0.89 
-7.02 0.53 -0.57 0.72 
-7.10 0.67 -0.57 0.71 
-7.19 0.82 -0.58 0.39 
-20.33 2.71 -1.65 0.08 
-20.28 3.09 -1.65 0.08 
-20.21 3.48 -1.65 0.08 
-20.15 3.86 -1.65 0.08 
-20.07 4.24 -1.65 0.08 
-19.99 4.62 -1.65 0.08 
-19.90 5.00 -1.65 0.08 
-19.80 5.37 -1.65 0.08 
-8.54 2.49 -0.71 0.38 
-8.08 2.52 -0.68 0.29 
-7.63 2.54 -0.65 0.30 
-7.21 2.55 -0.61 0.31 
-6.83 2.57 -0.59 0.34 
-6.50 2.58 -0.56 0.36 
-6.19 2.60 -0.54 0.37 
-5.90 2.61 -0.52 0.37 
-5.67 2.64 -0.50 0.62 
-5.52 2.69 -0.49 0.63 
-5.39 2.76 -0.49 0.82 
-5.38 2.89 -0.49 0.81 
-5.37 3.01 -0.49 0.80 
-5.36 3.14 -0.50 0.74 
-5.35 3.27 -0.50 0.73 
-5.34 3.40 -0.51 0.72 
-5.33 3.55 -0.51 0.66 
-5.34 3.70 -0.52 0.65 
-5.34 3.85 -0.53 0.64 
-5.35 4.01 -0.54 0.63 
-5.35 4.18 -0.55 0.62 
-7.41 6.01 -0.77 0.58 
-7.12 6.00 -0.75 0.65 
-6.87 6.01 -0.73 0.58 
-6.62 6.03 -0.72 0.73 
-6.43 6.07 -0.71 0.83 
-6.24 6.12 -0.70 0.80 
-6.09 6.20 -0.70 0.93 
-5.95 6.30 -0.70 0.96 
-5.87 6.45 -0.70 0.85 
-5.81 6.64 -0.71 0.71 
-5.79 6.87 -0.72 0.66 
-5.80 7.16 -0.74 0.52 
-11.54 14.80 -1.51 0.08 
-11.26 15.02 -1.51 0.08 
-10.98 15.24 -1.51 0.08 
-10.69 15.45 -1.51 0.08 
-10.40 15.65 -1.51 0.08 
-10.11 15.85 -1.51 0.08 
-9.81 16.04 -1.51 0.08 
-9.51 16.23 -1.51 0.08 
-7.28 12.98 -1.19 0.49 
-7.03 13.12 -1.20 0.94 
-6.87 13.43 -1.21 0.43 
-8.26 16.92 -1.51 0.08 
-7.94 17.08 -1.51 0.07 
-7.46 16.87 -1.48 0.64 
-7.30 17.39 -1.51 0.07 
-6.98 17.54 -1.52 0.07 
-6.65 17.69 -1.52 0.07 
-6.32 17.83 -1.52 0.07 
-5.99 17.96 -1.52 0.07 
-5.65 18.08 -1.52 0.07 
-5.31 18.20 -1.52 0.07 
-4.97 18.31 -1.52 0.07 
-4.62 18.42 -1.52 0.07 
-3.96 17.13 -1.41 0.85 
-3.93 18.61 -1.53 0.07 
-3.58 18.69 -1.53 0.07 
-3.23 18.77 -1.53 0.07 
-2.87 18.84 -1.53 0.07 
-2.52 18.90 -1.53 0.07 
-1.93 16.88 -1.36 0.58 
-1.80 19.00 -1.53 0.07 
-1.44 19.05 -1.53 0.07 
-1.08 19.08 -1.53 0.07 
-0.72 19.10 -1.53 0.07 
-0.36 19.12 -1.54 0.07 
0.00 19.14 -1.54 0.07 
0.36 19.14 -1.54 0.07 
0.72 19.14 -1.54 0.07 
1.09 19.13 -1.54 0.07 
1.31 17.30 -1.39 0.69 
1.81 19.08 -1.54 0.07 
2.17 19.05 -1.54 0.07 
2.53 19.01 -1.54 0.07 
2.89 18.96 -1.54 0.07 
3.25 18.91 -1.54 0.07 
3.29 17.16 -1.40 0.84 
3.58 16.94 -1.39 0.39 
4.32 18.70 -1.54 0.07 
4.67 18.62 -1.54 0.07 
5.03 18.52 -1.54 0.07 
5.38 18.43 -1.54 0.07 
5.72 18.32 -1.54 0.07 
6.07 18.21 -1.54 0.07 
4.20 11.84 -1.01 0.33 
4.37 11.63 -1.00 0.89 
7.09 17.83 -1.54 0.07 
5.58 13.30 -1.16 0.32 
5.79 13.09 -1.15 0.93 
6.06 13.04 -1.15 0.58 
8.41 17.23 -1.54 0.07 
8.74 17.08 -1.54 0.07 
1.90 3.55 -0.32 0.07 
1.93 3.44 -0.32 0.05 
2.01 3.44 -0.32 0.05 
2.10 3.44 -0.32 0.03 
10.33 16.20 -1.54 0.07 
10.64 16.01 -1.54 0.07 
10.95 15.81 -1.54 0.07 
11.25 15.61 -1.54 0.07 
11.55 15.39 -1.54 0.07 
11.84 15.18 -1.55 0.07 
12.13 14.96 -1.55 0.07 
6.34 7.52 -0.79 0.30 
6.23 7.11 -0.76 0.27 
6.23 6.85 -0.74 0.29 
6.28 6.65 -0.73 0.36 
6.34 6.46 -0.73 0.46 
6.42 6.30 -0.72 0.49 
6.48 6.12 -0.71 0.50 
6.56 5.97 -0.71 0.57 
6.73 5.89 -0.72 0.56 
6.95 5.86 -0.73 0.62 
7.23 5.87 -0.75 0.57 
7.53 5.87 -0.77 0.58 
7.84 5.88 -0.79 0.55 
8.17 5.89 -0.81 0.54 
8.51 5.89 -0.83 0.52 
8.87 5.89 -0.85 0.52 
9.24 5.90 -0.88 0.49 
9.61 5.88 -0.90 0.60 
9.93 5.82 -0.92 0.48 
10.41 5.84 -0.96 0.37 
17.88 9.58 -1.63 0.62 
18.44 9.44 -1.66 0.61 
19.02 9.28 -1.70 0.59 
19.28 8.97 -1.71 0.08 
19.50 8.62 -1.71 0.07 
19.66 8.25 -1.71 0.07 
19.82 7.88 -1.71 0.07 
19.96 7.51 -1.71 0.07 
20.11 7.13 -1.71 0.07 
20.24 6.75 -1.71 0.07 
20.37 6.36 -1.71 0.07 
20.49 5.98 -1.71 0.07 
20.60 5.59 -1.71 0.07 
20.71 5.20 -1.71 0.07 
20.80 4.81 -1.71 0.07 
20.89 4.41 -1.71 0.07 
20.97 4.02 -1.71 0.07 
21.05 3.62 -1.71 0.07 
21.12 3.22 -1.71 0.07 
21.17 2.82 -1.71 0.07 
21.23 2.42 -1.71 0.07 
21.27 2.02 -1.71 0.07 
21.31 1.62 -1.72 0.07 
21.33 1.21 -1.72 0.07 
21.35 0.81 -1.72 0.07 
21.37 0.40 -1.72 0.07 
21.37 -0.00 -1.72 0.07 
21.37 -0.40 -1.72 0.07 
21.36 -0.81 -1.72 0.07 
21.34 -1.21 -1.72 0.07 
21.31 -1.62 -1.72 0.07 
21.28 -2.02 -1.72 0.07 
21.24 -2.42 -1.72 0.07 
21.19 -2.82 -1.72 0.07 
21.13 -3.22 -1.72 0.07 
21.06 -3.62 -1.72 0.07 
20.99 -4.02 -1.72 0.07 
20.91 -4.42 -1.72 0.07 
20.82 -4.81 -1.72 0.07 
20.72 -5.20 -1.72 0.07 
20.62 -5.59 -1.72 0.07 
20.51 -5.98 -1.71 0.07 
20.39 -6.37 -1.71 0.07 
20.26 -6.75 -1.71 0.07 
20.13 -7.14 -1.71 0.07 
19.99 -7.51 -1.71 0.07 
19.84 -7.89 -1.71 0.07 
19.69 -8.26 -1.71 0.07 
19.53 -8.63 -1.71 0.07 
19.36 -9.00 -1.71 0.07 
19.18 -9.36 -1.71 0.07 
19.00 -9.72 -1.71 0.07 
18.80 -10.08 -1.71 0.07 
18.53 -10.39 -1.71 0.07 
16.74 -9.80 -1.56 0.07 
16.54 -10.12 -1.56 0.07 
16.35 -10.43 -1.56 0.07 
16.14 -10.73 -1.56 0.07 
15.93 -11.03 -1.56 0.07 
15.72 -11.33 -1.56 0.07 
15.50 -11.62 -1.55 0.07 
4.19 -3.27 -0.43 0.35 
4.01 -3.25 -0.41 0.53 
3.87 -3.26 -0.41 0.56 
3.73 -3.27 -0.40 0.58 
3.61 -3.29 -0.39 0.58 
3.50 -3.31 -0.39 0.59 
3.44 -3.38 -0.39 0.40 
3.40 -3.47 -0.39 0.33 
3.38 -3.58 -0.39 0.31 
3.36 -3.69 -0.40 0.32 
3.34 -3.81 -0.41 0.29 
12.45 -14.77 -1.55 0.07 
11.63 -14.34 -1.48 0.73 
11.26 -14.44 -1.47 0.56 
11.27 -15.03 -1.51 0.55 
11.28 -15.65 -1.55 0.07 
10.98 -15.86 -1.55 0.07 
10.67 -16.06 -1.55 0.07 
10.37 -16.25 -1.55 0.07 
10.05 -16.44 -1.55 0.07 
9.74 -16.62 -1.55 0.07 
9.42 -16.80 -1.55 0.07 
9.10 -16.97 -1.55 0.07 
8.77 -17.13 -1.54 0.07 
8.44 -17.29 -1.54 0.07 
8.11 -17.44 -1.54 0.07 
7.78 -17.58 -1.54 0.07 
7.44 -17.72 -1.54 0.07 
7.10 -17.85 -1.54 0.07 
6.76 -17.98 -1.54 0.07 
6.41 -18.10 -1.54 0.07 
6.07 -18.21 -1.54 0.07 
5.72 -18.31 -1.54 0.07 
5.37 -18.41 -1.54 0.07 
5.02 -18.50 -1.54 0.07 
4.67 -18.59 -1.54 0.07 
2.84 -12.28 -1.01 0.93 
2.62 -12.42 -1.02 0.89 
3.60 -18.80 -1.54 0.07 
3.24 -18.86 -1.54 0.07 
2.88 -18.91 -1.54 0.07 
2.53 -18.95 -1.53 0.07 
2.17 -18.99 -1.53 0.07 
1.81 -19.02 -1.53 0.07 
1.44 -19.04 -1.53 0.07 
1.08 -19.06 -1.53 0.07 
0.72 -19.07 -1.53 0.07 
0.36 -19.07 -1.53 0.07 
-0.00 -19.07 -1.53 0.07 
-0.36 -19.06 -1.53 0.07 
-0.72 -19.04 -1.53 0.07 
-1.08 -19.02 -1.53 0.07 
-1.44 -18.98 -1.53 0.07 
-1.80 -18.95 -1.53 0.07 
-2.16 -18.90 -1.53 0.07 
-2.51 -18.85 -1.53 0.07 
-2.87 -18.79 -1.53 0.07 
-3.22 -18.73 -1.53 0.07 
-3.57 -18.66 -1.52 0.07 
-3.92 -18.58 -1.52 0.07 
-4.27 -18.49 -1.52 0.07 
-4.62 -18.40 -1.52 0.07 
-4.97 -18.30 -1.52 0.07 
-5.31 -18.20 -1.52 0.07 
-5.65 -18.09 -1.52 0.07 
-5.99 -17.97 -1.52 0.07 
-4.42 -12.47 -1.06 0.88 
-6.66 -17.72 -1.52 0.07 
-6.99 -17.58 -1.52 0.07 
-7.32 -17.44 -1.52 0.07 
-7.65 -17.29 -1.52 0.07 
-7.97 -17.14 -1.52 0.07 
-8.29 -16.98 -1.52 0.07 
-8.61 -16.81 -1.52 0.07 
-8.92 -16.64 -1.52 0.07 
-9.23 -16.46 -1.51 0.07 
-9.54 -16.28 -1.51 0.07 
-9.84 -16.09 -1.51 0.07 
-10.14 -15.90 -1.51 0.07 
-10.43 -15.70 -1.51 0.07 
-10.73 -15.49 -1.51 0.07 
-11.01 -15.28 -1.51 0.08 
-11.30 -15.06 -1.51 0.08 
-11.58 -14.84 -1.51 0.08 
-11.85 -14.62 -1.51 0.08 
-12.12 -14.38 -1.51 0.08 
-12.39 -14.15 -1.51 0.08 
-12.65 -13.91 -1.51 0.08 
-8.09 -8.56 -0.95 0.69 
-13.16 -13.41 -1.51 0.08 
-13.41 -13.16 -1.51 0.08 
-13.65 -12.90 -1.51 0.08 
-13.89 -12.63 -1.51 0.08 
-14.12 -12.36 -1.51 0.08 
-14.35 -12.09 -1.51 0.08 
-14.57 -11.81 -1.51 0.08 
-14.79 -11.53 -1.51 0.08 
-15.00 -11.25 -1.50 0.08 
-15.20 -10.96 -1.50 0.08 
-15.40 -10.67 -1.50 0.08 
-15.60 -10.37 -1.50 0.08 
-15.79 -10.07 -1.50 0.08 
-15.97 -9.77 -1.50 0.08 
-16.15 -9.46 -1.50 0.08 
-16.32 -9.15 -1.50 0.08 
-16.49 -8.84 -1.50 0.08 
-16.65 -8.52 -1.50 0.08 
-16.81 -8.21 -1.50 0.08 
-17.19 -8.00 -1.52 0.26 
-18.74 -8.29 -1.64 0.08 
-18.96 -7.96 -1.65 0.08 
-19.10 -7.60 -1.65 0.08 
-19.24 -7.23 -1.65 0.08 
-19.37 -6.86 -1.65 0.08 
-19.49 -6.50 -1.65 0.08 
-19.61 -6.13 -1.65 0.08 
-19.72 -5.75 -1.65 0.08 
-19.82 -5.38 -1.65 0.08 
-13.97 -3.51 -1.16 0.90 
-14.38 -3.32 -1.18 0.37 
-20.08 -4.24 -1.65 0.08 
-20.16 -3.86 -1.65 0.08 
-20.23 -3.48 -1.65 0.08 
-20.29 -3.10 -1.65 0.08 
-7.14 -0.95 -0.58 0.69 
-7.06 -0.81 -0.57 0.70 
-7.00 -0.66 -0.56 0.88 
-6.97 -0.53 -0.56 0.91 
-6.95 -0.40 -0.56 0.92 
-6.94 -0.26 -0.56 0.92 
-6.92 -0.13 -0.56 0.93 
-6.93 0.00 -0.56 0.93 
-6.94 0.13 -0.57 0.92 
-6.96 0.26 -0.57 0.92 
-6.98 0.40 -0.57 0.89 
-7.02 0.53 -0.57 0.72 
-7.09 0.67 -0.58 0.71 
-7.19 0.82 -0.59 0.39 
-20.04 2.67 -1.65 0.08 
-19.98 3.05 -1.65 0.08 
-19.92 3.43 -1.65 0.08 
-19.85 3.80 -1.65 0.08 
-19.78 4.18 -1.65 0.08 
-19.70 4.55 -1.65 0.08 
-19.61 4.92 -1.65 0.08 
-19.51 5.29 -1.65 0.08 
-8.52 2.49 -0.72 0.38 
-8.06 2.52 -0.69 0.29 
-7.61 2.54 -0.65 0.30 
-7.19 2.55 -0.62 0.31 
-6.82 2.56 -0.59 0.34 
-6.49 2.58 -0.57 0.36 
-6.18 2.59 -0.55 0.38 
-5.89 2.60 -0.52 0.37 
-5.66 2.63 -0.51 0.62 
-5.51 2.69 -0.50 0.63 
-5.39 2.76 -0.49 0.82 
-5.38 2.88 -0.50 0.81 
-5.37 3.01 -0.50 0.74 
-5.36 3.14 -0.51 0.74 
-5.34 3.27 -0.51 0.73 
-5.33 3.40 -0.52 0.72 
-5.33 3.54 -0.52 0.66 
-5.33 3.69 -0.53 0.65 
-5.34 3.85 -0.54 0.64 
-5.34 4.01 -0.54 0.64 
-5.35 4.17 -0.55 0.63 
-7.40 6.00 -0.78 0.58 
-7.11 6.00 -0.76 0.65 
-6.86 6.01 -0.74 0.58 
-6.62 6.02 -0.73 0.73 
-6.42 6.07 -0.72 0.83 
-6.24 6.12 -0.71 0.80 
-6.08 6.20 -0.71 0.93 
-5.95 6.30 -0.71 0.96 
-5.87 6.45 -0.71 0.85 
-5.81 6.64 -0.72 0.71 
-5.79 6.87 -0.73 0.66 
-5.80 7.15 -0.75 0.52 
-11.38 14.59 -1.51 0.08 
-11.10 14.80 -1.51 0.08 
-10.82 15.01 -1.51 0.08 
-10.54 15.22 -1.51 0.08 
-10.25 15.42 -1.51 0.08 
-9.96 15.62 -1.51 0.08 
-9.67 15.81 -1.51 0.08 
-9.37 15.99 -1.51 0.08 
-7.28 12.98 -1.21 0.94 
-7.03 13.12 -1.21 0.94 
-6.87 13.42 -1.23 0.43 
-8.14 16.68 -1.51 0.08 
-7.83 16.83 -1.51 0.08 
-7.47 16.89 -1.50 0.64 
-7.19 17.13 -1.51 0.08 
-6.87 17.27 -1.51 0.07 
-6.54 17.41 -1.52 0.07 
-6.22 17.55 -1.52 0.07 
-5.89 17.67 -1.52 0.07 
-5.56 17.80 -1.52 0.07 
-5.23 17.91 -1.52 0.07 
-4.89 18.02 -1.52 0.07 
-4.55 18.13 -1.52 0.07 
-3.96 17.14 -1.43 0.77 
-3.87 18.31 -1.52 0.07 
-3.52 18.40 -1.53 0.07 
-3.18 18.47 -1.53 0.07 
-2.83 18.54 -1.53 0.07 
-2.48 18.60 -1.53 0.07 
-1.92 16.86 -1.38 0.65 
-1.78 18.70 -1.53 0.07 
-1.42 18.74 -1.53 0.07 
-1.07 18.78 -1.53 0.07 
-0.71 18.80 -1.53 0.07 
-0.36 18.82 -1.53 0.07 
-0.00 18.83 -1.53 0.07 
0.36 18.84 -1.53 0.07 
0.71 18.83 -1.54 0.07 
1.07 18.82 -1.54 0.07 
1.31 17.29 -1.41 0.84 
1.78 18.78 -1.54 0.07 
2.14 18.75 -1.54 0.07 
2.49 18.71 -1.54 0.07 
2.85 18.66 -1.54 0.07 
3.20 18.61 -1.54 0.07 
3.29 17.16 -1.42 0.84 
3.58 16.94 -1.41 0.42 
4.25 18.40 -1.54 0.07 
4.60 18.32 -1.54 0.07 
4.95 18.23 -1.54 0.07 
5.29 18.13 -1.54 0.07 
5.63 18.03 -1.54 0.07 
5.97 17.92 -1.54 0.07 
4.19 11.83 -1.02 0.33 
4.37 11.63 -1.01 0.89 
6.98 17.55 -1.54 0.07 
5.58 13.30 -1.17 0.32 
5.79 13.09 -1.17 0.93 
6.06 13.04 -1.17 0.58 
8.29 16.97 -1.54 0.07 
8.61 16.82 -1.54 0.07 
1.88 3.50 -0.32 0.11 
1.89 3.37 -0.32 0.10 
1.97 3.36 -0.32 0.08 
2.05 3.35 -0.32 0.07 
2.14 3.35 -0.32 0.08 
10.48 15.77 -1.54 0.07 
10.78 15.57 -1.54 0.07 
11.08 15.37 -1.54 0.07 
11.37 15.16 -1.54 0.07 
11.66 14.95 -1.54 0.07 
11.95 14.73 -1.55 0.07 
6.30 7.47 -0.80 0.15 
6.20 7.08 -0.77 0.27 
6.21 6.83 -0.75 0.29 
6.26 6.63 -0.74 0.36 
6.33 6.45 -0.74 0.46 
6.41 6.29 -0.73 0.49 
6.46 6.11 -0.72 0.50 
6.55 5.96 -0.72 0.57 
6.72 5.88 -0.73 0.56 
6.95 5.86 -0.74 0.62 
7.23 5.86 -0.76 0.57 
7.53 5.87 -0.78 0.58 
7.84 5.88 -0.80 0.55 
8.16 5.88 -0.82 0.54 
8.50 5.89 -0.84 0.52 
8.86 5.89 -0.87 0.52 
9.24 5.90 -0.89 0.49 
9.61 5.88 -0.92 0.60 
9.93 5.82 -0.94 0.48 
10.41 5.84 -0.97 0.37 
17.87 9.58 -1.65 0.61 
18.43 9.43 -1.69 0.61 
18.80 9.18 -1.70 0.08 
19.03 8.85 -1.71 0.08 
19.20 8.49 -1.71 0.07 
19.36 8.13 -1.71 0.07 
19.52 7.76 -1.71 0.07 
19.66 7.39 -1.71 0.07 
19.80 7.02 -1.71 0.07 
19.94 6.64 -1.71 0.07 
20.06 6.27 -1.71 0.07 
20.18 5.89 -1.71 0.07 
20.29 5.51 -1.71 0.07 
20.39 5.12 -1.71 0.07 
20.49 4.73 -1.71 0.07 
20.58 4.35 -1.71 0.07 
20.66 3.96 -1.71 0.07 
20.73 3.57 -1.71 0.07 
20.80 3.17 -1.71 0.07 
20.86 2.78 -1.71 0.07 
20.91 2.38 -1.71 0.07 
20.95 1.99 -1.71 0.07 
20.98 1.59 -1.71 0.07 
21.01 1.19 -1.71 0.07 
21.03 0.80 -1.71 0.07 
21.04 0.40 -1.71 0.07 
21.05 0.00 -1.71 0.07 
21.05 -0.40 -1.71 0.07 
21.04 -0.80 -1.71 0.07 
21.02 -1.19 -1.72 0.07 
20.99 -1.59 -1.72 0.07 
20.96 -1.99 -1.72 0.07 
20.92 -2.39 -1.72 0.07 
20.87 -2.78 -1.72 0.07 
20.81 -3.17 -1.71 0.07 
20.74 -3.57 -1.71 0.07 
20.67 -3.96 -1.71 0.07 
20.59 -4.35 -1.71 0.07 
20.51 -4.74 -1.71 0.07 
20.41 -5.13 -1.71 0.07 
20.31 -5.51 -1.71 0.07 
20.20 -5.89 -1.71 0.07 
20.08 -6.27 -1.71 0.07 
19.96 -6.65 -1.71 0.07 
19.83 -7.03 -1.71 0.07 
19.69 -7.40 -1.71 0.07 
19.54 -7.77 -1.71 0.07 
19.39 -8.14 -1.71 0.07 
19.23 -8.50 -1.71 0.07 
19.06 -8.87 -1.71 0.07 
18.89 -9.22 -1.71 0.07 
18.71 -9.58 -1.71 0.07 
18.52 -9.93 -1.71 0.07 
18.26 -10.24 -1.71 0.08 
16.67 -9.77 -1.57 0.20 
16.30 -9.96 -1.56 0.07 
16.10 -10.27 -1.56 0.07 
15.90 -10.57 -1.56 0.07 
15.69 -10.87 -1.56 0.07 
15.48 -11.16 -1.55 0.07 
15.27 -11.45 -1.55 0.07 
4.19 -3.27 -0.43 0.35 
4.01 -3.25 -0.42 0.53 
3.86 -3.25 -0.41 0.56 
3.73 -3.27 -0.40 0.58 
3.61 -3.28 -0.40 0.59 
3.50 -3.30 -0.39 0.59 
3.43 -3.37 -0.39 0.41 
3.39 -3.46 -0.39 0.33 
3.37 -3.56 -0.40 0.31 
3.35 -3.68 -0.41 0.32 
3.33 -3.80 -0.41 0.30 
12.26 -14.55 -1.55 0.07 
11.63 -14.34 -1.50 0.73 
11.26 -14.44 -1.49 0.56 
11.27 -15.03 -1.53 0.55 
11.11 -15.42 -1.55 0.07 
10.82 -15.62 -1.55 0.07 
10.52 -15.82 -1.55 0.07 
10.21 -16.01 -1.55 0.07 
9.90 -16.19 -1.55 0.07 
9.59 -16.37 -1.55 0.07 
9.28 -16.55 -1.55 0.07 
8.96 -16.71 -1.54 0.07 
8.64 -16.88 -1.54 0.07 
8.31 -17.03 -1.54 0.07 
7.99 -17.18 -1.54 0.07 
7.66 -17.32 -1.54 0.07 
7.33 -17.46 -1.54 0.07 
6.99 -17.59 -1.54 0.07 
6.66 -17.71 -1.54 0.07 
6.32 -17.83 -1.54 0.07 
5.98 -17.94 -1.54 0.07 
5.64 -18.04 -1.54 0.07 
5.29 -18.14 -1.54 0.07 
4.95 -18.23 -1.54 0.07 
4.60 -18.31 -1.54 0.07 
2.84 -12.28 -1.03 0.86 
2.62 -12.42 -1.03 0.81 
3.55 -18.52 -1.54 0.07 
3.20 -18.58 -1.54 0.07 
2.84 -18.63 -1.54 0.07 
2.49 -18.67 -1.53 0.07 
2.13 -18.71 -1.53 0.08 
1.78 -18.74 -1.53 0.08 
1.42 -18.76 -1.53 0.08 
1.07 -18.78 -1.53 0.08 
0.71 -18.79 -1.53 0.08 
0.36 -18.79 -1.53 0.08 
-0.00 -18.79 -1.53 0.08 
-0.36 -18.78 -1.53 0.08 
-0.71 -18.76 -1.53 0.08 
-1.06 -18.73 -1.53 0.08 
-1.42 -18.70 -1.53 0.08 
-1.77 -18.67 -1.53 0.08 
-2.12 -18.62 -1.53 0.08 
-2.47 -18.57 -1.53 0.08 
-2.82 -18.51 -1.53 0.08 
-3.17 -18.45 -1.53 0.08 
-3.52 -18.38 -1.52 0.08 
-3.87 -18.30 -1.52 0.08 
-4.21 -18.22 -1.52 0.08 
-4.55 -18.13 -1.52 0.08 
-4.89 -18.03 -1.52 0.08 
-5.23 -17.93 -1.52 0.08 
-5.57 -17.82 -1.52 0.08 
-5.90 -17.71 -1.52 0.08 
-4.42 -12.48 -1.08 0.83 
-6.56 -17.46 -1.52 0.08 
-6.89 -17.32 -1.52 0.08 
-7.21 -17.19 -1.52 0.08 
-7.53 -17.04 -1.52 0.08 
-7.85 -16.89 -1.52 0.08 
-8.17 -16.73 -1.52 0.08 
-8.48 -16.57 -1.52 0.08 
-8.79 -16.40 -1.52 0.08 
-9.10 -16.22 -1.52 0.08 
-9.40 -16.04 -1.51 0.08 
-9.70 -15.86 -1.51 0.08 
-9.99 -15.66 -1.51 0.08 
-10.28 -15.47 -1.51 0.08 
-10.57 -15.26 -1.51 0.08 
-10.85 -15.06 -1.51 0.08 
-11.13 -14.84 -1.51 0.08 
-11.41 -14.63 -1.51 0.08 
-11.68 -14.40 -1.51 0.08 
-11.95 -14.17 -1.51 0.08 
-12.21 -13.94 -1.51 0.08 
-12.47 -13.70 -1.51 0.08 
-8.09 -8.56 -0.96 0.69 
-12.97 -13.21 -1.51 0.08 
-13.21 -12.96 -1.51 0.08 
-13.45 -12.71 -1.51 0.08 
-13.68 -12.45 -1.51 0.08 
-13.91 -12.18 -1.51 0.08 
-14.14 -11.91 -1.51 0.08 
-14.36 -11.64 -1.51 0.08 
-14.57 -11.36 -1.51 0.08 
-14.78 -11.08 -1.50 0.08 
-14.98 -10.80 -1.50 0.08 
-15.18 -10.51 -1.50 0.08 
-15.37 -10.22 -1.50 0.08 
-15.56 -9.92 -1.50 0.08 
-15.74 -9.63 -1.50 0.08 
-15.92 -9.32 -1.50 0.08 
-16.09 -9.02 -1.50 0.08 
-16.25 -8.71 -1.50 0.08 
-16.41 -8.40 -1.50 0.08 
-16.56 -8.09 -1.50 0.08 
-17.18 -7.99 -1.54 0.26 
-18.47 -8.17 -1.65 0.08 
-18.68 -7.84 -1.65 0.08 
-18.82 -7.49 -1.65 0.08 
-18.96 -7.13 -1.65 0.08 
-19.09 -6.77 -1.65 0.08 
-19.21 -6.40 -1.65 0.08 
-19.32 -6.04 -1.65 0.08 
-19.43 -5.67 -1.65 0.08 
-19.53 -5.30 -1.65 0.08 
-13.97 -3.51 -1.17 0.90 
-14.40 -3.33 -1.20 0.44 
-19.79 -4.18 -1.65 0.08 
-19.87 -3.81 -1.65 0.08 
-19.93 -3.43 -1.65 0.08 
-7.43 -1.13 -0.61 0.14 
-7.13 -0.95 -0.59 0.70 
-7.05 -0.80 -0.58 0.70 
-6.99 -0.66 -0.57 0.88 
-6.97 -0.53 -0.57 0.91 
-6.95 -0.40 -0.57 0.92 
-6.93 -0.26 -0.57 0.92 
-6.92 -0.13 -0.56 0.93 
-6.92 -0.00 -0.57 0.94 
-6.94 0.13 -0.57 0.92 
-6.96 0.26 -0.58 0.92 
-6.97 0.40 -0.58 0.89 
-7.01 0.53 -0.58 0.72 
-7.09 0.67 -0.59 0.71 
-7.18 0.82 -0.60 0.40 
-19.75 2.63 -1.65 0.08 
-19.70 3.01 -1.65 0.08 
-19.64 3.38 -1.65 0.08 
-19.57 3.75 -1.65 0.08 
-19.50 4.12 -1.65 0.08 
-19.42 4.49 -1.65 0.08 
-19.33 4.85 -1.65 0.08 
-19.24 5.22 -1.65 0.08 
-8.49 2.48 -0.73 0.17 
-8.05 2.51 -0.70 0.29 
-7.60 2.53 -0.66 0.30 
-7.18 2.55 -0.63 0.32 
-6.81 2.56 -0.60 0.34 
-6.48 2.58 -0.58 0.36 
-6.17 2.59 -0.55 0.35 
-5.88 2.60 -0.53 0.37 
-5.66 2.63 -0.52 0.64 
-5.51 2.69 -0.51 0.65 
-5.39 2.76 -0.50 0.82 
-5.37 2.88 -0.50 0.75 
-5.36 3.01 -0.51 0.74 
-5.35 3.13 -0.51 0.74 
-5.34 3.26 -0.52 0.73 
-5.33 3.40 -0.52 0.72 
-5.32 3.54 -0.53 0.66 
-5.33 3.69 -0.54 0.65 
-5.33 3.84 -0.54 0.64 
-5.34 4.00 -0.55 0.64 
-5.34 4.17 -0.56 0.63 
-7.40 6.00 -0.79 0.58 
-7.11 5.99 -0.77 0.65 
-6.86 6.00 -0.75 0.58 
-6.62 6.02 -0.74 0.73 
-6.42 6.07 -0.73 0.83 
-6.24 6.12 -0.72 0.80 
-6.08 6.20 -0.72 0.93 
-5.95 6.29 -0.72 0.96 
-5.87 6.45 -0.72 0.85 
-5.81 6.64 -0.73 0.71 
-5.79 6.87 -0.74 0.66 
-5.80 7.15 -0.76 0.52 
-5.91 7.57 -0.79 0.30 
-10.94 14.59 -1.51 0.08 
-10.67 14.80 -1.51 0.08 
-10.39 15.00 -1.51 0.08 
-10.10 15.20 -1.51 0.08 
-9.82 15.39 -1.51 0.08 
-9.53 15.58 -1.51 0.08 
-9.23 15.76 -1.51 0.08 
-7.28 12.98 -1.23 0.94 
-7.03 13.12 -1.23 0.94 
-6.87 13.42 -1.25 0.43 
-8.03 16.44 -1.51 0.08 
-7.72 16.59 -1.51 0.08 
-7.40 16.74 -1.51 0.08 
-7.09 16.88 -1.51 0.08 
-6.77 17.02 -1.51 0.08 
-6.45 17.15 -1.51 0.08 
-6.12 17.27 -1.52 0.07 
-5.80 17.40 -1.52 0.07 
-5.47 17.52 -1.52 0.07 
-5.15 17.64 -1.52 0.07 
-4.81 17.74 -1.52 0.07 
-4.48 17.85 -1.52 0.07 
-3.96 17.15 -1.46 0.66 
-3.81 18.03 -1.52 0.07 
-3.47 18.11 -1.52 0.07 
-3.13 18.18 -1.53 0.07 
-2.78 18.25 -1.53 0.07 
-2.44 18.31 -1.53 0.07 
-1.92 16.86 -1.40 0.65 
-1.75 18.41 -1.53 0.07 
-1.40 18.45 -1.53 0.07 
-1.05 18.48 -1.53 0.07 
-0.70 18.51 -1.53 0.07 
-0.35 18.53 -1.53 0.07 
0.00 18.54 -1.53 0.07 
0.35 18.54 -1.53 0.07 
0.70 18.54 -1.53 0.07 
1.05 18.53 -1.53 0.07 
1.31 17.29 -1.43 0.85 
1.75 18.49 -1.54 0.07 
2.10 18.45 -1.54 0.07 
2.45 18.41 -1.54 0.07 
2.80 18.37 -1.54 0.07 
3.15 18.31 -1.54 0.07 
3.29 17.16 -1.44 0.84 
3.58 16.94 -1.43 0.42 
4.19 18.11 -1.54 0.07 
4.53 18.03 -1.54 0.07 
4.87 17.94 -1.54 0.07 
5.21 17.85 -1.54 0.07 
5.54 17.75 -1.54 0.07 
5.88 17.64 -1.54 0.07 
4.19 11.83 -1.04 0.33 
4.37 11.63 -1.03 0.89 
6.87 17.27 -1.54 0.08 
5.58 13.29 -1.19 0.32 
5.79 13.09 -1.18 0.93 
6.06 13.04 -1.19 0.58 
8.17 16.73 -1.54 0.08 
1.84 3.60 -0.33 0.07 
1.86 3.46 -0.32 0.10 
1.88 3.35 -0.32 0.19 
1.94 3.31 -0.32 0.08 
2.02 3.30 -0.32 0.08 
2.10 3.30 -0.32 0.08 
10.33 15.54 -1.54 0.08 
10.62 15.35 -1.54 0.08 
10.92 15.15 -1.54 0.08 
11.21 14.94 -1.54 0.08 
11.49 14.73 -1.54 0.08 
11.77 14.52 -1.54 0.08 
6.25 7.42 -0.80 0.15 
6.18 7.06 -0.78 0.57 
6.19 6.81 -0.76 0.36 
6.24 6.61 -0.75 0.36 
6.31 6.43 -0.75 0.46 
6.40 6.28 -0.74 0.50 
6.45 6.09 -0.73 0.50 
6.54 5.95 -0.73 0.57 
6.70 5.87 -0.74 0.57 
6.95 5.85 -0.75 0.62 
7.23 5.86 -0.77 0.57 
7.53 5.87 -0.79 0.58 
7.83 5.87 -0.81 0.55 
8.16 5.88 -0.83 0.54 
8.50 5.89 -0.85 0.52 
8.86 5.89 -0.88 0.52 
9.24 5.90 -0.91 0.49 
9.61 5.88 -0.93 0.60 
9.93 5.82 -0.95 0.48 
10.41 5.84 -0.99 0.37 
17.87 9.58 -1.68 0.61 
18.33 9.38 -1.70 0.08 
18.56 9.06 -1.71 0.08 
18.75 8.72 -1.71 0.07 
18.92 8.37 -1.71 0.07 
19.08 8.01 -1.71 0.07 
19.23 7.65 -1.71 0.07 
19.37 7.28 -1.71 0.07 
19.51 6.92 -1.71 0.07 
19.64 6.55 -1.71 0.07 
19.76 6.17 -1.71 0.07 
19.88 5.80 -1.71 0.07 
19.99 5.42 -1.71 0.07 
20.09 5.05 -1.71 0.07 
20.19 4.66 -1.71 0.07 
20.27 4.28 -1.71 0.07 
20.35 3.90 -1.71 0.07 
20.42 3.51 -1.71 0.07 
20.49 3.13 -1.71 0.07 
20.55 2.74 -1.71 0.07 
20.60 2.35 -1.71 0.07 
20.64 1.96 -1.71 0.07 
20.67 1.57 -1.71 0.07 
20.70 1.18 -1.71 0.07 
20.72 0.78 -1.71 0.07 
20.73 0.39 -1.71 0.07 
20.74 0.00 -1.71 0.07 
20.73 -0.39 -1.71 0.07 
20.72 -0.78 -1.71 0.07 
20.70 -1.18 -1.71 0.07 
20.68 -1.57 -1.71 0.07 
20.65 -1.96 -1.71 0.07 
20.60 -2.35 -1.71 0.07 
20.56 -2.74 -1.71 0.07 
20.50 -3.13 -1.71 0.07 
20.44 -3.52 -1.71 0.07 
20.37 -3.90 -1.71 0.07 
20.29 -4.29 -1.71 0.07 
20.20 -4.67 -1.71 0.07 
20.11 -5.05 -1.71 0.07 
20.01 -5.43 -1.71 0.07 
19.90 -5.81 -1.71 0.07 
19.79 -6.18 -1.71 0.07 
19.66 -6.55 -1.71 0.07 
19.53 -6.92 -1.71 0.07 
19.40 -7.29 -1.71 0.07 
19.25 -7.66 -1.71 0.07 
19.10 -8.02 -1.71 0.07 
18.95 -8.38 -1.71 0.07 
18.78 -8.73 -1.71 0.07 
18.61 -9.09 -1.71 0.07 
18.43 -9.44 -1.71 0.07 
18.25 -9.78 -1.71 0.07 
18.00 -10.09 -1.71 0.08 
16.66 -9.76 -1.60 0.20 
16.05 -9.82 -1.56 0.08 
15.86 -10.12 -1.56 0.08 
15.66 -10.41 -1.56 0.08 
15.46 -10.71 -1.55 0.08 
15.25 -10.99 -1.55 0.08 
15.04 -11.28 -1.55 0.08 
4.18 -3.26 -0.44 0.35 
4.01 -3.25 -0.43 0.62 
3.86 -3.25 -0.42 0.56 
3.72 -3.26 -0.41 0.58 
3.60 -3.28 -0.40 0.59 
3.49 -3.30 -0.40 0.71 
3.42 -3.36 -0.40 0.41 
3.38 -3.44 -0.40 0.33 
3.35 -3.55 -0.40 0.31 
3.33 -3.67 -0.41 0.33 
3.31 -3.78 -0.42 0.30 
3.32 -3.94 -0.43 0.17 
11.63 -14.34 -1.53 0.73 
11.26 -14.44 -1.51 0.56 
11.24 -14.98 -1.55 0.08 
10.95 -15.19 -1.55 0.08 
10.66 -15.39 -1.55 0.08 
10.36 -15.58 -1.55 0.08 
10.06 -15.77 -1.55 0.08 
9.76 -15.96 -1.55 0.08 
9.45 -16.13 -1.55 0.08 
9.14 -16.30 -1.55 0.08 
8.83 -16.47 -1.54 0.08 
8.51 -16.63 -1.54 0.08 
8.19 -16.78 -1.54 0.08 
7.87 -16.93 -1.54 0.08 
7.55 -17.07 -1.54 0.08 
7.22 -17.20 -1.54 0.08 
6.89 -17.33 -1.54 0.08 
6.56 -17.45 -1.54 0.08 
6.23 -17.56 -1.54 0.08 
5.89 -17.67 -1.54 0.08 
5.55 -17.77 -1.54 0.08 
5.21 -17.87 -1.54 0.08 
4.87 -17.96 -1.54 0.08 
4.53 -18.04 -1.54 0.08 
2.84 -12.30 -1.04 0.53 
2.62 -12.42 -1.05 0.82 
3.50 -18.25 -1.54 0.08 
3.15 -18.31 -1.54 0.08 
2.80 -18.36 -1.54 0.08 
2.45 -18.40 -1.53 0.08 
2.10 -18.43 -1.53 0.08 
1.75 -18.46 -1.53 0.08 
1.40 -18.49 -1.53 0.08 
1.05 -18.50 -1.53 0.08 
0.70 -18.51 -1.53 0.08 
0.35 -18.52 -1.53 0.08 
-0.00 -18.51 -1.53 0.08 
-0.35 -18.50 -1.53 0.08 
-0.70 -18.49 -1.53 0.08 
-1.05 -18.46 -1.53 0.08 
-1.40 -18.43 -1.53 0.08 
-1.75 -18.40 -1.53 0.08 
-2.09 -18.35 -1.53 0.08 
-2.44 -18.30 -1.53 0.08 
-2.78 -18.25 -1.53 0.08 
-3.13 -18.18 -1.53 0.08 
-3.47 -18.11 -1.52 0.08 
-3.81 -18.04 -1.52 0.08 
-4.15 -17.96 -1.52 0.08 
-4.49 -17.87 -1.52 0.08 
-4.82 -17.77 -1.52 0.08 
-5.16 -17.67 -1.52 0.08 
-5.49 -17.56 -1.52 0.08 
-5.82 -17.45 -1.52 0.08 
-4.43 -12.48 -1.10 0.75 
-6.47 -17.21 -1.52 0.08 
-6.79 -17.07 -1.52 0.08 
-7.11 -16.94 -1.52 0.08 
-7.43 -16.79 -1.52 0.08 
-7.74 -16.64 -1.52 0.08 
-8.05 -16.49 -1.52 0.08 
-8.36 -16.33 -1.52 0.08 
-8.66 -16.16 -1.52 0.08 
-8.96 -15.99 -1.52 0.08 
-9.26 -15.81 -1.51 0.08 
-9.56 -15.63 -1.51 0.08 
-9.85 -15.44 -1.51 0.08 
-10.13 -15.24 -1.51 0.08 
-10.42 -15.04 -1.51 0.08 
-10.70 -14.84 -1.51 0.08 
-10.97 -14.63 -1.51 0.08 
-11.24 -14.42 -1.51 0.08 
-11.51 -14.20 -1.51 0.08 
-11.77 -13.97 -1.51 0.08 
-12.03 -13.74 -1.51 0.08 
-12.29 -13.51 -1.51 0.08 
-8.09 -8.56 -0.97 0.69 
-12.78 -13.02 -1.51 0.08 
-13.02 -12.78 -1.51 0.08 
-13.26 -12.52 -1.51 0.08 
-13.49 -12.27 -1.51 0.08 
-13.71 -12.01 -1.51 0.08 
-13.93 -11.74 -1.51 0.08 
-14.15 -11.47 -1.51 0.08 
-14.36 -11.20 -1.51 0.08 
-14.57 -10.92 -1.51 0.08 
-14.77 -10.64 -1.50 0.08 
-14.96 -10.36 -1.50 0.08 
-15.15 -10.07 -1.50 0.08 
-15.34 -9.78 -1.50 0.08 
-15.52 -9.49 -1.50 0.08 
-15.69 -9.19 -1.50 0.08 
-15.86 -8.89 -1.50 0.08 
-16.02 -8.59 -1.50 0.08 
-16.18 -8.28 -1.50 0.08 
-16.33 -7.97 -1.50 0.08 
-17.17 -7.98 -1.57 0.26 
-18.21 -8.05 -1.65 0.08 
-18.41 -7.73 -1.65 0.08 
-18.55 -7.38 -1.65 0.08 
-18.69 -7.02 -1.65 0.08 
-18.81 -6.67 -1.65 0.08 
-18.93 -6.31 -1.65 0.08 
-19.05 -5.95 -1.65 0.08 
-19.15 -5.59 -1.65 0.08 
-19.25 -5.22 -1.65 0.08 
-13.96 -3.51 -1.19 0.90 
-14.42 -3.33 -1.22 0.69 
-19.51 -4.12 -1.65 0.08 
-19.58 -3.75 -1.65 0.08 
-19.65 -3.38 -1.65 0.08 
-7.40 -1.13 -0.62 0.14 
-7.12 -0.95 -0.59 0.70 
-7.05 -0.80 -0.59 0.71 
-6.99 -0.66 -0.58 0.88 
-6.96 -0.53 -0.58 0.91 
-6.95 -0.39 -0.58 0.92 
-6.93 -0.26 -0.57 0.92 
-6.92 -0.13 -0.57 0.93 
-6.92 -0.00 -0.58 0.94 
-6.94 0.13 -0.58 0.92 
-6.95 0.26 -0.58 0.92 
-6.97 0.40 -0.59 0.89 
-7.01 0.53 -0.59 0.72 
-7.08 0.67 -0.60 0.71 
-7.17 0.82 -0.61 0.40 
-19.47 2.59 -1.65 0.08 
-19.42 2.96 -1.65 0.08 
-19.36 3.33 -1.65 0.08 
-19.30 3.70 -1.65 0.08 
-19.22 4.06 -1.65 0.08 
-19.14 4.42 -1.65 0.08 
-19.06 4.79 -1.65 0.08 
-9.04 2.45 -0.79 0.18 
-8.46 2.47 -0.74 0.17 
-8.03 2.51 -0.71 0.29 
-7.59 2.53 -0.67 0.30 
-7.17 2.54 -0.64 0.32 
-6.80 2.56 -0.61 0.35 
-6.47 2.57 -0.58 0.36 
-6.16 2.59 -0.56 0.35 
-5.87 2.60 -0.54 0.38 
-5.66 2.63 -0.52 0.64 
-5.50 2.69 -0.51 0.65 
-5.38 2.75 -0.51 0.78 
-5.37 2.88 -0.51 0.75 
-5.36 3.00 -0.52 0.74 
-5.35 3.13 -0.52 0.74 
-5.33 3.26 -0.52 0.73 
-5.32 3.39 -0.53 0.72 
-5.32 3.53 -0.54 0.66 
-5.32 3.68 -0.54 0.65 
-5.32 3.84 -0.55 0.64 
-5.33 4.00 -0.56 0.64 
-5.34 4.16 -0.57 0.63 
-7.40 6.00 -0.80 0.59 
-7.11 5.99 -0.78 0.65 
-6.85 6.00 -0.76 0.58 
-6.61 6.02 -0.75 0.73 
-6.42 6.06 -0.74 0.83 
-6.24 6.12 -0.73 0.80 
-6.08 6.20 -0.73 0.95 
-5.95 6.29 -0.73 0.96 
-5.87 6.45 -0.73 0.85 
-5.81 6.64 -0.74 0.71 
-5.79 6.87 -0.75 0.66 
-5.80 7.15 -0.77 0.52 
-5.90 7.57 -0.81 0.30 
-10.79 14.38 -1.51 0.08 
-10.51 14.59 -1.51 0.08 
-10.24 14.79 -1.51 0.08 
-9.96 14.98 -1.51 0.08 
-9.68 15.17 -1.51 0.08 
-9.39 15.36 -1.51 0.08 
-9.10 15.54 -1.51 0.08 
-7.28 12.98 -1.25 0.94 
-7.03 13.12 -1.25 0.94 
-6.87 13.42 -1.26 0.43 
-7.91 16.20 -1.51 0.08 
-7.61 16.35 -1.51 0.08 
-7.30 16.50 -1.51 0.08 
-6.99 16.64 -1.51 0.08 
-6.67 16.78 -1.51 0.08 
-6.36 16.91 -1.51 0.08 
-6.04 17.03 -1.52 0.08 
-5.71 17.15 -1.52 0.08 
-5.39 17.26 -1.52 0.08 
-5.07 17.37 -1.52 0.07 
-4.74 17.47 -1.52 0.07 
-4.41 17.57 -1.52 0.07 
-3.97 17.18 -1.48 0.47 
-3.75 17.75 -1.52 0.07 
-3.42 17.83 -1.52 0.07 
-3.08 17.90 -1.52 0.07 
-2.74 17.97 -1.52 0.07 
-2.40 18.03 -1.53 0.07 
-1.92 16.86 -1.42 0.65 
-1.72 18.13 -1.53 0.07 
-1.38 18.17 -1.53 0.07 
-1.03 18.20 -1.53 0.07 
-0.69 18.22 -1.53 0.07 
-0.35 18.24 -1.53 0.07 
-0.00 18.25 -1.53 0.07 
0.35 18.25 -1.53 0.07 
0.69 18.25 -1.53 0.07 
1.04 18.24 -1.53 0.07 
1.31 17.30 -1.45 0.73 
1.73 18.20 -1.53 0.07 
2.07 18.17 -1.53 0.07 
2.42 18.13 -1.53 0.07 
2.76 18.08 -1.53 0.07 
3.10 18.03 -1.53 0.07 
3.29 17.16 -1.47 0.84 
3.58 16.94 -1.45 0.42 
4.12 17.83 -1.54 0.07 
4.46 17.75 -1.54 0.07 
4.79 17.67 -1.54 0.07 
5.13 17.57 -1.54 0.07 
5.46 17.47 -1.54 0.07 
5.79 17.36 -1.54 0.07 
4.19 11.83 -1.05 0.33 
4.37 11.63 -1.04 0.89 
6.77 17.02 -1.54 0.08 
5.58 13.29 -1.21 0.32 
5.79 13.09 -1.20 0.93 
6.06 13.04 -1.21 0.58 
8.05 16.48 -1.54 0.08 
1.81 3.54 -0.33 0.08 
1.84 3.42 -0.33 0.10 
1.87 3.33 -0.32 0.19 
1.91 3.26 -0.32 0.20 
1.99 3.25 -0.32 0.08 
2.07 3.25 -0.32 0.08 
2.16 3.26 -0.33 0.02 
10.47 15.12 -1.54 0.08 
10.76 14.93 -1.54 0.08 
11.04 14.73 -1.54 0.08 
11.32 14.52 -1.54 0.08 
11.60 14.31 -1.54 0.08 
6.21 7.37 -0.81 0.15 
6.18 7.05 -0.79 0.57 
6.18 6.80 -0.77 0.62 
6.23 6.59 -0.76 0.36 
6.30 6.42 -0.75 0.46 
6.38 6.26 -0.75 0.50 
6.44 6.08 -0.74 0.50 
6.53 5.94 -0.74 0.57 
6.69 5.86 -0.75 0.57 
6.94 5.85 -0.76 0.62 
7.23 5.86 -0.78 0.57 
7.52 5.87 -0.80 0.58 
7.83 5.87 -0.82 0.55 
8.15 5.88 -0.84 0.54 
8.50 5.88 -0.87 0.52 
8.86 5.89 -0.89 0.51 
9.24 5.90 -0.92 0.49 
9.61 5.88 -0.95 0.60 
9.93 5.82 -0.97 0.48 
10.41 5.83 -1.00 0.37 
17.86 9.57 -1.70 0.61 
18.10 9.26 -1.71 0.09 
18.31 8.94 -1.71 0.08 
18.48 8.59 -1.71 0.08 
18.64 8.24 -1.71 0.08 
18.80 7.89 -1.71 0.08 
18.95 7.53 -1.71 0.08 
19.09 7.18 -1.71 0.08 
19.23 6.81 -1.71 0.08 
19.35 6.45 -1.71 0.08 
19.48 6.08 -1.71 0.08 
19.59 5.72 -1.71 0.08 
19.70 5.34 -1.71 0.08 
19.80 4.97 -1.71 0.08 
19.89 4.60 -1.71 0.08 
19.98 4.22 -1.71 0.08 
20.05 3.84 -1.71 0.08 
20.13 3.46 -1.71 0.08 
20.19 3.08 -1.71 0.08 
20.25 2.70 -1.71 0.08 
20.29 2.31 -1.71 0.08 
20.34 1.93 -1.71 0.08 
20.37 1.54 -1.71 0.08 
20.40 1.16 -1.71 0.08 
20.42 0.77 -1.71 0.08 
20.43 0.39 -1.71 0.08 
20.43 0.00 -1.71 0.08 
20.43 -0.39 -1.71 0.08 
20.42 -0.77 -1.71 0.08 
20.40 -1.16 -1.71 0.08 
20.38 -1.55 -1.71 0.08 
20.34 -1.93 -1.71 0.08 
20.30 -2.32 -1.71 0.08 
20.26 -2.70 -1.71 0.08 
20.20 -3.08 -1.71 0.08 
20.14 -3.46 -1.71 0.08 
20.07 -3.84 -1.71 0.08 
19.99 -4.22 -1.71 0.08 
19.91 -4.60 -1.71 0.08 
19.81 -4.98 -1.71 0.08 
19.72 -5.35 -1.71 0.08 
19.61 -5.72 -1.71 0.08 
19.50 -6.09 -1.71 0.08 
19.38 -6.46 -1.71 0.08 
19.25 -6.82 -1.71 0.08 
19.11 -7.19 -1.71 0.08 
18.97 -7.54 -1.71 0.08 
18.82 -7.90 -1.71 0.08 
18.67 -8.26 -1.71 0.08 
18.51 -8.61 -1.71 0.08 
18.34 -8.95 -1.71 0.08 
18.16 -9.30 -1.71 0.08 
17.98 -9.64 -1.71 0.08 
17.74 -9.95 -1.71 0.08 
16.64 -9.75 -1.62 0.20 
15.82 -9.67 -1.56 0.08 
15.63 -9.97 -1.55 0.08 
15.44 -10.26 -1.55 0.08 
15.24 -10.55 -1.55 0.08 
15.03 -10.83 -1.55 0.08 
14.82 -11.11 -1.55 0.08 
4.18 -3.26 -0.44 0.35 
4.00 -3.25 -0.43 0.62 
3.85 -3.25 -0.42 0.62 
3.72 -3.26 -0.41 0.58 
3.60 -3.27 -0.41 0.59 
3.49 -3.30 -0.40 0.71 
3.42 -3.35 -0.40 0.41 
3.37 -3.43 -0.40 0.33 
3.34 -3.54 -0.41 0.31 
3.32 -3.65 -0.41 0.33 
3.30 -3.77 -0.42 0.30 
3.30 -3.92 -0.43 0.17 
11.62 -14.33 -1.55 0.08 
11.26 -14.44 -1.54 0.56 
11.07 -14.77 -1.55 0.08 
10.79 -14.97 -1.55 0.08 
10.50 -15.17 -1.55 0.08 
10.21 -15.36 -1.55 0.08 
9.91 -15.54 -1.55 0.08 
9.62 -15.72 -1.55 0.08 
9.31 -15.90 -1.55 0.08 
9.01 -16.07 -1.54 0.08 
8.70 -16.23 -1.54 0.08 
8.39 -16.39 -1.54 0.08 
8.07 -16.54 -1.54 0.08 
7.76 -16.68 -1.54 0.08 
7.44 -16.82 -1.54 0.08 
7.12 -16.95 -1.54 0.08 
6.79 -17.08 -1.54 0.08 
6.46 -17.20 -1.54 0.08 
6.14 -17.31 -1.54 0.08 
5.81 -17.42 -1.54 0.08 
5.47 -17.52 -1.54 0.08 
5.14 -17.61 -1.54 0.08 
4.80 -17.70 -1.54 0.08 
4.47 -17.78 -1.54 0.08 
4.13 -17.86 -1.54 0.08 
2.62 -12.42 -1.07 0.82 
3.45 -17.99 -1.54 0.08 
3.10 -18.04 -1.54 0.08 
2.76 -18.09 -1.53 0.08 
2.42 -18.13 -1.53 0.08 
2.07 -18.17 -1.53 0.08 
1.73 -18.20 -1.53 0.08 
1.38 -18.22 -1.53 0.08 
1.04 -18.24 -1.53 0.08 
0.69 -18.25 -1.53 0.08 
0.35 -18.25 -1.53 0.08 
0.00 -18.25 -1.53 0.08 
-0.35 -18.24 -1.53 0.08 
-0.69 -18.22 -1.53 0.08 
-1.03 -18.20 -1.53 0.08 
-1.38 -18.17 -1.53 0.08 
-1.72 -18.13 -1.53 0.08 
-2.06 -18.09 -1.53 0.08 
-2.40 -18.04 -1.53 0.08 
-2.74 -17.98 -1.53 0.08 
-3.08 -17.92 -1.53 0.08 
-3.42 -17.85 -1.52 0.08 
-3.76 -17.78 -1.52 0.08 
-4.09 -17.70 -1.52 0.08 
-4.42 -17.61 -1.52 0.08 
-4.75 -17.52 -1.52 0.08 
-5.08 -17.42 -1.52 0.08 
-5.41 -17.31 -1.52 0.08 
-5.73 -17.20 -1.52 0.08 
-4.43 -12.49 -1.11 0.63 
-6.38 -16.96 -1.52 0.08 
-6.69 -16.83 -1.52 0.08 
-7.01 -16.69 -1.52 0.08 
-7.32 -16.55 -1.52 0.08 
-7.63 -16.41 -1.52 0.08 
-7.94 -16.25 -1.52 0.08 
-8.24 -16.09 -1.52 0.08 
-8.54 -15.93 -1.52 0.08 
-8.84 -15.76 -1.52 0.08 
-9.13 -15.59 -1.51 0.08 
-9.42 -15.40 -1.51 0.08 
-9.71 -15.22 -1.51 0.08 
-9.99 -15.03 -1.51 0.08 
-10.27 -14.83 -1.51 0.08 
-10.54 -14.63 -1.51 0.08 
-10.82 -14.42 -1.51 0.08 
-11.08 -14.21 -1.51 0.08 
-11.35 -13.99 -1.51 0.08 
-11.61 -13.77 -1.51 0.08 
-11.86 -13.55 -1.51 0.08 
-12.11 -13.32 -1.51 0.08 
-8.08 -8.56 -0.99 0.69 
-12.60 -12.84 -1.51 0.08 
-12.84 -12.60 -1.51 0.08 
-13.07 -12.35 -1.51 0.08 
-13.30 -12.09 -1.51 0.08 
-13.52 -11.84 -1.51 0.08 
-13.74 -11.58 -1.51 0.08 
-13.95 -11.31 -1.51 0.08 
-14.16 -11.04 -1.51 0.08 
-14.36 -10.77 -1.51 0.08 
-14.56 -10.49 -1.51 0.08 
-14.75 -10.21 -1.50 0.08 
-14.94 -9.93 -1.50 0.08 
-15.12 -9.64 -1.50 0.08 
-15.30 -9.35 -1.50 0.08 
-15.47 -9.06 -1.50 0.08 
-15.63 -8.76 -1.50 0.08 
-15.79 -8.47 -1.50 0.08 
-15.95 -8.16 -1.50 0.08 
-16.11 -7.87 -1.50 0.29 
-17.15 -7.98 -1.59 0.26 
-17.96 -7.94 -1.65 0.08 
-18.15 -7.62 -1.65 0.08 
-18.29 -7.27 -1.65 0.08 
-18.42 -6.93 -1.65 0.08 
-18.55 -6.57 -1.65 0.08 
-18.67 -6.22 -1.65 0.08 
-18.78 -5.87 -1.65 0.08 
-18.88 -5.51 -1.65 0.08 
-18.98 -5.15 -1.65 0.08 
-13.96 -3.51 -1.21 0.90 
-14.45 -3.34 -1.24 0.13 
-19.24 -4.06 -1.65 0.08 
-19.31 -3.70 -1.65 0.08 
-19.37 -3.33 -1.65 0.08 
-7.38 -1.13 -0.63 0.14 
-7.12 -0.95 -0.60 0.70 
-7.04 -0.80 -0.59 0.71 
-6.99 -0.66 -0.59 0.88 
-6.96 -0.53 -0.59 0.92 
-6.94 -0.39 -0.58 0.92 
-6.93 -0.26 -0.58 0.92 
-6.91 -0.13 -0.58 0.93 
-6.92 -0.00 -0.59 0.94 
-6.93 0.13 -0.59 0.92 
-6.95 0.26 -0.59 0.92 
-6.97 0.40 -0.59 0.89 
-7.00 0.53 -0.60 0.89 
-7.08 0.67 -0.60 0.71 
-7.16 0.82 -0.61 0.40 
-19.20 2.56 -1.65 0.08 
-19.15 2.92 -1.65 0.08 
-19.09 3.28 -1.65 0.08 
-19.03 3.64 -1.65 0.08 
-18.96 4.00 -1.65 0.08 
-18.88 4.36 -1.65 0.08 
-18.79 4.72 -1.65 0.08 
-9.02 2.45 -0.80 0.18 
-8.43 2.46 -0.75 0.40 
-8.02 2.50 -0.71 0.29 
-7.57 2.52 -0.68 0.30 
-7.16 2.54 -0.65 0.32 
-6.79 2.55 -0.62 0.35 
-6.46 2.57 -0.59 0.36 
-6.15 2.58 -0.57 0.35 
-5.86 2.59 -0.55 0.38 
-5.65 2.63 -0.53 0.64 
-5.50 2.69 -0.52 0.66 
-5.38 2.75 -0.51 0.78 
-5.36 2.88 -0.52 0.75 
-5.35 3.00 -0.52 0.75 
-5.34 3.13 -0.53 0.74 
-5.33 3.26 -0.53 0.73 
-5.31 3.39 -0.54 0.72 
-5.31 3.53 -0.54 0.66 
-5.31 3.68 -0.55 0.65 
-5.32 3.83 -0.56 0.64 
-5.32 3.99 -0.57 0.64 
-5.33 4.16 -0.58 0.63 
-7.40 6.00 -0.81 0.59 
-7.10 5.99 -0.79 0.65 
-6.85 5.99 -0.77 0.58 
-6.61 6.01 -0.76 0.73 
-6.42 6.06 -0.75 0.83 
-6.24 6.12 -0.74 0.80 
-6.08 6.20 -0.74 0.95 
-5.94 6.29 -0.74 0.96 
-5.86 6.45 -0.74 0.85 
-5.81 6.63 -0.75 0.71 
-5.79 6.87 -0.76 0.66 
-5.79 7.14 -0.78 0.52 
-5.90 7.56 -0.82 0.30 
-10.64 14.18 -1.51 0.08 
-10.37 14.38 -1.51 0.08 
-10.10 14.58 -1.51 0.08 
-9.82 14.77 -1.51 0.08 
-9.54 14.96 -1.51 0.08 
-9.26 15.14 -1.51 0.08 
-8.98 15.32 -1.51 0.08 
-7.28 12.98 -1.27 0.94 
-7.03 13.12 -1.27 0.94 
-6.87 13.42 -1.28 0.43 
-7.80 15.98 -1.51 0.08 
-7.50 16.13 -1.51 0.08 
-7.19 16.27 -1.51 0.08 
-6.89 16.41 -1.51 0.08 
-6.58 16.54 -1.51 0.08 
-6.27 16.67 -1.51 0.08 
-5.95 16.79 -1.52 0.08 
-5.63 16.90 -1.52 0.08 
-5.32 17.01 -1.52 0.08 
-4.99 17.12 -1.52 0.08 
-4.67 17.21 -1.52 0.08 
-4.35 17.31 -1.52 0.07 
-4.02 17.40 -1.52 0.07 
-3.69 17.48 -1.52 0.07 
-3.36 17.56 -1.52 0.07 
-3.03 17.63 -1.52 0.07 
-2.70 17.70 -1.52 0.07 
-2.37 17.76 -1.52 0.07 
-1.92 16.86 -1.44 0.65 
-1.69 17.85 -1.53 0.07 
-1.36 17.89 -1.53 0.07 
-1.02 17.92 -1.53 0.07 
-0.68 17.95 -1.53 0.07 
-0.34 17.96 -1.53 0.07 
-0.00 17.97 -1.53 0.07 
0.34 17.98 -1.53 0.07 
0.68 17.97 -1.53 0.07 
1.02 17.96 -1.53 0.07 
1.31 17.32 -1.48 0.37 
1.70 17.92 -1.53 0.07 
2.04 17.89 -1.53 0.07 
2.38 17.85 -1.53 0.07 
2.72 17.81 -1.53 0.07 
3.05 17.76 -1.53 0.07 
3.29 17.18 -1.49 0.65 
3.58 16.95 -1.47 0.30 
4.06 17.56 -1.53 0.07 
4.39 17.48 -1.53 0.07 
4.72 17.40 -1.53 0.07 
5.05 17.30 -1.53 0.07 
5.38 17.21 -1.53 0.08 
5.70 17.11 -1.53 0.08 
4.19 11.83 -1.07 0.33 
4.37 11.62 -1.06 0.89 
6.67 16.78 -1.54 0.08 
5.58 13.29 -1.23 0.32 
5.79 13.09 -1.22 0.93 
6.06 13.03 -1.22 0.58 
1.78 3.65 -0.35 0.07 
1.79 3.50 -0.33 0.11 
1.82 3.39 -0.33 0.11 
