VERSION 0.7
FIELDS x y z intensity
SIZE 4 4 4 8
TYPE F F F F
COUNT 1 1 1 1
WIDTH 2053
HEIGHT 1
VIEWPOINT 0.0 0.0 0.0 1.0 0.0 0.0 0.0
POINTS 2053
DATA ascii
-9.10 -5.80 -1.62 0.15 
-9.20 -5.63 -1.62 0.15 
-9.30 -5.45 -1.62 0.15 
-9.40 -5.27 -1.62 0.15 
-9.49 -5.09 -1.62 0.15 
-9.58 -4.91 -1.62 0.15 
-9.67 -4.72 -1.62 0.15 
-9.76 -4.54 -1.62 0.15 
-9.84 -4.35 -1.62 0.15 
-9.91 -4.16 -1.62 0.15 
-9.99 -3.97 -1.62 0.15 
-10.06 -3.78 -1.62 0.15 
-10.12 -3.59 -1.62 0.15 
-10.19 -3.40 -1.62 0.15 
-10.25 -3.20 -1.62 0.15 
-10.30 -3.01 -1.62 0.15 
-10.36 -2.81 -1.62 0.15 
-10.41 -2.61 -1.62 0.15 
-10.45 -2.42 -1.61 0.15 
-10.49 -2.22 -1.61 0.15 
-10.53 -2.02 -1.61 0.15 
-10.57 -1.82 -1.61 0.15 
-6.64 -1.01 -1.01 0.50 
-6.60 -0.88 -1.00 0.90 
-6.56 -0.75 -0.99 0.91 
-6.53 -0.62 -0.99 0.92 
-6.51 -0.49 -0.98 0.95 
-6.50 -0.37 -0.98 0.96 
-6.49 -0.25 -0.98 0.96 
-6.48 -0.12 -0.98 0.96 
-6.49 -0.00 -0.98 0.96 
-6.50 0.12 -0.99 0.96 
-6.52 0.25 -0.99 0.96 
-6.53 0.37 -0.99 0.92 
-6.57 0.50 -1.00 0.92 
-6.60 0.63 -1.01 0.91 
-6.63 0.76 -1.01 0.90 
-7.08 0.94 -1.08 0.96 
-10.51 1.60 -1.61 0.15 
-10.48 1.80 -1.61 0.15 
-10.44 2.00 -1.61 0.15 
-10.40 2.20 -1.61 0.15 
-10.36 2.39 -1.61 0.15 
-9.55 2.40 -1.49 0.69 
-8.90 2.41 -1.40 0.25 
-8.28 2.42 -1.31 0.27 
-7.74 2.42 -1.23 0.29 
-7.16 2.39 -1.15 0.31 
-6.74 2.39 -1.09 0.33 
-6.50 2.44 -1.05 0.83 
-6.34 2.52 -1.04 0.68 
-6.24 2.62 -1.03 0.96 
-6.21 2.75 -1.03 0.90 
-6.21 2.89 -1.04 0.90 
-6.20 3.03 -1.05 0.89 
-6.20 3.17 -1.06 0.87 
-6.19 3.32 -1.07 0.86 
-6.19 3.47 -1.08 0.83 
-6.20 3.63 -1.09 0.82 
-6.20 3.79 -1.10 0.79 
-6.21 3.96 -1.12 0.78 
-6.21 4.13 -1.13 0.77 
-6.47 4.48 -1.19 0.80 
-8.68 6.25 -1.62 0.15 
-8.56 6.42 -1.62 0.15 
-8.44 6.58 -1.62 0.15 
-7.35 5.96 -1.44 0.64 
-7.09 5.97 -1.41 0.63 
-6.82 5.97 -1.38 0.61 
-6.73 6.12 -1.38 0.66 
-7.80 7.37 -1.63 0.15 
-7.66 7.52 -1.63 0.15 
-7.52 7.67 -1.63 0.15 
-7.19 7.61 -1.59 0.71 
-6.93 7.61 -1.56 0.70 
-7.09 8.09 -1.63 0.15 
-6.94 8.23 -1.63 0.15 
-6.78 8.36 -1.63 0.15 
-6.63 8.50 -1.64 0.15 
-6.47 8.62 -1.64 0.15 
-6.31 8.75 -1.64 0.15 
-6.14 8.87 -1.64 0.15 
-5.98 8.99 -1.64 0.15 
-5.81 9.11 -1.64 0.15 
-5.64 9.22 -1.64 0.15 
-5.47 9.34 -1.64 0.15 
-5.29 9.44 -1.64 0.15 
-5.12 9.55 -1.64 0.15 
-4.94 9.65 -1.65 0.15 
-4.76 9.75 -1.65 0.15 
-4.58 9.84 -1.65 0.15 
-4.39 9.93 -1.65 0.15 
-4.21 10.02 -1.65 0.15 
-4.02 10.11 -1.65 0.15 
-3.83 10.19 -1.65 0.15 
-3.64 10.27 -1.65 0.15 
-3.45 10.34 -1.65 0.15 
-3.25 10.41 -1.66 0.15 
-3.06 10.48 -1.66 0.15 
-2.86 10.54 -1.66 0.15 
-2.66 10.60 -1.66 0.15 
-2.46 10.66 -1.66 0.16 
-2.26 10.70 -1.66 0.16 
-2.06 10.75 -1.66 0.16 
-1.86 10.79 -1.66 0.16 
-1.65 10.83 -1.66 0.16 
-1.45 10.86 -1.66 0.16 
-1.24 10.89 -1.66 0.16 
-1.04 10.92 -1.66 0.16 
-0.83 10.94 -1.67 0.16 
-0.62 10.96 -1.67 0.16 
-0.42 10.98 -1.67 0.16 
-0.21 10.99 -1.67 0.16 
-0.00 11.00 -1.67 0.16 
0.21 11.01 -1.67 0.16 
0.42 11.01 -1.67 0.16 
0.63 11.01 -1.67 0.16 
0.83 11.00 -1.67 0.16 
1.04 10.99 -1.68 0.16 
1.25 10.98 -1.68 0.16 
1.46 10.97 -1.68 0.16 
1.67 10.95 -1.68 0.16 
1.88 10.92 -1.68 0.16 
2.09 10.90 -1.68 0.16 
0.77 3.62 -0.56 0.10 
0.78 3.38 -0.53 0.29 
0.81 3.23 -0.51 0.28 
0.85 3.13 -0.49 0.40 
0.89 3.04 -0.48 0.61 
0.93 2.99 -0.48 0.67 
0.99 2.96 -0.47 0.94 
1.04 2.94 -0.47 0.85 
1.11 2.95 -0.48 0.89 
1.17 2.94 -0.48 0.89 
1.24 2.94 -0.48 0.89 
1.30 2.94 -0.49 0.87 
1.37 2.94 -0.49 0.87 
1.44 2.94 -0.50 0.86 
1.51 2.94 -0.50 0.82 
1.58 2.94 -0.51 0.81 
1.65 2.95 -0.51 0.82 
1.73 2.95 -0.52 0.78 
1.81 2.96 -0.53 0.66 
1.90 2.98 -0.54 0.65 
1.99 3.00 -0.55 0.66 
4.85 7.00 -1.29 0.50 
4.85 6.73 -1.26 0.59 
4.86 6.49 -1.23 0.72 
4.91 6.29 -1.21 0.73 
4.95 6.11 -1.19 0.88 
5.03 5.96 -1.18 0.89 
5.14 5.87 -1.18 0.88 
5.32 5.85 -1.20 0.71 
5.52 5.85 -1.22 0.69 
5.74 5.85 -1.24 0.68 
5.96 5.85 -1.27 0.67 
6.20 5.86 -1.30 0.65 
6.45 5.86 -1.32 0.64 
6.70 5.87 -1.35 0.61 
6.97 5.87 -1.38 0.60 
7.25 5.88 -1.42 0.59 
9.00 7.02 -1.73 0.14 
9.13 6.85 -1.73 0.14 
9.27 6.68 -1.73 0.14 
8.53 5.91 -1.57 0.58 
8.81 5.85 -1.61 0.52 
9.64 6.15 -1.74 0.14 
9.76 5.97 -1.74 0.14 
9.88 5.79 -1.74 0.14 
9.99 5.60 -1.74 0.14 
10.10 5.41 -1.74 0.14 
10.20 5.22 -1.74 0.14 
10.30 5.03 -1.74 0.14 
10.40 4.84 -1.74 0.14 
10.49 4.64 -1.74 0.14 
10.58 4.44 -1.74 0.14 
10.67 4.24 -1.74 0.14 
10.75 4.04 -1.74 0.14 
10.83 3.84 -1.74 0.14 
10.90 3.63 -1.74 0.14 
10.97 3.43 -1.74 0.14 
11.04 3.22 -1.75 0.14 
11.10 3.01 -1.75 0.14 
11.16 2.80 -1.75 0.14 
11.21 2.59 -1.75 0.14 
11.26 2.38 -1.75 0.14 
11.31 2.17 -1.75 0.14 
11.35 1.95 -1.75 0.14 
11.38 1.74 -1.75 0.14 
11.42 1.52 -1.75 0.14 
11.45 1.31 -1.75 0.14 
11.47 1.09 -1.75 0.14 
11.49 0.87 -1.75 0.14 
11.51 0.65 -1.75 0.14 
11.52 0.44 -1.75 0.14 
11.52 0.22 -1.75 0.14 
11.53 -0.00 -1.75 0.14 
11.52 -0.22 -1.75 0.14 
11.52 -0.44 -1.75 0.14 
11.51 -0.65 -1.75 0.14 
11.49 -0.87 -1.75 0.14 
11.47 -1.09 -1.75 0.14 
11.45 -1.31 -1.75 0.14 
11.42 -1.52 -1.75 0.14 
11.39 -1.74 -1.75 0.14 
11.36 -1.95 -1.75 0.14 
11.32 -2.17 -1.75 0.14 
11.27 -2.38 -1.75 0.14 
11.22 -2.59 -1.75 0.14 
11.17 -2.80 -1.75 0.14 
11.11 -3.02 -1.75 0.14 
11.05 -3.22 -1.75 0.14 
10.99 -3.43 -1.75 0.14 
10.92 -3.64 -1.75 0.14 
10.84 -3.84 -1.75 0.14 
10.77 -4.05 -1.75 0.14 
10.69 -4.25 -1.75 0.14 
10.60 -4.45 -1.74 0.14 
10.51 -4.65 -1.74 0.14 
10.42 -4.84 -1.74 0.14 
10.32 -5.04 -1.74 0.14 
10.22 -5.23 -1.74 0.14 
10.12 -5.42 -1.74 0.14 
10.01 -5.61 -1.74 0.14 
5.27 -3.09 -0.93 0.41 
5.05 -3.09 -0.90 0.49 
4.85 -3.10 -0.87 0.53 
4.66 -3.10 -0.85 0.54 
4.48 -3.10 -0.83 0.61 
4.33 -3.12 -0.81 0.64 
4.19 -3.14 -0.80 0.68 
4.06 -3.17 -0.78 0.72 
3.95 -3.20 -0.77 0.85 
3.86 -3.25 -0.77 0.91 
3.82 -3.35 -0.77 0.76 
3.79 -3.45 -0.78 0.68 
3.77 -3.56 -0.79 0.78 
3.74 -3.67 -0.80 0.55 
3.75 -3.82 -0.81 0.60 
3.80 -4.02 -0.84 0.46 
7.16 -7.88 -1.62 0.68 
6.89 -7.87 -1.59 0.69 
6.66 -7.91 -1.57 0.14 
6.51 -8.03 -1.57 0.14 
6.35 -8.14 -1.57 0.14 
6.19 -8.26 -1.57 0.14 
6.03 -8.37 -1.57 0.14 
5.87 -8.48 -1.56 0.14 
5.70 -8.58 -1.56 0.14 
5.54 -8.68 -1.56 0.14 
5.37 -8.78 -1.56 0.14 
5.20 -8.87 -1.56 0.14 
5.02 -8.96 -1.56 0.14 
4.85 -9.05 -1.56 0.14 
4.68 -9.13 -1.56 0.14 
4.50 -9.21 -1.56 0.14 
4.32 -9.29 -1.56 0.14 
4.14 -9.37 -1.55 0.14 
3.96 -9.44 -1.55 0.14 
3.78 -9.50 -1.55 0.14 
3.60 -9.56 -1.55 0.14 
3.41 -9.62 -1.55 0.14 
3.23 -9.68 -1.55 0.14 
3.04 -9.73 -1.55 0.14 
2.85 -9.78 -1.55 0.14 
2.67 -9.83 -1.55 0.14 
2.48 -9.87 -1.54 0.14 
2.29 -9.90 -1.54 0.14 
2.10 -9.94 -1.54 0.14 
1.91 -9.97 -1.54 0.14 
1.72 -10.00 -1.54 0.14 
1.53 -10.02 -1.54 0.14 
1.34 -10.04 -1.54 0.14 
1.15 -10.05 -1.54 0.14 
0.96 -10.07 -1.53 0.14 
0.76 -10.08 -1.53 0.14 
0.57 -10.08 -1.53 0.14 
0.38 -10.08 -1.53 0.14 
0.19 -10.08 -1.53 0.14 
-0.00 -10.07 -1.53 0.14 
-0.19 -10.06 -1.53 0.14 
-0.38 -10.05 -1.53 0.14 
-0.57 -10.03 -1.53 0.14 
-0.76 -10.01 -1.52 0.14 
-0.95 -9.99 -1.52 0.14 
-1.14 -9.96 -1.52 0.14 
-1.32 -9.93 -1.52 0.14 
-1.51 -9.90 -1.52 0.14 
-1.70 -9.86 -1.52 0.14 
-1.88 -9.82 -1.52 0.14 
-2.06 -9.77 -1.52 0.15 
-2.25 -9.73 -1.51 0.15 
-2.43 -9.67 -1.51 0.15 
-2.61 -9.62 -1.51 0.15 
-2.79 -9.56 -1.51 0.15 
-2.97 -9.50 -1.51 0.15 
-3.14 -9.43 -1.51 0.15 
-3.32 -9.37 -1.51 0.15 
-3.49 -9.30 -1.51 0.15 
-3.67 -9.22 -1.51 0.15 
-3.84 -9.14 -1.50 0.15 
-4.01 -9.06 -1.50 0.15 
-4.18 -8.98 -1.50 0.15 
-4.34 -8.89 -1.50 0.15 
-4.51 -8.80 -1.50 0.15 
-4.67 -8.71 -1.50 0.15 
-4.83 -8.61 -1.50 0.15 
-4.99 -8.52 -1.50 0.15 
-5.14 -8.41 -1.50 0.15 
-5.30 -8.31 -1.50 0.15 
-5.45 -8.20 -1.49 0.15 
-5.60 -8.09 -1.49 0.15 
-5.75 -7.98 -1.49 0.15 
-5.90 -7.86 -1.49 0.15 
-6.12 -7.84 -1.51 0.76 
-6.36 -7.84 -1.53 0.75 
-6.60 -7.84 -1.56 0.74 
-6.86 -7.83 -1.58 0.73 
-7.12 -7.83 -1.61 0.71 
-7.37 -7.80 -1.63 0.16 
-7.52 -7.66 -1.63 0.16 
-7.67 -7.53 -1.63 0.16 
-7.82 -7.39 -1.63 0.16 
-7.95 -7.23 -1.63 0.15 
-8.08 -7.08 -1.63 0.15 
-8.21 -6.92 -1.63 0.15 
-8.34 -6.76 -1.63 0.15 
-8.46 -6.60 -1.63 0.15 
-8.58 -6.43 -1.63 0.15 
-8.70 -6.27 -1.63 0.15 
-8.81 -6.10 -1.63 0.15 
-8.92 -5.93 -1.63 0.15 
-9.02 -5.76 -1.62 0.15 
-9.13 -5.58 -1.62 0.15 
-9.23 -5.41 -1.62 0.15 
-9.33 -5.23 -1.62 0.15 
-9.42 -5.05 -1.62 0.15 
-9.51 -4.87 -1.62 0.15 
-9.60 -4.69 -1.62 0.15 
-9.68 -4.50 -1.62 0.15 
-9.76 -4.32 -1.62 0.15 
-9.84 -4.13 -1.62 0.15 
-9.91 -3.94 -1.62 0.15 
-9.98 -3.75 -1.62 0.15 
-10.05 -3.56 -1.62 0.15 
-10.11 -3.37 -1.62 0.15 
-10.17 -3.18 -1.62 0.15 
-10.22 -2.98 -1.62 0.15 
-10.28 -2.79 -1.62 0.15 
-10.32 -2.59 -1.62 0.15 
-10.37 -2.40 -1.62 0.15 
-10.41 -2.20 -1.62 0.15 
-10.45 -2.00 -1.61 0.15 
-10.48 -1.80 -1.61 0.15 
-6.64 -1.01 -1.02 0.50 
-6.59 -0.88 -1.01 0.90 
-6.56 -0.75 -1.00 0.91 
-6.53 -0.62 -1.00 0.91 
-6.51 -0.49 -0.99 0.95 
-6.50 -0.37 -0.99 0.96 
-6.49 -0.25 -0.99 0.96 
-6.48 -0.12 -0.98 0.96 
-6.49 -0.00 -0.99 0.96 
-6.50 0.12 -0.99 0.96 
-6.52 0.25 -1.00 0.96 
-6.53 0.37 -1.00 0.92 
-6.57 0.50 -1.01 0.92 
-6.60 0.63 -1.01 0.91 
-6.63 0.76 -1.02 0.90 
-7.08 0.94 -1.09 0.96 
-10.43 1.59 -1.61 0.15 
-10.40 1.79 -1.61 0.15 
-10.36 1.98 -1.61 0.15 
-10.32 2.18 -1.61 0.15 
-10.28 2.38 -1.61 0.15 
-9.56 2.40 -1.51 0.68 
-9.57 2.60 -1.52 0.39 
-8.28 2.42 -1.32 0.27 
-7.75 2.42 -1.24 0.29 
-7.16 2.39 -1.15 0.31 
-6.74 2.39 -1.09 0.33 
-6.50 2.44 -1.06 0.83 
-6.34 2.52 -1.04 0.68 
-6.24 2.62 -1.04 0.96 
-6.21 2.75 -1.04 0.90 
-6.20 2.88 -1.05 0.90 
-6.20 3.03 -1.06 0.87 
-6.20 3.17 -1.07 0.87 
-6.19 3.32 -1.08 0.86 
-6.19 3.47 -1.09 0.83 
-6.20 3.63 -1.10 0.82 
-6.20 3.79 -1.11 0.79 
-6.21 3.96 -1.13 0.78 
-6.21 4.13 -1.14 0.77 
-6.46 4.48 -1.20 0.80 
-8.61 6.21 -1.62 0.15 
-8.49 6.37 -1.62 0.15 
-8.38 6.53 -1.63 0.15 
-7.35 5.96 -1.45 0.64 
-7.09 5.97 -1.42 0.63 
-6.82 5.97 -1.39 0.61 
-6.73 6.12 -1.39 0.66 
-7.74 7.31 -1.63 0.15 
-7.60 7.46 -1.63 0.15 
-7.46 7.61 -1.63 0.15 
-7.19 7.61 -1.60 0.71 
-6.93 7.61 -1.57 0.70 
-7.03 8.03 -1.63 0.15 
-6.88 8.17 -1.63 0.15 
-6.73 8.30 -1.63 0.15 
-6.57 8.43 -1.64 0.15 
-6.42 8.56 -1.64 0.15 
-6.26 8.68 -1.64 0.15 
-6.10 8.80 -1.64 0.15 
-5.93 8.92 -1.64 0.15 
-5.77 9.04 -1.64 0.15 
-5.60 9.15 -1.64 0.15 
-5.43 9.26 -1.64 0.15 
-5.25 9.37 -1.64 0.15 
-5.08 9.47 -1.64 0.15 
-4.90 9.57 -1.65 0.15 
-4.72 9.67 -1.65 0.15 
-4.54 9.77 -1.65 0.15 
-4.36 9.86 -1.65 0.15 
-4.17 9.94 -1.65 0.15 
-3.99 10.03 -1.65 0.15 
-3.80 10.11 -1.65 0.15 
-3.61 10.19 -1.65 0.15 
-3.42 10.26 -1.65 0.15 
-3.23 10.33 -1.66 0.15 
-3.03 10.40 -1.66 0.15 
-2.84 10.46 -1.66 0.15 
-2.64 10.52 -1.66 0.15 
-2.44 10.57 -1.66 0.15 
-2.24 10.63 -1.66 0.15 
-2.04 10.67 -1.66 0.16 
-1.84 10.71 -1.66 0.16 
-1.64 10.75 -1.66 0.16 
-1.44 10.78 -1.66 0.16 
-1.23 10.81 -1.66 0.16 
-1.03 10.84 -1.67 0.16 
-0.82 10.86 -1.67 0.16 
-0.62 10.88 -1.67 0.16 
-0.41 10.90 -1.67 0.16 
-0.21 10.91 -1.67 0.16 
-0.00 10.92 -1.67 0.16 
0.21 10.93 -1.67 0.16 
0.41 10.93 -1.67 0.16 
0.62 10.93 -1.67 0.16 
0.83 10.92 -1.68 0.16 
1.04 10.91 -1.68 0.16 
1.24 10.90 -1.68 0.16 
1.45 10.89 -1.68 0.16 
1.66 10.87 -1.68 0.16 
1.87 10.85 -1.68 0.16 
2.07 10.82 -1.69 0.16 
0.76 3.60 -0.56 0.10 
0.78 3.37 -0.53 0.27 
0.81 3.22 -0.51 0.28 
0.85 3.12 -0.49 0.40 
0.89 3.04 -0.48 0.61 
0.93 2.99 -0.48 0.67 
0.99 2.96 -0.48 0.94 
1.04 2.94 -0.48 0.85 
1.11 2.94 -0.48 0.89 
1.17 2.94 -0.48 0.89 
1.23 2.94 -0.49 0.89 
1.30 2.94 -0.49 0.87 
1.37 2.94 -0.50 0.87 
1.43 2.94 -0.50 0.86 
1.50 2.94 -0.51 0.82 
1.58 2.94 -0.51 0.81 
1.65 2.94 -0.52 0.82 
1.73 2.95 -0.52 0.78 
1.81 2.96 -0.53 0.66 
1.90 2.98 -0.54 0.65 
1.99 2.99 -0.55 0.66 
4.85 7.00 -1.30 0.50 
4.85 6.73 -1.27 0.59 
4.87 6.49 -1.24 0.72 
4.91 6.29 -1.22 0.73 
4.95 6.11 -1.20 0.92 
5.02 5.96 -1.19 0.89 
5.14 5.87 -1.19 0.88 
5.32 5.85 -1.21 0.71 
5.52 5.85 -1.23 0.69 
5.74 5.85 -1.25 0.68 
5.96 5.85 -1.28 0.67 
6.20 5.86 -1.31 0.65 
6.45 5.86 -1.33 0.64 
6.70 5.87 -1.36 0.61 
6.97 5.87 -1.39 0.60 
8.78 7.12 -1.73 0.14 
8.92 6.96 -1.73 0.14 
9.06 6.79 -1.73 0.14 
9.19 6.62 -1.73 0.14 
8.54 5.91 -1.59 0.58 
8.81 5.85 -1.62 0.52 
9.56 6.10 -1.74 0.14 
9.68 5.92 -1.74 0.14 
9.80 5.74 -1.74 0.14 
9.91 5.55 -1.74 0.14 
10.01 5.37 -1.74 0.14 
10.12 5.18 -1.74 0.14 
10.22 4.99 -1.74 0.14 
10.31 4.80 -1.74 0.14 
10.41 4.60 -1.74 0.14 
10.50 4.41 -1.74 0.14 
10.58 4.21 -1.74 0.14 
10.66 4.01 -1.74 0.14 
10.74 3.81 -1.74 0.14 
10.81 3.60 -1.74 0.14 
10.88 3.40 -1.74 0.14 
10.95 3.19 -1.74 0.14 
11.01 2.99 -1.75 0.14 
11.07 2.78 -1.75 0.14 
11.12 2.57 -1.75 0.14 
11.17 2.36 -1.75 0.14 
11.21 2.15 -1.75 0.14 
11.25 1.94 -1.75 0.14 
11.29 1.72 -1.75 0.14 
11.32 1.51 -1.75 0.14 
11.35 1.29 -1.75 0.14 
11.37 1.08 -1.75 0.14 
11.39 0.86 -1.75 0.14 
11.41 0.65 -1.75 0.14 
11.42 0.43 -1.75 0.14 
11.43 0.22 -1.75 0.14 
11.43 -0.00 -1.75 0.14 
11.43 -0.22 -1.75 0.14 
11.42 -0.43 -1.75 0.14 
11.41 -0.65 -1.75 0.14 
11.40 -0.86 -1.75 0.14 
11.38 -1.08 -1.75 0.14 
11.36 -1.29 -1.75 0.14 
11.33 -1.51 -1.75 0.14 
11.30 -1.72 -1.75 0.14 
11.26 -1.94 -1.75 0.14 
11.22 -2.15 -1.75 0.14 
11.18 -2.36 -1.75 0.14 
11.13 -2.57 -1.75 0.14 
11.08 -2.78 -1.75 0.14 
11.02 -2.99 -1.75 0.14 
10.96 -3.20 -1.75 0.14 
10.90 -3.40 -1.75 0.14 
10.83 -3.61 -1.75 0.14 
10.75 -3.81 -1.75 0.14 
10.68 -4.01 -1.75 0.14 
10.60 -4.21 -1.74 0.14 
10.51 -4.41 -1.74 0.14 
10.42 -4.61 -1.74 0.14 
10.33 -4.80 -1.74 0.14 
10.24 -5.00 -1.74 0.14 
10.14 -5.19 -1.74 0.14 
10.03 -5.38 -1.74 0.14 
9.93 -5.57 -1.74 0.14 
5.27 -3.08 -0.93 0.52 
5.05 -3.09 -0.91 0.49 
4.85 -3.09 -0.88 0.53 
4.66 -3.10 -0.86 0.54 
4.48 -3.10 -0.83 0.61 
4.33 -3.12 -0.82 0.64 
4.19 -3.14 -0.80 0.68 
4.06 -3.17 -0.79 0.72 
3.94 -3.20 -0.78 0.85 
3.86 -3.25 -0.77 0.91 
3.82 -3.35 -0.78 0.91 
3.78 -3.44 -0.78 0.84 
3.76 -3.55 -0.79 0.78 
3.74 -3.67 -0.80 0.55 
3.75 -3.82 -0.82 0.60 
3.80 -4.02 -0.85 0.46 
7.16 -7.87 -1.63 0.68 
6.88 -7.86 -1.60 0.69 
6.62 -7.86 -1.57 0.59 
6.45 -7.96 -1.57 0.14 
6.30 -8.08 -1.57 0.14 
6.14 -8.19 -1.57 0.14 
5.98 -8.30 -1.57 0.14 
5.82 -8.41 -1.56 0.14 
5.66 -8.51 -1.56 0.14 
5.49 -8.61 -1.56 0.14 
5.32 -8.71 -1.56 0.14 
5.15 -8.80 -1.56 0.14 
4.98 -8.89 -1.56 0.14 
4.81 -8.98 -1.56 0.14 
4.64 -9.06 -1.56 0.14 
4.46 -9.14 -1.56 0.14 
4.29 -9.22 -1.55 0.14 
4.11 -9.29 -1.55 0.14 
3.93 -9.36 -1.55 0.14 
3.75 -9.42 -1.55 0.14 
3.57 -9.49 -1.55 0.14 
3.38 -9.55 -1.55 0.14 
3.20 -9.60 -1.55 0.14 
3.02 -9.65 -1.55 0.14 
2.83 -9.70 -1.55 0.14 
2.64 -9.75 -1.55 0.14 
2.46 -9.79 -1.54 0.14 
2.27 -9.82 -1.54 0.14 
2.08 -9.86 -1.54 0.14 
1.89 -9.89 -1.54 0.14 
1.71 -9.92 -1.54 0.14 
1.52 -9.94 -1.54 0.14 
1.33 -9.96 -1.54 0.14 
1.14 -9.97 -1.54 0.14 
0.95 -9.99 -1.53 0.14 
0.76 -9.99 -1.53 0.14 
0.57 -10.00 -1.53 0.14 
0.38 -10.00 -1.53 0.14 
0.19 -10.00 -1.53 0.14 
-0.00 -9.99 -1.53 0.15 
-0.19 -9.98 -1.53 0.15 
-0.38 -9.97 -1.53 0.15 
-0.57 -9.95 -1.53 0.15 
-0.75 -9.93 -1.52 0.15 
-0.94 -9.91 -1.52 0.15 
-1.13 -9.88 -1.52 0.15 
-1.31 -9.85 -1.52 0.15 
-1.50 -9.82 -1.52 0.15 
-1.68 -9.78 -1.52 0.15 
-1.87 -9.74 -1.52 0.15 
-2.05 -9.70 -1.52 0.15 
-2.23 -9.65 -1.52 0.15 
-2.41 -9.60 -1.51 0.15 
-2.59 -9.54 -1.51 0.15 
-2.77 -9.49 -1.51 0.15 
-2.94 -9.42 -1.51 0.15 
-3.12 -9.36 -1.51 0.15 
-3.29 -9.29 -1.51 0.15 
-3.47 -9.22 -1.51 0.15 
-3.64 -9.15 -1.51 0.15 
-3.81 -9.07 -1.51 0.15 
-3.98 -8.99 -1.50 0.15 
-4.14 -8.91 -1.50 0.15 
-4.31 -8.82 -1.50 0.15 
-4.47 -8.73 -1.50 0.15 
-4.63 -8.64 -1.50 0.15 
-4.79 -8.55 -1.50 0.15 
-4.95 -8.45 -1.50 0.15 
-5.10 -8.35 -1.50 0.15 
-5.26 -8.24 -1.50 0.15 
-5.41 -8.14 -1.50 0.15 
-5.56 -8.03 -1.49 0.15 
-5.71 -7.92 -1.49 0.15 
-5.88 -7.84 -1.50 0.77 
-6.11 -7.84 -1.52 0.76 
-6.35 -7.84 -1.54 0.75 
-6.60 -7.83 -1.57 0.74 
-6.86 -7.83 -1.59 0.73 
-7.12 -7.83 -1.62 0.71 
-7.31 -7.74 -1.63 0.16 
-7.47 -7.61 -1.63 0.16 
-7.61 -7.47 -1.63 0.16 
-7.76 -7.33 -1.63 0.15 
-7.89 -7.18 -1.63 0.15 
-8.02 -7.02 -1.63 0.15 
-8.15 -6.87 -1.63 0.15 
-8.27 -6.71 -1.63 0.15 
-8.39 -6.55 -1.63 0.15 
-8.51 -6.38 -1.63 0.15 
-8.63 -6.22 -1.63 0.15 
-8.74 -6.05 -1.63 0.15 
-8.85 -5.88 -1.63 0.15 
-8.95 -5.71 -1.62 0.15 
-9.06 -5.54 -1.62 0.15 
-9.16 -5.36 -1.62 0.15 
-9.25 -5.19 -1.62 0.15 
-9.35 -5.01 -1.62 0.15 
-9.44 -4.83 -1.62 0.15 
-9.52 -4.65 -1.62 0.15 
-9.60 -4.47 -1.62 0.15 
-9.68 -4.28 -1.62 0.15 
-9.76 -4.10 -1.62 0.15 
-9.83 -3.91 -1.62 0.15 
-9.90 -3.72 -1.62 0.15 
-9.97 -3.53 -1.62 0.15 
-10.03 -3.34 -1.62 0.15 
-10.09 -3.15 -1.62 0.15 
-10.15 -2.96 -1.62 0.15 
-10.20 -2.77 -1.62 0.15 
-10.25 -2.57 -1.62 0.15 
-10.29 -2.38 -1.62 0.15 
-10.33 -2.18 -1.62 0.15 
-10.37 -1.99 -1.62 0.15 
-10.40 -1.79 -1.62 0.15 
-6.64 -1.01 -1.03 0.50 
-6.59 -0.88 -1.02 0.90 
-6.56 -0.75 -1.01 0.91 
-6.53 -0.62 -1.00 0.91 
-6.51 -0.49 -1.00 0.95 
-6.50 -0.37 -1.00 0.96 
-6.49 -0.25 -0.99 0.96 
-6.48 -0.12 -0.99 0.96 
-6.49 -0.00 -1.00 0.96 
-6.50 0.12 -1.00 0.96 
-6.52 0.25 -1.01 0.96 
-6.53 0.37 -1.01 0.92 
-6.57 0.50 -1.02 0.92 
-6.60 0.63 -1.02 0.91 
-6.63 0.76 -1.03 0.90 
-7.08 0.94 -1.10 0.96 
-10.35 1.58 -1.61 0.15 
-10.32 1.77 -1.61 0.15 
-10.28 1.97 -1.61 0.15 
-10.24 2.16 -1.61 0.15 
-10.20 2.36 -1.62 0.15 
-9.58 2.41 -1.52 0.39 
-9.60 2.60 -1.53 0.39 
-8.29 2.42 -1.33 0.27 
-7.75 2.42 -1.25 0.29 
-7.16 2.39 -1.16 0.31 
-6.74 2.39 -1.10 0.33 
-6.49 2.44 -1.07 0.83 
-6.34 2.52 -1.05 0.68 
-6.24 2.62 -1.04 0.95 
-6.21 2.75 -1.05 0.90 
-6.20 2.88 -1.05 0.90 
-6.20 3.03 -1.06 0.87 
-6.20 3.17 -1.07 0.87 
-6.19 3.32 -1.08 0.86 
-6.19 3.47 -1.09 0.83 
-6.20 3.63 -1.11 0.80 
-6.20 3.79 -1.12 0.79 
-6.21 3.96 -1.14 0.78 
-6.21 4.13 -1.15 0.77 
-6.46 4.47 -1.21 0.80 
-8.54 6.16 -1.62 0.15 
-8.43 6.32 -1.62 0.15 
-8.31 6.48 -1.63 0.15 
-7.35 5.96 -1.46 0.64 
-7.09 5.97 -1.43 0.63 
-6.82 5.97 -1.40 0.61 
-6.73 6.12 -1.40 0.66 
-7.68 7.25 -1.63 0.15 
-7.54 7.40 -1.63 0.15 
-7.41 7.55 -1.63 0.15 
-7.27 7.69 -1.63 0.15 
-6.93 7.61 -1.59 0.70 
-6.98 7.97 -1.63 0.15 
-6.83 8.10 -1.63 0.15 
-6.68 8.23 -1.63 0.15 
-6.52 8.36 -1.64 0.15 
-6.37 8.49 -1.64 0.15 
-6.21 8.62 -1.64 0.15 
-6.05 8.74 -1.64 0.15 
-5.89 8.85 -1.64 0.15 
-5.72 8.97 -1.64 0.15 
-5.55 9.08 -1.64 0.15 
-5.38 9.19 -1.64 0.15 
-5.21 9.30 -1.64 0.15 
-5.04 9.40 -1.64 0.15 
-4.86 9.50 -1.65 0.15 
-4.69 9.60 -1.65 0.15 
-4.51 9.69 -1.65 0.15 
-4.32 9.78 -1.65 0.15 
-4.14 9.87 -1.65 0.15 
-3.96 9.95 -1.65 0.15 
-3.77 10.03 -1.65 0.15 
-3.58 10.11 -1.65 0.15 
-3.39 10.18 -1.65 0.15 
-3.20 10.25 -1.66 0.15 
-3.01 10.31 -1.66 0.15 
-2.82 10.38 -1.66 0.15 
-2.62 10.44 -1.66 0.15 
-2.42 10.49 -1.66 0.15 
-2.23 10.54 -1.66 0.15 
-2.03 10.59 -1.66 0.15 
-1.83 10.63 -1.66 0.15 
-1.63 10.67 -1.66 0.16 
-1.43 10.71 -1.67 0.16 
-1.22 10.74 -1.67 0.16 
-1.02 10.76 -1.67 0.16 
-0.82 10.78 -1.67 0.16 
-0.61 10.80 -1.67 0.16 
-0.41 10.82 -1.67 0.16 
-0.20 10.83 -1.67 0.16 
0.00 10.84 -1.67 0.16 
0.21 10.85 -1.67 0.16 
0.41 10.85 -1.67 0.16 
0.62 10.85 -1.68 0.16 
0.82 10.84 -1.68 0.16 
1.03 10.84 -1.68 0.16 
1.23 10.82 -1.68 0.16 
1.44 10.81 -1.68 0.16 
1.65 10.79 -1.68 0.16 
1.85 10.77 -1.68 0.16 
2.06 10.74 -1.69 0.16 
0.75 3.57 -0.56 0.11 
0.78 3.35 -0.53 0.27 
0.81 3.21 -0.51 0.28 
0.84 3.11 -0.50 0.40 
0.89 3.04 -0.49 0.61 
0.93 2.98 -0.48 0.67 
0.99 2.96 -0.48 0.94 
1.04 2.94 -0.48 0.85 
1.11 2.94 -0.48 0.89 
1.17 2.94 -0.49 0.89 
1.23 2.94 -0.49 0.89 
1.30 2.94 -0.50 0.87 
1.37 2.94 -0.50 0.87 
1.43 2.94 -0.50 0.86 
1.50 2.94 -0.51 0.82 
1.58 2.94 -0.51 0.81 
1.65 2.94 -0.52 0.82 
1.73 2.95 -0.53 0.78 
1.81 2.95 -0.53 0.66 
1.90 2.97 -0.54 0.65 
1.99 2.99 -0.55 0.66 
4.85 7.00 -1.31 0.50 
4.85 6.73 -1.28 0.59 
4.87 6.49 -1.25 0.72 
4.91 6.29 -1.23 0.73 
4.95 6.10 -1.21 0.92 
5.02 5.96 -1.20 0.89 
5.14 5.87 -1.20 0.88 
5.32 5.85 -1.22 0.71 
5.52 5.85 -1.24 0.69 
5.74 5.85 -1.26 0.68 
5.96 5.85 -1.29 0.67 
6.20 5.86 -1.32 0.65 
6.45 5.86 -1.34 0.64 
6.70 5.87 -1.37 0.61 
6.97 5.87 -1.41 0.60 
8.71 7.06 -1.73 0.14 
8.85 6.90 -1.73 0.14 
8.98 6.74 -1.73 0.14 
9.11 6.57 -1.73 0.14 
8.55 5.92 -1.60 0.57 
8.81 5.85 -1.63 0.52 
9.49 6.05 -1.74 0.14 
9.60 5.87 -1.74 0.14 
9.72 5.69 -1.74 0.14 
9.83 5.51 -1.74 0.14 
9.93 5.32 -1.74 0.14 
10.04 5.14 -1.74 0.14 
10.13 4.95 -1.74 0.14 
10.23 4.76 -1.74 0.14 
10.32 4.56 -1.74 0.14 
10.41 4.37 -1.74 0.14 
10.49 4.17 -1.74 0.14 
10.57 3.98 -1.74 0.14 
10.65 3.78 -1.74 0.14 
10.72 3.57 -1.74 0.14 
10.79 3.37 -1.74 0.14 
10.86 3.17 -1.74 0.14 
10.92 2.96 -1.74 0.14 
10.97 2.76 -1.75 0.14 
11.03 2.55 -1.75 0.14 
11.08 2.34 -1.75 0.14 
11.12 2.13 -1.75 0.14 
11.16 1.92 -1.75 0.14 
11.20 1.71 -1.75 0.14 
11.23 1.50 -1.75 0.14 
11.26 1.28 -1.75 0.14 
11.28 1.07 -1.75 0.14 
11.30 0.86 -1.75 0.14 
11.31 0.64 -1.75 0.14 
11.33 0.43 -1.75 0.14 
11.33 0.21 -1.75 0.14 
11.34 -0.00 -1.75 0.14 
11.33 -0.21 -1.75 0.14 
11.33 -0.43 -1.75 0.14 
11.32 -0.64 -1.75 0.14 
11.30 -0.86 -1.75 0.14 
11.28 -1.07 -1.75 0.14 
11.26 -1.28 -1.75 0.14 
11.23 -1.50 -1.75 0.14 
11.20 -1.71 -1.75 0.14 
11.17 -1.92 -1.75 0.14 
11.13 -2.13 -1.75 0.14 
11.08 -2.34 -1.75 0.14 
11.04 -2.55 -1.75 0.14 
10.99 -2.76 -1.75 0.14 
10.93 -2.97 -1.75 0.14 
10.87 -3.17 -1.75 0.14 
10.81 -3.38 -1.75 0.14 
10.74 -3.58 -1.75 0.14 
10.67 -3.78 -1.75 0.14 
10.59 -3.98 -1.74 0.14 
10.51 -4.18 -1.74 0.14 
10.43 -4.38 -1.74 0.14 
10.34 -4.57 -1.74 0.14 
10.25 -4.77 -1.74 0.14 
10.15 -4.96 -1.74 0.14 
10.05 -5.15 -1.74 0.14 
9.95 -5.33 -1.74 0.14 
9.84 -5.52 -1.74 0.14 
5.26 -3.08 -0.94 0.52 
5.05 -3.09 -0.91 0.49 
4.85 -3.09 -0.89 0.56 
4.66 -3.10 -0.86 0.54 
4.48 -3.10 -0.84 0.61 
4.32 -3.12 -0.82 0.64 
4.19 -3.14 -0.81 0.68 
4.06 -3.17 -0.79 0.72 
3.94 -3.20 -0.78 0.85 
3.86 -3.25 -0.78 0.91 
3.82 -3.34 -0.78 0.91 
3.78 -3.44 -0.79 0.84 
3.76 -3.55 -0.80 0.78 
3.73 -3.66 -0.81 0.71 
3.74 -3.81 -0.82 0.60 
3.80 -4.02 -0.85 0.46 
7.16 -7.87 -1.64 0.68 
6.88 -7.86 -1.61 0.69 
6.61 -7.85 -1.58 0.70 
6.40 -7.90 -1.57 0.14 
6.25 -8.01 -1.57 0.14 
6.09 -8.12 -1.57 0.14 
5.93 -8.23 -1.56 0.14 
5.77 -8.34 -1.56 0.14 
5.61 -8.44 -1.56 0.14 
5.45 -8.54 -1.56 0.14 
5.28 -8.64 -1.56 0.14 
5.11 -8.73 -1.56 0.14 
4.94 -8.82 -1.56 0.14 
4.77 -8.90 -1.56 0.14 
4.60 -8.99 -1.56 0.14 
4.43 -9.07 -1.56 0.14 
4.25 -9.14 -1.55 0.14 
4.07 -9.21 -1.55 0.14 
3.90 -9.28 -1.55 0.14 
3.72 -9.35 -1.55 0.14 
3.54 -9.41 -1.55 0.14 
3.36 -9.47 -1.55 0.14 
3.17 -9.52 -1.55 0.14 
2.99 -9.58 -1.55 0.14 
2.81 -9.62 -1.55 0.14 
2.62 -9.67 -1.54 0.14 
2.44 -9.71 -1.54 0.14 
2.25 -9.75 -1.54 0.14 
2.07 -9.78 -1.54 0.14 
1.88 -9.81 -1.54 0.15 
1.69 -9.84 -1.54 0.15 
1.50 -9.86 -1.54 0.15 
1.32 -9.88 -1.54 0.15 
1.13 -9.89 -1.54 0.15 
0.94 -9.91 -1.53 0.15 
0.75 -9.91 -1.53 0.15 
0.56 -9.92 -1.53 0.15 
0.38 -9.92 -1.53 0.15 
0.19 -9.92 -1.53 0.15 
-0.00 -9.91 -1.53 0.15 
-0.19 -9.90 -1.53 0.15 
-0.37 -9.89 -1.53 0.15 
-0.56 -9.88 -1.53 0.15 
-0.75 -9.86 -1.52 0.15 
-0.93 -9.83 -1.52 0.15 
-1.12 -9.81 -1.52 0.15 
-1.30 -9.77 -1.52 0.15 
-1.49 -9.74 -1.52 0.15 
-1.67 -9.70 -1.52 0.15 
-1.85 -9.66 -1.52 0.15 
-2.03 -9.62 -1.52 0.15 
-2.21 -9.57 -1.52 0.15 
-2.39 -9.52 -1.51 0.15 
-2.57 -9.47 -1.51 0.15 
-2.75 -9.41 -1.51 0.15 
-2.92 -9.35 -1.51 0.15 
-3.10 -9.29 -1.51 0.15 
-3.27 -9.22 -1.51 0.15 
-3.44 -9.15 -1.51 0.15 
-3.61 -9.08 -1.51 0.15 
-3.78 -9.00 -1.51 0.15 
-3.94 -8.92 -1.50 0.15 
-4.11 -8.84 -1.50 0.15 
-4.27 -8.75 -1.50 0.15 
-4.44 -8.66 -1.50 0.15 
-4.60 -8.57 -1.50 0.15 
-4.75 -8.48 -1.50 0.15 
-4.91 -8.38 -1.50 0.15 
-5.06 -8.28 -1.50 0.15 
-5.22 -8.18 -1.50 0.15 
-5.37 -8.07 -1.50 0.15 
-5.52 -7.97 -1.49 0.15 
-5.66 -7.86 -1.49 0.15 
-5.88 -7.84 -1.51 0.77 
-6.11 -7.84 -1.53 0.76 
-6.35 -7.83 -1.56 0.75 
-6.60 -7.83 -1.58 0.74 
-6.85 -7.83 -1.60 0.73 
-7.11 -7.82 -1.63 0.16 
-7.26 -7.69 -1.63 0.16 
-7.41 -7.55 -1.63 0.16 
-7.56 -7.42 -1.63 0.16 
-7.70 -7.27 -1.63 0.15 
-7.83 -7.12 -1.63 0.15 
-7.96 -6.97 -1.63 0.15 
-8.09 -6.81 -1.63 0.15 
-8.21 -6.66 -1.63 0.15 
-8.33 -6.50 -1.63 0.15 
-8.45 -6.33 -1.63 0.15 
-8.56 -6.17 -1.63 0.15 
-8.67 -6.01 -1.63 0.15 
-8.78 -5.84 -1.63 0.15 
-8.89 -5.67 -1.63 0.15 
-8.99 -5.50 -1.62 0.15 
-9.09 -5.32 -1.62 0.15 
-9.18 -5.15 -1.62 0.15 
-9.27 -4.97 -1.62 0.15 
-9.36 -4.79 -1.62 0.15 
-9.45 -4.61 -1.62 0.15 
-9.53 -4.43 -1.62 0.15 
-9.61 -4.25 -1.62 0.15 
-9.69 -4.07 -1.62 0.15 
-9.76 -3.88 -1.62 0.15 
-9.83 -3.69 -1.62 0.15 
-9.89 -3.51 -1.62 0.15 
-9.95 -3.32 -1.62 0.15 
-10.01 -3.13 -1.62 0.15 
-10.07 -2.94 -1.62 0.15 
-10.12 -2.75 -1.62 0.15 
-10.17 -2.55 -1.62 0.15 
-10.21 -2.36 -1.62 0.15 
-10.25 -2.17 -1.62 0.15 
-10.29 -1.97 -1.62 0.15 
-10.32 -1.78 -1.62 0.15 
-6.64 -1.01 -1.04 0.50 
-6.59 -0.88 -1.03 0.90 
-6.56 -0.75 -1.02 0.91 
-6.53 -0.62 -1.01 0.91 
-6.51 -0.49 -1.01 0.95 
-6.50 -0.37 -1.00 0.96 
-6.49 -0.25 -1.00 0.96 
-6.48 -0.12 -1.00 0.96 
-6.49 -0.00 -1.01 0.96 
-1.33 0.03 -0.21 0.16 
-1.33 0.05 -0.21 0.16 
-1.33 0.08 -0.21 0.16 
-1.33 0.10 -0.21 0.16 
-1.33 0.13 -0.21 0.16 
-1.33 0.15 -0.21 0.16 
-7.08 0.94 -1.11 0.96 
-10.27 1.57 -1.61 0.15 
-10.24 1.76 -1.62 0.15 
-10.20 1.95 -1.62 0.15 
-10.17 2.15 -1.62 0.15 
-10.13 2.34 -1.62 0.15 
-1.33 0.33 -0.21 0.15 
-1.33 0.36 -0.21 0.15 
-1.33 0.39 -0.21 0.15 
-1.32 0.41 -0.22 0.15 
-1.32 0.44 -0.22 0.13 
-6.74 2.39 -1.11 0.33 
-6.49 2.44 -1.08 0.83 
-6.34 2.52 -1.06 0.68 
-6.24 2.62 -1.05 0.95 
-6.21 2.74 -1.06 0.90 
-6.20 2.88 -1.06 0.90 
-6.20 3.03 -1.07 0.87 
-6.20 3.17 -1.08 0.87 
-6.19 3.32 -1.09 0.86 
-6.19 3.47 -1.10 0.81 
-6.20 3.63 -1.12 0.80 
-6.20 3.79 -1.13 0.79 
-6.21 3.96 -1.14 0.78 
-6.21 4.13 -1.16 0.77 
-6.46 4.47 -1.22 0.80 
-8.48 6.11 -1.62 0.15 
-8.36 6.27 -1.63 0.15 
-8.25 6.43 -1.63 0.15 
-7.35 5.96 -1.47 0.64 
-7.09 5.97 -1.44 0.63 
-6.82 5.97 -1.41 0.61 
-6.74 6.13 -1.42 0.50 
-7.62 7.20 -1.63 0.15 
-7.49 7.35 -1.63 0.15 
-7.35 7.49 -1.63 0.15 
-7.21 7.63 -1.63 0.15 
-7.07 7.77 -1.63 0.15 
-6.92 7.91 -1.63 0.15 
-6.78 8.04 -1.63 0.15 
-6.63 8.17 -1.64 0.15 
-6.47 8.30 -1.64 0.15 
-6.32 8.43 -1.64 0.15 
-6.16 8.55 -1.64 0.15 
-6.00 8.67 -1.64 0.15 
-5.84 8.79 -1.64 0.15 
-5.68 8.90 -1.64 0.15 
-5.51 9.01 -1.64 0.15 
-5.34 9.12 -1.64 0.15 
-5.17 9.23 -1.64 0.15 
-5.00 9.33 -1.64 0.15 
-4.83 9.43 -1.65 0.15 
-4.65 9.52 -1.65 0.15 
-4.47 9.61 -1.65 0.15 
-4.29 9.70 -1.65 0.15 
-4.11 9.79 -1.65 0.15 
-3.93 9.87 -1.65 0.15 
-3.74 9.95 -1.65 0.15 
-3.55 10.03 -1.65 0.15 
-3.37 10.10 -1.65 0.15 
-3.18 10.17 -1.66 0.15 
-2.99 10.23 -1.66 0.15 
-2.79 10.30 -1.66 0.15 
-2.60 10.35 -1.66 0.15 
-2.41 10.41 -1.66 0.15 
-2.21 10.46 -1.66 0.15 
-2.01 10.51 -1.66 0.15 
-1.81 10.55 -1.66 0.15 
-1.62 10.59 -1.67 0.15 
-1.42 10.63 -1.67 0.15 
-1.22 10.66 -1.67 0.16 
-1.01 10.69 -1.67 0.16 
-0.81 10.71 -1.67 0.16 
-0.61 10.73 -1.67 0.16 
-0.41 10.74 -1.67 0.16 
-0.20 10.76 -1.67 0.16 
-0.00 10.77 -1.67 0.16 
0.20 10.77 -1.67 0.16 
0.41 10.77 -1.68 0.16 
0.61 10.77 -1.68 0.16 
0.82 10.77 -1.68 0.16 
1.02 10.76 -1.68 0.16 
1.23 10.75 -1.68 0.16 
1.43 10.73 -1.68 0.16 
1.63 10.71 -1.68 0.16 
1.84 10.69 -1.69 0.16 
2.04 10.66 -1.69 0.16 
0.75 3.55 -0.56 0.22 
0.77 3.34 -0.53 0.29 
0.80 3.20 -0.51 0.39 
0.84 3.11 -0.50 0.40 
0.88 3.03 -0.49 0.61 
0.93 2.98 -0.49 0.67 
0.99 2.96 -0.48 0.94 
1.04 2.94 -0.48 0.85 
1.11 2.94 -0.49 0.89 
1.17 2.94 -0.49 0.89 
1.23 2.94 -0.50 0.89 
1.30 2.94 -0.50 0.87 
1.37 2.94 -0.50 0.87 
1.43 2.93 -0.51 0.86 
1.50 2.94 -0.51 0.82 
1.58 2.94 -0.52 0.82 
1.65 2.94 -0.52 0.81 
1.73 2.95 -0.53 0.78 
1.81 2.95 -0.54 0.77 
1.89 2.97 -0.55 0.65 
1.99 2.99 -0.56 0.66 
4.85 7.00 -1.32 0.50 
4.85 6.73 -1.29 0.59 
4.87 6.49 -1.26 0.72 
4.91 6.29 -1.24 0.73 
4.95 6.10 -1.22 0.92 
5.02 5.96 -1.21 0.89 
5.14 5.86 -1.21 0.88 
5.32 5.85 -1.23 0.71 
5.52 5.85 -1.25 0.69 
5.74 5.85 -1.27 0.68 
5.96 5.85 -1.30 0.67 
6.20 5.86 -1.33 0.65 
6.44 5.86 -1.35 0.64 
6.70 5.87 -1.38 0.61 
6.97 5.87 -1.42 0.60 
8.64 7.01 -1.73 0.14 
8.78 6.85 -1.73 0.14 
8.91 6.68 -1.73 0.14 
9.04 6.52 -1.73 0.14 
8.56 5.93 -1.62 0.32 
8.81 5.85 -1.64 0.52 
9.41 6.00 -1.73 0.14 
9.52 5.82 -1.74 0.14 
9.64 5.65 -1.74 0.14 
9.75 5.46 -1.74 0.14 
9.85 5.28 -1.74 0.14 
9.95 5.10 -1.74 0.14 
10.05 4.91 -1.74 0.14 
10.15 4.72 -1.74 0.14 
10.24 4.53 -1.74 0.14 
10.33 4.33 -1.74 0.14 
10.41 4.14 -1.74 0.14 
10.49 3.94 -1.74 0.14 
10.56 3.74 -1.74 0.14 
10.64 3.55 -1.74 0.14 
10.70 3.34 -1.74 0.14 
10.77 3.14 -1.74 0.14 
10.83 2.94 -1.74 0.14 
10.89 2.73 -1.74 0.14 
10.94 2.53 -1.74 0.14 
10.99 2.32 -1.75 0.14 
11.03 2.11 -1.75 0.14 
11.07 1.90 -1.75 0.14 
11.11 1.69 -1.75 0.14 
11.14 1.48 -1.75 0.14 
11.16 1.27 -1.75 0.14 
11.19 1.06 -1.75 0.14 
11.21 0.85 -1.75 0.14 
11.22 0.64 -1.75 0.14 
11.23 0.43 -1.75 0.14 
11.24 0.21 -1.75 0.14 
11.24 -0.00 -1.75 0.14 
11.24 -0.21 -1.75 0.14 
11.23 -0.43 -1.75 0.14 
11.22 -0.64 -1.75 0.14 
11.21 -0.85 -1.75 0.14 
11.19 -1.06 -1.75 0.14 
11.17 -1.27 -1.75 0.14 
11.14 -1.48 -1.75 0.14 
11.11 -1.70 -1.75 0.14 
11.08 -1.91 -1.75 0.14 
11.04 -2.11 -1.75 0.14 
10.99 -2.32 -1.75 0.14 
10.95 -2.53 -1.75 0.14 
10.90 -2.74 -1.75 0.14 
10.84 -2.94 -1.75 0.14 
10.78 -3.15 -1.75 0.14 
10.72 -3.35 -1.75 0.14 
10.65 -3.55 -1.74 0.14 
10.58 -3.75 -1.74 0.14 
10.50 -3.95 -1.74 0.14 
10.42 -4.15 -1.74 0.14 
10.34 -4.34 -1.74 0.14 
10.25 -4.53 -1.74 0.14 
10.16 -4.73 -1.74 0.14 
10.07 -4.92 -1.74 0.14 
9.97 -5.10 -1.74 0.14 
9.87 -5.29 -1.74 0.14 
9.76 -5.47 -1.74 0.14 
5.26 -3.08 -0.95 0.52 
5.05 -3.09 -0.92 0.49 
4.85 -3.09 -0.89 0.56 
4.66 -3.09 -0.87 0.54 
4.48 -3.10 -0.85 0.61 
4.32 -3.11 -0.83 0.63 
4.18 -3.14 -0.81 0.68 
4.06 -3.16 -0.80 0.73 
3.94 -3.19 -0.79 0.85 
3.85 -3.25 -0.78 0.91 
3.82 -3.34 -0.79 0.91 
3.78 -3.44 -0.79 0.84 
3.76 -3.55 -0.80 0.78 
3.73 -3.66 -0.81 0.71 
3.74 -3.81 -0.83 0.60 
3.79 -4.01 -0.86 0.46 
7.16 -7.87 -1.65 0.68 
6.88 -7.86 -1.62 0.69 
6.61 -7.85 -1.60 0.70 
6.36 -7.84 -1.57 0.60 
6.20 -7.95 -1.57 0.14 
6.04 -8.06 -1.57 0.14 
5.89 -8.17 -1.56 0.14 
5.73 -8.27 -1.56 0.14 
5.57 -8.37 -1.56 0.14 
5.40 -8.47 -1.56 0.14 
5.24 -8.57 -1.56 0.14 
5.07 -8.66 -1.56 0.14 
4.90 -8.75 -1.56 0.14 
4.73 -8.83 -1.56 0.14 
4.56 -8.91 -1.56 0.14 
4.39 -8.99 -1.56 0.14 
4.22 -9.07 -1.55 0.14 
4.04 -9.14 -1.55 0.14 
3.87 -9.21 -1.55 0.15 
3.69 -9.27 -1.55 0.15 
3.51 -9.34 -1.55 0.15 
3.33 -9.39 -1.55 0.15 
3.15 -9.45 -1.55 0.15 
2.97 -9.50 -1.55 0.15 
2.79 -9.55 -1.55 0.15 
2.60 -9.59 -1.54 0.15 
2.42 -9.63 -1.54 0.15 
2.23 -9.67 -1.54 0.15 
2.05 -9.70 -1.54 0.15 
1.86 -9.73 -1.54 0.15 
1.68 -9.76 -1.54 0.15 
1.49 -9.78 -1.54 0.15 
1.31 -9.80 -1.54 0.15 
1.12 -9.82 -1.54 0.15 
0.93 -9.83 -1.53 0.15 
0.75 -9.84 -1.53 0.15 
0.56 -9.84 -1.53 0.15 
0.37 -9.84 -1.53 0.15 
0.19 -9.84 -1.53 0.15 
-0.00 -9.84 -1.53 0.15 
-0.19 -9.83 -1.53 0.15 
-0.37 -9.81 -1.53 0.15 
-0.56 -9.80 -1.53 0.15 
-0.74 -9.78 -1.52 0.15 
-0.93 -9.75 -1.52 0.15 
-1.11 -9.73 -1.52 0.15 
-1.29 -9.70 -1.52 0.15 
-1.47 -9.66 -1.52 0.15 
-1.66 -9.63 -1.52 0.15 
-1.84 -9.59 -1.52 0.15 
-2.02 -9.54 -1.52 0.15 
-2.19 -9.50 -1.52 0.15 
-2.37 -9.45 -1.51 0.15 
-2.55 -9.39 -1.51 0.15 
-2.72 -9.34 -1.51 0.15 
-2.90 -9.28 -1.51 0.15 
-3.07 -9.21 -1.51 0.15 
-3.24 -9.15 -1.51 0.15 
-3.41 -9.08 -1.51 0.15 
-3.58 -9.01 -1.51 0.15 
-3.75 -8.93 -1.51 0.15 
-3.91 -8.85 -1.50 0.15 
-4.08 -8.77 -1.50 0.15 
-4.24 -8.69 -1.50 0.15 
-4.40 -8.60 -1.50 0.15 
-4.56 -8.51 -1.50 0.15 
-4.72 -8.41 -1.50 0.15 
-4.87 -8.32 -1.50 0.15 
-5.03 -8.22 -1.50 0.15 
-5.18 -8.12 -1.50 0.15 
-5.33 -8.01 -1.50 0.15 
-5.47 -7.91 -1.49 0.15 
-5.65 -7.84 -1.50 0.78 
-5.88 -7.84 -1.52 0.77 
-6.11 -7.84 -1.54 0.76 
-6.35 -7.83 -1.57 0.75 
-6.60 -7.83 -1.59 0.74 
-6.85 -7.82 -1.62 0.73 
-7.06 -7.76 -1.63 0.16 
-7.21 -7.63 -1.63 0.16 
-7.36 -7.50 -1.63 0.16 
-7.50 -7.36 -1.63 0.15 
-7.64 -7.22 -1.63 0.15 
-7.77 -7.07 -1.63 0.15 
-7.90 -6.92 -1.63 0.15 
-8.02 -6.76 -1.63 0.15 
-8.15 -6.61 -1.63 0.15 
-8.27 -6.45 -1.63 0.15 
-8.38 -6.29 -1.63 0.15 
-8.50 -6.12 -1.63 0.15 
-8.61 -5.96 -1.63 0.15 
-8.71 -5.79 -1.63 0.15 
-8.82 -5.62 -1.63 0.15 
-8.92 -5.45 -1.63 0.15 
-9.02 -5.28 -1.62 0.15 
-9.11 -5.11 -1.62 0.15 
-9.20 -4.93 -1.62 0.15 
-9.29 -4.76 -1.62 0.15 
-9.38 -4.58 -1.62 0.15 
-9.46 -4.40 -1.62 0.15 
-9.54 -4.22 -1.62 0.15 
-9.61 -4.03 -1.62 0.15 
-9.68 -3.85 -1.62 0.15 
-9.75 -3.67 -1.62 0.15 
-9.82 -3.48 -1.62 0.15 
-9.88 -3.29 -1.62 0.15 
-9.94 -3.10 -1.62 0.15 
-9.99 -2.91 -1.62 0.15 
-10.04 -2.72 -1.62 0.15 
-10.09 -2.53 -1.62 0.15 
-10.13 -2.34 -1.62 0.15 
-10.17 -2.15 -1.62 0.15 
-10.21 -1.96 -1.62 0.15 
-10.25 -1.76 -1.62 0.15 
-6.64 -1.01 -1.04 0.50 
-6.59 -0.88 -1.03 0.90 
-6.56 -0.75 -1.03 0.91 
-6.53 -0.62 -1.02 0.91 
-6.51 -0.49 -1.02 0.95 
-6.50 -0.37 -1.01 0.96 
-6.49 -0.25 -1.01 0.96 
-6.48 -0.12 -1.01 0.96 
-1.33 -0.00 -0.21 0.16 
-1.32 0.03 -0.21 0.16 
-1.32 0.05 -0.21 0.16 
-1.32 0.07 -0.21 0.16 
-1.32 0.10 -0.21 0.16 
-1.32 0.13 -0.21 0.16 
-1.32 0.15 -0.21 0.16 
-1.32 0.18 -0.21 0.16 
-1.32 0.20 -0.21 0.16 
-1.32 0.23 -0.21 0.16 
-1.32 0.25 -0.21 0.16 
-1.32 0.28 -0.21 0.16 
-1.32 0.31 -0.21 0.16 
-1.32 0.33 -0.21 0.16 
-1.32 0.36 -0.21 0.16 
-1.32 0.38 -0.21 0.15 
-1.31 0.41 -0.22 0.15 
-1.31 0.44 -0.22 0.13 
-6.74 2.39 -1.12 0.33 
-6.48 2.44 -1.09 0.83 
-6.34 2.52 -1.07 0.68 
-6.24 2.62 -1.06 0.95 
-6.21 2.74 -1.06 0.90 
-6.20 2.88 -1.07 0.90 
-6.20 3.03 -1.08 0.87 
-6.19 3.17 -1.09 0.87 
-6.19 3.32 -1.10 0.83 
-6.19 3.47 -1.11 0.81 
-6.20 3.63 -1.13 0.80 
-6.20 3.79 -1.14 0.79 
-6.21 3.96 -1.15 0.78 
-6.22 4.13 -1.17 0.77 
-6.46 4.47 -1.23 0.80 
-8.41 6.06 -1.62 0.15 
-8.30 6.23 -1.63 0.15 
-8.19 6.38 -1.63 0.15 
-7.35 5.96 -1.48 0.63 
-7.09 5.97 -1.45 0.63 
-6.82 5.97 -1.42 0.61 
-6.75 6.14 -1.43 0.49 
-7.56 7.14 -1.63 0.15 
-7.43 7.29 -1.63 0.15 
-7.29 7.43 -1.63 0.15 
-7.15 7.57 -1.63 0.15 
-7.01 7.71 -1.63 0.15 
-6.87 7.85 -1.63 0.15 
-6.72 7.98 -1.63 0.15 
-6.58 8.11 -1.64 0.15 
-6.42 8.24 -1.64 0.15 
-6.27 8.36 -1.64 0.15 
-6.11 8.48 -1.64 0.15 
-5.96 8.60 -1.64 0.15 
-5.80 8.72 -1.64 0.15 
-5.63 8.83 -1.64 0.15 
-5.47 8.94 -1.64 0.15 
-5.30 9.05 -1.64 0.15 
-5.13 9.15 -1.64 0.15 
-4.96 9.26 -1.65 0.15 
-4.79 9.35 -1.65 0.15 
-4.61 9.45 -1.65 0.15 
-4.44 9.54 -1.65 0.15 
-4.26 9.63 -1.65 0.15 
-4.08 9.71 -1.65 0.15 
-3.90 9.80 -1.65 0.15 
-3.71 9.87 -1.65 0.15 
-3.53 9.95 -1.65 0.15 
-3.34 10.02 -1.65 0.15 
-3.15 10.09 -1.66 0.15 
-2.96 10.15 -1.66 0.15 
-2.77 10.22 -1.66 0.15 
-2.58 10.27 -1.66 0.15 
-2.39 10.33 -1.66 0.15 
-2.19 10.38 -1.66 0.15 
-2.00 10.43 -1.66 0.15 
-1.80 10.47 -1.66 0.15 
-1.60 10.51 -1.67 0.15 
-1.41 10.55 -1.67 0.15 
-1.21 10.58 -1.67 0.15 
-1.01 10.61 -1.67 0.15 
-0.81 10.63 -1.67 0.15 
-0.61 10.65 -1.67 0.15 
-0.40 10.67 -1.67 0.16 
-0.20 10.68 -1.67 0.16 
-0.00 10.69 -1.67 0.16 
0.20 10.70 -1.68 0.16 
0.41 10.70 -1.68 0.16 
0.61 10.70 -1.68 0.16 
0.81 10.69 -1.68 0.16 
1.01 10.68 -1.68 0.16 
1.22 10.67 -1.68 0.16 
1.42 10.66 -1.68 0.15 
1.62 10.63 -1.69 0.15 
1.82 10.61 -1.69 0.15 
2.03 10.58 -1.69 0.15 
0.75 3.54 -0.57 0.22 
0.77 3.33 -0.54 0.29 
0.80 3.19 -0.52 0.39 
0.84 3.10 -0.50 0.40 
0.88 3.03 -0.49 0.62 
0.93 2.98 -0.49 0.67 
0.99 2.96 -0.49 0.74 
1.04 2.93 -0.49 0.85 
1.11 2.94 -0.49 0.89 
1.17 2.94 -0.50 0.89 
1.23 2.94 -0.50 0.89 
1.30 2.93 -0.50 0.87 
1.36 2.93 -0.51 0.87 
1.43 2.93 -0.51 0.86 
1.50 2.93 -0.52 0.82 
1.57 2.94 -0.52 0.82 
1.65 2.94 -0.53 0.81 
1.72 2.94 -0.53 0.78 
1.80 2.95 -0.54 0.77 
1.89 2.97 -0.55 0.65 
1.98 2.98 -0.56 0.67 
4.85 7.00 -1.33 0.50 
4.85 6.73 -1.30 0.59 
4.87 6.49 -1.27 0.72 
4.91 6.29 -1.25 0.73 
4.95 6.10 -1.23 0.92 
5.02 5.96 -1.22 0.89 
5.13 5.86 -1.22 0.88 
5.32 5.85 -1.24 0.71 
5.52 5.85 -1.26 0.69 
5.74 5.85 -1.28 0.68 
5.96 5.85 -1.31 0.67 
6.20 5.86 -1.34 0.65 
6.44 5.86 -1.36 0.64 
6.70 5.86 -1.39 0.61 
8.44 7.11 -1.73 0.14 
8.57 6.95 -1.73 0.14 
8.71 6.79 -1.73 0.14 
8.84 6.63 -1.73 0.14 
8.97 6.46 -1.73 0.14 
8.59 5.95 -1.64 0.32 
8.81 5.85 -1.66 0.52 
9.33 5.95 -1.73 0.14 
9.45 5.78 -1.73 0.14 
9.56 5.60 -1.74 0.14 
9.67 5.42 -1.74 0.14 
9.77 5.24 -1.74 0.14 
9.87 5.05 -1.74 0.14 
9.97 4.87 -1.74 0.14 
10.06 4.68 -1.74 0.14 
10.15 4.49 -1.74 0.14 
10.24 4.30 -1.74 0.14 
10.32 4.11 -1.74 0.14 
10.40 3.91 -1.74 0.14 
10.48 3.71 -1.74 0.14 
10.55 3.52 -1.74 0.14 
10.62 3.32 -1.74 0.14 
10.68 3.12 -1.74 0.14 
10.74 2.91 -1.74 0.14 
10.80 2.71 -1.74 0.14 
10.85 2.51 -1.74 0.14 
10.90 2.30 -1.74 0.14 
10.94 2.10 -1.75 0.14 
10.98 1.89 -1.75 0.14 
11.01 1.68 -1.75 0.14 
11.05 1.47 -1.75 0.14 
11.07 1.26 -1.75 0.14 
11.10 1.05 -1.75 0.14 
11.12 0.84 -1.75 0.14 
11.13 0.63 -1.75 0.14 
11.14 0.42 -1.75 0.14 
11.15 0.21 -1.75 0.14 
11.15 -0.00 -1.75 0.14 
11.15 -0.21 -1.75 0.14 
11.14 -0.42 -1.75 0.14 
11.13 -0.63 -1.75 0.14 
11.12 -0.84 -1.75 0.14 
11.10 -1.05 -1.75 0.14 
11.08 -1.26 -1.75 0.14 
11.05 -1.47 -1.75 0.14 
11.02 -1.68 -1.75 0.14 
10.99 -1.89 -1.75 0.14 
10.95 -2.10 -1.75 0.14 
10.90 -2.30 -1.75 0.14 
10.86 -2.51 -1.75 0.14 
10.81 -2.71 -1.75 0.14 
10.75 -2.92 -1.75 0.14 
10.69 -3.12 -1.75 0.14 
10.63 -3.32 -1.74 0.14 
10.56 -3.52 -1.74 0.14 
10.49 -3.72 -1.74 0.14 
10.42 -3.92 -1.74 0.14 
10.34 -4.11 -1.74 0.14 
10.26 -4.31 -1.74 0.14 
10.17 -4.50 -1.74 0.14 
10.08 -4.69 -1.74 0.14 
9.99 -4.88 -1.74 0.14 
9.89 -5.06 -1.74 0.14 
9.79 -5.25 -1.74 0.14 
9.68 -5.43 -1.74 0.14 
5.26 -3.08 -0.95 0.52 
5.04 -3.08 -0.93 0.49 
4.85 -3.09 -0.90 0.56 
4.65 -3.09 -0.88 0.54 
4.48 -3.10 -0.85 0.61 
4.32 -3.11 -0.83 0.63 
4.18 -3.14 -0.82 0.68 
4.05 -3.16 -0.81 0.73 
3.94 -3.19 -0.79 0.85 
3.85 -3.25 -0.79 0.91 
3.81 -3.34 -0.79 0.91 
3.78 -3.43 -0.80 0.84 
3.75 -3.55 -0.81 0.73 
3.73 -3.66 -0.82 0.71 
3.73 -3.80 -0.83 0.60 
3.79 -4.01 -0.86 0.46 
7.16 -7.87 -1.67 0.68 
6.88 -7.86 -1.64 0.69 
6.61 -7.84 -1.61 0.70 
6.35 -7.83 -1.58 0.71 
6.15 -7.88 -1.57 0.14 
5.99 -7.99 -1.57 0.14 
5.84 -8.10 -1.56 0.15 
5.68 -8.20 -1.56 0.15 
5.52 -8.30 -1.56 0.15 
5.36 -8.40 -1.56 0.15 
5.20 -8.50 -1.56 0.15 
5.03 -8.59 -1.56 0.15 
4.86 -8.68 -1.56 0.15 
4.70 -8.76 -1.56 0.15 
4.53 -8.84 -1.56 0.15 
4.36 -8.92 -1.56 0.15 
4.18 -9.00 -1.55 0.15 
4.01 -9.07 -1.55 0.15 
3.83 -9.14 -1.55 0.15 
3.66 -9.20 -1.55 0.15 
3.48 -9.26 -1.55 0.15 
3.30 -9.32 -1.55 0.15 
3.12 -9.37 -1.55 0.15 
2.94 -9.42 -1.55 0.15 
2.76 -9.47 -1.55 0.15 
2.58 -9.52 -1.54 0.15 
2.40 -9.56 -1.54 0.15 
2.22 -9.59 -1.54 0.15 
2.03 -9.63 -1.54 0.15 
1.85 -9.66 -1.54 0.15 
1.67 -9.68 -1.54 0.15 
1.48 -9.70 -1.54 0.15 
1.30 -9.72 -1.54 0.15 
1.11 -9.74 -1.54 0.15 
0.93 -9.75 -1.53 0.15 
0.74 -9.76 -1.53 0.15 
0.56 -9.76 -1.53 0.15 
0.37 -9.77 -1.53 0.15 
0.18 -9.76 -1.53 0.15 
-0.00 -9.76 -1.53 0.15 
-0.18 -9.75 -1.53 0.15 
-0.37 -9.74 -1.53 0.15 
-0.55 -9.72 -1.53 0.15 
-0.74 -9.70 -1.52 0.15 
-0.92 -9.68 -1.52 0.15 
-1.10 -9.65 -1.52 0.15 
-1.28 -9.62 -1.52 0.15 
-1.46 -9.59 -1.52 0.15 
-1.64 -9.55 -1.52 0.15 
-1.82 -9.51 -1.52 0.15 
-2.00 -9.47 -1.52 0.15 
-2.18 -9.42 -1.52 0.15 
-2.35 -9.37 -1.51 0.15 
-2.53 -9.32 -1.51 0.15 
-2.70 -9.27 -1.51 0.15 
-2.88 -9.21 -1.51 0.15 
-3.05 -9.14 -1.51 0.15 
-3.22 -9.08 -1.51 0.15 
-3.39 -9.01 -1.51 0.15 
-3.55 -8.94 -1.51 0.15 
-3.72 -8.86 -1.51 0.15 
-3.88 -8.78 -1.50 0.15 
-4.05 -8.70 -1.50 0.15 
-4.21 -8.62 -1.50 0.15 
-4.37 -8.53 -1.50 0.15 
-4.53 -8.44 -1.50 0.15 
-4.68 -8.35 -1.50 0.15 
-4.84 -8.25 -1.50 0.15 
-4.99 -8.16 -1.50 0.15 
-5.14 -8.05 -1.50 0.15 
-5.29 -7.95 -1.50 0.15 
-5.43 -7.85 -1.50 0.66 
-5.65 -7.84 -1.51 0.78 
-5.88 -7.84 -1.53 0.77 
-6.11 -7.83 -1.56 0.76 
-6.35 -7.83 -1.58 0.75 
-6.60 -7.83 -1.60 0.74 
-6.85 -7.82 -1.63 0.73 
-7.01 -7.71 -1.63 0.16 
-7.16 -7.58 -1.63 0.16 
-7.31 -7.45 -1.63 0.16 
-7.45 -7.31 -1.63 0.15 
-7.58 -7.16 -1.63 0.15 
-7.71 -7.01 -1.63 0.15 
-7.84 -6.86 -1.63 0.15 
-7.96 -6.71 -1.63 0.15 
-8.08 -6.55 -1.63 0.15 
-8.20 -6.40 -1.63 0.15 
-8.32 -6.24 -1.63 0.15 
-8.43 -6.08 -1.63 0.15 
-8.54 -5.91 -1.63 0.15 
-8.65 -5.75 -1.63 0.15 
-8.75 -5.58 -1.63 0.15 
-8.85 -5.41 -1.63 0.15 
-8.95 -5.24 -1.62 0.15 
-9.04 -5.07 -1.62 0.15 
-9.13 -4.90 -1.62 0.15 
-9.22 -4.72 -1.62 0.15 
-9.31 -4.54 -1.62 0.15 
-9.39 -4.37 -1.62 0.15 
-9.47 -4.19 -1.62 0.15 
-9.54 -4.00 -1.62 0.15 
-9.61 -3.82 -1.62 0.15 
-9.68 -3.64 -1.62 0.15 
-9.74 -3.45 -1.62 0.15 
-9.80 -3.27 -1.62 0.15 
-9.86 -3.08 -1.62 0.15 
-9.92 -2.89 -1.62 0.15 
-9.97 -2.70 -1.62 0.15 
-10.01 -2.51 -1.62 0.15 
-10.06 -2.32 -1.62 0.15 
-10.10 -2.13 -1.62 0.15 
-10.13 -1.94 -1.62 0.15 
-10.17 -1.75 -1.62 0.15 
-6.64 -1.01 -1.05 0.50 
-6.59 -0.88 -1.04 0.90 
-6.56 -0.75 -1.03 0.91 
-6.53 -0.62 -1.03 0.91 
-6.51 -0.49 -1.02 0.95 
-6.50 -0.37 -1.02 0.96 
-6.49 -0.25 -1.02 0.96 
-1.33 -0.03 -0.21 0.16 
-1.32 -0.00 -0.21 0.16 
-1.31 0.02 -0.21 0.16 
-1.31 0.05 -0.21 0.16 
-1.31 0.07 -0.21 0.16 
-1.31 0.10 -0.21 0.16 
-1.31 0.12 -0.21 0.16 
-1.31 0.15 -0.21 0.16 
-1.31 0.17 -0.21 0.16 
-1.31 0.20 -0.21 0.16 
-1.31 0.23 -0.21 0.16 
-1.31 0.25 -0.21 0.16 
-1.31 0.28 -0.21 0.16 
-1.31 0.30 -0.21 0.16 
-1.31 0.33 -0.21 0.16 
-1.31 0.35 -0.21 0.16 
-1.31 0.38 -0.21 0.16 
-1.30 0.41 -0.22 0.16 
-1.29 0.43 -0.22 0.14 
-6.74 2.39 -1.13 0.33 
-6.48 2.43 -1.09 0.83 
-6.34 2.52 -1.08 0.68 
-6.24 2.62 -1.07 0.95 
-6.20 2.74 -1.07 0.90 
-6.20 2.88 -1.08 0.88 
-6.20 3.03 -1.09 0.87 
-6.19 3.17 -1.10 0.87 
-6.19 3.32 -1.11 0.83 
-6.19 3.47 -1.12 0.81 
-6.20 3.63 -1.13 0.80 
-6.20 3.79 -1.15 0.79 
-6.21 3.96 -1.16 0.78 
-6.22 4.13 -1.18 0.77 
-6.46 4.47 -1.24 0.80 
-8.35 6.02 -1.63 0.15 
-8.24 6.18 -1.63 0.15 
-8.12 6.34 -1.63 0.15 
-7.35 5.96 -1.49 0.63 
-7.09 5.97 -1.46 0.63 
-6.82 5.97 -1.43 0.61 
-6.76 6.15 -1.44 0.49 
-7.51 7.09 -1.63 0.15 
-7.37 7.23 -1.63 0.15 
-7.24 7.38 -1.63 0.15 
-7.10 7.52 -1.63 0.15 
-6.96 7.65 -1.63 0.15 
-6.82 7.79 -1.63 0.15 
-6.67 7.92 -1.64 0.15 
-6.53 8.05 -1.64 0.15 
-6.38 8.17 -1.64 0.15 
-6.22 8.30 -1.64 0.15 
-6.07 8.42 -1.64 0.15 
-5.91 8.54 -1.64 0.15 
-5.75 8.65 -1.64 0.15 
-5.59 8.77 -1.64 0.15 
-5.43 8.87 -1.64 0.15 
-5.26 8.98 -1.64 0.15 
-5.09 9.08 -1.64 0.15 
-4.92 9.19 -1.65 0.15 
-4.75 9.28 -1.65 0.15 
-4.58 9.38 -1.65 0.15 
-4.40 9.47 -1.65 0.15 
-4.23 9.56 -1.65 0.15 
-4.05 9.64 -1.65 0.15 
-3.87 9.72 -1.65 0.15 
-3.68 9.80 -1.65 0.15 
-3.50 9.87 -1.65 0.15 
-3.31 9.94 -1.66 0.15 
-3.13 10.01 -1.66 0.15 
-2.94 10.08 -1.66 0.15 
-2.75 10.14 -1.66 0.15 
-2.56 10.20 -1.66 0.15 
-2.37 10.25 -1.66 0.15 
-2.18 10.30 -1.66 0.15 
-1.98 10.35 -1.66 0.15 
-1.79 10.39 -1.66 0.15 
-1.59 10.43 -1.67 0.15 
-1.39 10.46 -1.67 0.15 
-1.20 10.50 -1.67 0.15 
-1.00 10.52 -1.67 0.15 
-0.80 10.55 -1.67 0.15 
-0.60 10.57 -1.67 0.15 
-0.40 10.59 -1.67 0.15 
-0.20 10.60 -1.67 0.15 
-0.00 10.61 -1.68 0.15 
0.20 10.62 -1.68 0.15 
0.40 10.62 -1.68 0.15 
0.60 10.62 -1.68 0.15 
0.80 10.61 -1.68 0.15 
1.01 10.60 -1.68 0.15 
1.21 10.59 -1.68 0.15 
1.41 10.57 -1.68 0.15 
1.61 10.55 -1.69 0.15 
1.81 10.53 -1.69 0.15 
2.01 10.50 -1.69 0.15 
0.74 3.52 -0.57 0.22 
0.77 3.32 -0.54 0.29 
0.80 3.19 -0.52 0.39 
0.84 3.09 -0.51 0.40 
0.88 3.02 -0.50 0.62 
0.93 2.97 -0.49 0.67 
0.98 2.95 -0.49 0.74 
1.04 2.93 -0.49 0.85 
1.10 2.94 -0.50 0.89 
1.17 2.94 -0.50 0.89 
1.23 2.93 -0.50 0.89 
1.30 2.93 -0.51 0.87 
1.36 2.93 -0.51 0.87 
1.43 2.93 -0.52 0.86 
1.50 2.93 -0.52 0.82 
1.57 2.94 -0.53 0.82 
1.65 2.94 -0.53 0.81 
1.72 2.94 -0.54 0.78 
1.80 2.95 -0.55 0.77 
1.89 2.97 -0.56 0.65 
1.98 2.98 -0.57 0.67 
4.85 7.00 -1.34 0.50 
4.85 6.73 -1.31 0.59 
4.87 6.49 -1.28 0.72 
4.91 6.29 -1.26 0.73 
4.95 6.10 -1.24 0.92 
5.02 5.96 -1.23 0.89 
5.13 5.86 -1.23 0.88 
5.32 5.85 -1.25 0.71 
5.52 5.85 -1.27 0.69 
5.74 5.85 -1.29 0.68 
5.96 5.85 -1.32 0.67 
6.20 5.86 -1.35 0.65 
6.44 5.86 -1.38 0.64 
6.70 5.86 -1.41 0.61 
8.37 7.05 -1.73 0.14 
8.50 6.90 -1.73 0.14 
8.64 6.74 -1.73 0.14 
8.77 6.58 -1.73 0.14 
8.90 6.41 -1.73 0.14 
8.61 5.96 -1.65 0.32 
8.81 5.85 -1.67 0.52 
9.26 5.90 -1.73 0.14 
9.37 5.73 -1.73 0.14 
9.48 5.55 -1.74 0.14 
9.59 5.38 -1.74 0.14 
9.69 5.20 -1.74 0.14 
9.79 5.01 -1.74 0.14 
9.89 4.83 -1.74 0.14 
9.98 4.64 -1.74 0.14 
10.07 4.45 -1.74 0.14 
10.16 4.26 -1.74 0.14 
10.24 4.07 -1.74 0.14 
10.32 3.88 -1.74 0.14 
10.39 3.68 -1.74 0.14 
10.47 3.49 -1.74 0.14 
10.53 3.29 -1.74 0.14 
10.60 3.09 -1.74 0.14 
10.65 2.89 -1.74 0.14 
10.71 2.69 -1.74 0.14 
10.76 2.49 -1.74 0.14 
10.81 2.28 -1.74 0.14 
10.85 2.08 -1.74 0.14 
10.89 1.87 -1.74 0.14 
10.93 1.67 -1.75 0.14 
10.96 1.46 -1.75 0.14 
10.98 1.25 -1.75 0.14 
11.01 1.04 -1.75 0.14 
11.03 0.84 -1.75 0.14 
11.04 0.63 -1.75 0.14 
11.05 0.42 -1.75 0.14 
11.06 0.21 -1.75 0.14 
11.06 -0.00 -1.75 0.14 
11.06 -0.21 -1.75 0.14 
11.05 -0.42 -1.75 0.14 
11.04 -0.63 -1.75 0.14 
11.03 -0.84 -1.75 0.14 
11.01 -1.05 -1.75 0.14 
10.99 -1.25 -1.75 0.14 
10.96 -1.46 -1.75 0.14 
10.93 -1.67 -1.75 0.14 
10.90 -1.87 -1.75 0.14 
10.86 -2.08 -1.75 0.14 
10.82 -2.28 -1.75 0.14 
10.77 -2.49 -1.75 0.14 
10.72 -2.69 -1.75 0.14 
10.66 -2.89 -1.74 0.14 
10.61 -3.09 -1.74 0.14 
10.54 -3.29 -1.74 0.14 
10.48 -3.49 -1.74 0.14 
10.41 -3.69 -1.74 0.14 
10.33 -3.88 -1.74 0.14 
10.26 -4.08 -1.74 0.14 
10.17 -4.27 -1.74 0.14 
10.09 -4.46 -1.74 0.14 
10.00 -4.65 -1.74 0.14 
9.91 -4.84 -1.74 0.14 
9.81 -5.02 -1.74 0.14 
9.71 -5.21 -1.74 0.14 
9.61 -5.39 -1.74 0.14 
5.26 -3.08 -0.96 0.52 
5.04 -3.08 -0.93 0.49 
4.85 -3.09 -0.91 0.56 
4.65 -3.09 -0.88 0.54 
4.48 -3.10 -0.86 0.61 
4.32 -3.11 -0.84 0.63 
4.18 -3.13 -0.82 0.71 
4.05 -3.16 -0.81 0.73 
3.94 -3.19 -0.80 0.85 
3.85 -3.25 -0.80 0.91 
3.81 -3.34 -0.80 0.91 
3.77 -3.43 -0.81 0.84 
3.75 -3.54 -0.81 0.73 
3.72 -3.65 -0.82 0.71 
3.73 -3.80 -0.84 0.60 
3.79 -4.01 -0.87 0.46 
7.15 -7.86 -1.68 0.68 
6.88 -7.85 -1.65 0.69 
6.61 -7.84 -1.62 0.70 
6.35 -7.83 -1.59 0.71 
6.11 -7.83 -1.57 0.62 
5.95 -7.93 -1.56 0.15 
5.79 -8.04 -1.56 0.15 
5.64 -8.14 -1.56 0.15 
5.48 -8.24 -1.56 0.15 
5.32 -8.34 -1.56 0.15 
5.15 -8.43 -1.56 0.15 
4.99 -8.52 -1.56 0.15 
4.83 -8.61 -1.56 0.15 
4.66 -8.69 -1.56 0.15 
4.49 -8.77 -1.56 0.15 
4.32 -8.85 -1.56 0.15 
4.15 -8.92 -1.55 0.15 
3.98 -9.00 -1.55 0.15 
3.80 -9.06 -1.55 0.15 
3.63 -9.13 -1.55 0.15 
3.45 -9.19 -1.55 0.15 
3.28 -9.25 -1.55 0.15 
3.10 -9.30 -1.55 0.15 
2.92 -9.35 -1.55 0.15 
2.74 -9.40 -1.55 0.15 
2.56 -9.44 -1.54 0.15 
2.38 -9.48 -1.54 0.15 
2.20 -9.52 -1.54 0.15 
2.02 -9.55 -1.54 0.15 
1.83 -9.58 -1.54 0.15 
1.65 -9.61 -1.54 0.15 
1.47 -9.63 -1.54 0.15 
1.29 -9.65 -1.54 0.15 
1.10 -9.66 -1.54 0.15 
0.92 -9.67 -1.53 0.15 
0.73 -9.68 -1.53 0.15 
0.55 -9.69 -1.53 0.15 
0.37 -9.69 -1.53 0.15 
0.18 -9.69 -1.53 0.15 
0.00 -9.68 -1.53 0.15 
-0.18 -9.67 -1.53 0.15 
-0.37 -9.66 -1.53 0.15 
-0.55 -9.65 -1.53 0.15 
-0.73 -9.63 -1.52 0.15 
-0.91 -9.60 -1.52 0.15 
-1.09 -9.58 -1.52 0.15 
-1.27 -9.55 -1.52 0.15 
-1.45 -9.52 -1.52 0.15 
-1.63 -9.48 -1.52 0.15 
-1.81 -9.44 -1.52 0.15 
-1.99 -9.40 -1.52 0.15 
-2.16 -9.35 -1.52 0.15 
-2.34 -9.30 -1.51 0.15 
-2.51 -9.25 -1.51 0.15 
-2.68 -9.19 -1.51 0.15 
-2.85 -9.13 -1.51 0.15 
-3.02 -9.07 -1.51 0.15 
-3.19 -9.01 -1.51 0.15 
-3.36 -8.94 -1.51 0.15 
-3.53 -8.87 -1.51 0.15 
-3.69 -8.79 -1.51 0.15 
-3.85 -8.72 -1.50 0.15 
-4.02 -8.64 -1.50 0.15 
-4.18 -8.55 -1.50 0.15 
-4.33 -8.47 -1.50 0.15 
-4.49 -8.38 -1.50 0.15 
-4.65 -8.29 -1.50 0.15 
-4.80 -8.19 -1.50 0.15 
-4.95 -8.09 -1.50 0.15 
-5.10 -7.99 -1.50 0.15 
-5.25 -7.89 -1.50 0.15 
-5.43 -7.84 -1.51 0.79 
-5.65 -7.84 -1.53 0.78 
-5.88 -7.83 -1.55 0.77 
-6.11 -7.83 -1.57 0.76 
-6.35 -7.83 -1.59 0.75 
-6.59 -7.82 -1.62 0.74 
-6.81 -7.78 -1.63 0.17 
-6.96 -7.65 -1.63 0.17 
-7.11 -7.52 -1.63 0.16 
-7.26 -7.39 -1.64 0.16 
-7.39 -7.25 -1.64 0.15 
-7.52 -7.11 -1.63 0.15 
-7.65 -6.96 -1.63 0.15 
-7.78 -6.81 -1.63 0.15 
-7.90 -6.66 -1.63 0.15 
-8.02 -6.51 -1.63 0.15 
-8.14 -6.35 -1.63 0.15 
-8.26 -6.19 -1.63 0.15 
-8.37 -6.03 -1.63 0.15 
-8.48 -5.87 -1.63 0.15 
-8.58 -5.71 -1.63 0.15 
-8.69 -5.54 -1.63 0.15 
-8.79 -5.37 -1.63 0.15 
-8.88 -5.20 -1.63 0.15 
-8.98 -5.03 -1.62 0.15 
-9.07 -4.86 -1.62 0.15 
-9.15 -4.69 -1.62 0.15 
-9.24 -4.51 -1.62 0.15 
-9.32 -4.33 -1.62 0.15 
-9.39 -4.15 -1.62 0.15 
-9.47 -3.97 -1.62 0.15 
-9.54 -3.79 -1.62 0.15 
-9.61 -3.61 -1.62 0.15 
-9.67 -3.43 -1.62 0.16 
-9.73 -3.24 -1.62 0.16 
-9.79 -3.06 -1.62 0.16 
-9.84 -2.87 -1.62 0.16 
-9.89 -2.68 -1.62 0.16 
-9.94 -2.50 -1.62 0.16 
-9.98 -2.31 -1.62 0.16 
-10.02 -2.12 -1.62 0.16 
-10.06 -1.93 -1.62 0.16 
-10.09 -1.74 -1.62 0.16 
-6.64 -1.01 -1.06 0.50 
-6.59 -0.88 -1.05 0.90 
-6.56 -0.75 -1.04 0.91 
-1.33 -0.13 -0.21 0.16 
-1.33 -0.10 -0.21 0.16 
-1.33 -0.08 -0.21 0.16 
-1.32 -0.05 -0.21 0.16 
-1.32 -0.03 -0.21 0.16 
-1.31 -0.00 -0.21 0.16 
-1.30 0.02 -0.21 0.17 
-1.30 0.05 -0.21 0.17 
-1.30 0.07 -0.21 0.16 
-1.30 0.10 -0.21 0.16 
-1.30 0.12 -0.21 0.16 
-1.30 0.15 -0.21 0.16 
-1.30 0.17 -0.21 0.16 
-1.30 0.20 -0.21 0.16 
-1.30 0.22 -0.21 0.16 
-1.30 0.25 -0.21 0.16 
-1.30 0.28 -0.21 0.16 
-1.30 0.30 -0.21 0.16 
-1.30 0.33 -0.21 0.16 
-1.30 0.35 -0.21 0.16 
-1.30 0.38 -0.21 0.16 
-1.29 0.40 -0.22 0.14 
-1.28 0.43 -0.22 0.14 
-6.74 2.39 -1.14 0.33 
-6.47 2.43 -1.10 0.83 
-6.34 2.52 -1.09 0.68 
-6.24 2.62 -1.08 0.95 
-6.20 2.74 -1.08 0.90 
-6.20 2.88 -1.09 0.88 
-6.20 3.03 -1.10 0.87 
-6.19 3.17 -1.11 0.84 
-6.19 3.32 -1.12 0.83 
-6.19 3.47 -1.13 0.81 
-6.20 3.63 -1.14 0.80 
-6.21 3.79 -1.16 0.79 
-6.21 3.96 -1.17 0.78 
