VERSION 0.7
FIELDS x y z intensity
SIZE 4 4 4 8
TYPE F F F F
COUNT 1 1 1 1
WIDTH 1887
HEIGHT 1
VIEWPOINT 0.0 0.0 0.0 1.0 0.0 0.0 0.0
POINTS 1887
DATA ascii
-36.46 -96.98 9.06 0.41 
-34.29 -81.68 7.75 0.29 
-34.02 -76.94 7.36 0.52 
-35.77 -76.91 7.42 0.22 
-36.95 -75.68 7.37 0.42 
-38.22 -74.67 7.34 0.59 
-40.33 -75.23 7.47 0.64 
-83.67 -149.24 14.97 0.42 
-86.16 -147.09 14.91 0.44 
-72.29 -118.22 12.12 0.45 
-84.48 -132.45 13.74 0.46 
-72.48 -109.03 11.45 0.47 
-74.65 -107.82 11.47 0.43 
-56.08 -77.80 8.39 0.47 
-58.09 -77.47 8.47 0.43 
-58.18 -74.60 8.28 0.57 
-63.72 -78.59 8.85 0.40 
-65.08 -77.23 8.84 0.48 
-66.86 -76.37 8.88 0.22 
-69.28 -76.16 9.01 0.21 
-75.55 -79.96 9.62 0.44 
-120.31 -118.06 14.75 0.30 
-93.29 -88.14 11.23 0.14 
-103.60 -80.80 11.49 0.58 
-105.19 -78.88 11.50 0.57 
-31.97 -22.14 3.40 0.09 
-132.02 -52.50 12.43 0.31 
-136.48 -48.38 12.67 0.55 
-186.78 -50.68 16.93 0.29 
-167.18 -41.98 15.08 0.16 
-165.09 -38.15 14.82 0.39 
-153.10 -23.36 13.55 0.36 
-154.07 -20.53 13.60 0.40 
-139.79 -10.60 12.26 0.49 
-149.37 -2.83 13.07 0.45 
-150.57 -0.00 12.99 0.53 
-130.48 4.94 11.27 0.41 
-131.21 7.46 11.34 0.19 
-173.01 16.42 14.99 0.17 
-152.69 17.41 13.26 0.38 
-157.89 21.04 13.74 0.23 
-136.39 20.81 11.90 0.44 
-46.50 8.00 4.07 0.79 
-24.14 9.60 2.24 0.07 
-23.49 9.86 2.20 0.85 
-23.32 10.31 2.20 0.71 
-23.69 11.02 2.25 0.05 
-22.41 12.01 2.19 0.19 
-28.69 16.81 2.87 0.69 
-17.60 12.19 1.85 0.86 
-37.38 29.15 4.09 0.24 
-18.63 17.60 2.21 0.90 
-18.73 18.38 2.26 0.90 
-4.71 13.28 1.22 0.64 
-4.47 13.40 1.22 0.91 
14.60 11.83 1.62 0.50 
14.65 11.42 1.60 0.92 
27.91 6.45 2.47 0.63 
28.24 5.96 2.49 0.20 
43.09 -5.74 3.75 0.23 
155.67 -29.82 13.68 0.16 
146.40 -30.92 12.91 0.52 
146.73 -33.91 12.99 0.51 
147.06 -36.93 13.08 0.51 
147.40 -39.99 13.18 0.50 
147.74 -43.11 13.28 0.50 
148.09 -46.27 13.39 0.49 
148.45 -49.48 13.50 0.48 
148.81 -52.75 13.62 0.48 
149.18 -56.08 13.75 0.47 
149.55 -59.47 13.89 0.46 
149.93 -62.94 14.03 0.45 
150.33 -66.48 14.18 0.45 
150.72 -70.09 14.34 0.44 
151.13 -73.79 14.51 0.43 
51.64 -26.44 5.01 0.61 
151.98 -81.47 14.88 0.41 
152.42 -85.46 15.08 0.40 
152.88 -89.55 15.29 0.39 
153.34 -93.77 15.51 0.38 
153.82 -98.11 15.74 0.37 
154.32 -102.58 15.99 0.36 
154.83 -107.20 16.25 0.35 
149.67 -112.24 16.14 0.32 
144.63 -112.80 15.83 0.33 
139.94 -113.47 15.55 0.34 
140.49 -118.39 15.85 0.33 
141.05 -123.50 16.18 0.32 
55.72 -61.25 7.14 0.63 
16.62 -20.49 2.28 0.41 
16.09 -20.63 2.26 0.89 
22.44 -36.70 3.71 0.50 
64.28 -145.36 13.71 0.29 
33.79 -80.49 7.53 0.53 
3.30 -8.30 0.77 0.95 
35.41 -99.88 9.14 0.63 
45.17 -144.58 13.07 0.24 
42.04 -144.09 12.95 0.51 
41.14 -163.83 14.57 0.31 
-27.45 -159.57 13.97 0.52 
-30.63 -159.92 14.05 0.49 
-30.08 -119.78 10.66 0.54 
-31.90 -117.58 10.51 0.42 
-33.79 -115.80 10.41 0.61 
-36.75 -117.62 10.63 0.04 
-32.63 -97.88 8.90 0.60 
-34.21 -96.50 8.83 0.31 
-36.20 -96.29 8.88 0.65 
-38.52 -96.85 8.99 0.58 
-34.34 -81.80 7.65 0.17 
-34.09 -77.08 7.27 0.25 
-35.14 -75.57 7.19 0.65 
-36.82 -75.42 7.24 0.64 
-38.25 -74.73 7.24 0.59 
-40.34 -75.26 7.37 0.64 
-72.89 -130.01 12.86 0.52 
-72.29 -118.22 11.96 0.45 
-84.54 -132.56 13.57 0.45 
-73.00 -109.82 11.38 0.51 
-74.72 -107.91 11.33 0.50 
-56.15 -77.91 8.29 0.46 
-58.23 -77.64 8.37 0.27 
-57.94 -74.29 8.13 0.59 
-64.15 -79.11 8.79 0.18 
-65.37 -77.57 8.75 0.37 
-66.93 -76.44 8.77 0.22 
-70.13 -77.10 8.99 0.52 
-75.57 -79.99 9.50 0.44 
-90.12 -88.43 10.89 0.39 
-92.30 -87.20 10.96 0.43 
-52.73 -46.17 6.05 0.36 
-105.23 -78.92 11.35 0.57 
-115.11 -82.97 12.24 0.44 
-31.97 -22.14 3.35 0.09 
-132.23 -52.58 12.28 0.31 
-136.82 -51.43 12.61 0.41 
-137.10 -48.60 12.55 0.52 
-190.22 -55.50 17.10 0.28 
-186.78 -50.68 16.70 0.29 
-165.61 -41.59 14.73 0.50 
-165.23 -38.18 14.63 0.35 
-67.64 -12.96 5.94 0.34 
-154.66 -26.60 13.54 0.42 
-153.01 -23.35 13.36 0.36 
-156.12 -20.80 13.59 0.52 
-149.58 -5.66 12.92 0.52 
-149.28 -2.83 12.88 0.45 
-133.03 5.04 11.33 0.38 
-131.91 7.50 11.24 0.34 
-174.45 13.23 14.89 0.35 
-172.56 16.38 14.75 0.17 
-152.52 17.39 13.06 0.38 
-157.87 21.04 13.55 0.23 
-136.40 20.81 11.74 0.44 
-46.50 8.00 4.01 0.79 
-24.00 9.55 2.20 0.51 
-23.48 9.86 2.17 0.85 
-23.32 10.31 2.17 0.71 
-22.65 11.60 2.17 0.12 
-22.29 11.95 2.15 0.20 
-17.60 12.19 1.82 0.86 
-37.38 29.15 4.03 0.24 
-18.63 17.60 2.18 0.89 
-18.82 18.47 2.24 0.82 
-4.71 13.28 1.20 0.64 
-4.47 13.40 1.20 0.91 
14.60 11.83 1.60 0.50 
14.65 11.42 1.58 0.92 
23.82 16.49 2.46 0.37 
27.91 6.45 2.44 0.63 
28.24 5.96 2.46 0.20 
43.10 -5.74 3.70 0.23 
155.67 -29.82 13.48 0.16 
146.40 -30.92 12.73 0.52 
146.73 -33.91 12.81 0.51 
147.06 -36.93 12.90 0.51 
147.40 -39.99 12.99 0.50 
147.74 -43.11 13.09 0.50 
148.09 -46.27 13.20 0.49 
148.45 -49.48 13.31 0.48 
148.81 -52.75 13.43 0.48 
149.18 -56.08 13.56 0.47 
149.55 -59.47 13.69 0.46 
149.93 -62.94 13.83 0.45 
150.33 -66.48 13.98 0.45 
150.72 -70.09 14.14 0.44 
151.13 -73.79 14.31 0.43 
51.64 -26.44 4.94 0.61 
151.98 -81.47 14.67 0.41 
152.42 -85.46 14.87 0.40 
152.88 -89.55 15.07 0.39 
153.34 -93.77 15.29 0.38 
153.82 -98.11 15.52 0.37 
154.32 -102.58 15.77 0.36 
154.83 -107.20 16.02 0.35 
154.92 -111.66 16.25 0.31 
149.67 -112.24 15.92 0.32 
144.63 -112.80 15.61 0.33 
139.94 -113.47 15.33 0.34 
140.49 -118.39 15.63 0.33 
141.05 -123.50 15.95 0.32 
141.64 -128.84 16.29 0.31 
55.71 -61.25 7.04 0.63 
16.61 -20.49 2.24 0.41 
16.09 -20.63 2.23 0.89 
22.44 -36.70 3.66 0.50 
64.25 -145.29 13.52 0.29 
33.78 -80.48 7.43 0.53 
3.30 -8.30 0.76 0.95 
35.41 -99.89 9.02 0.63 
45.10 -144.37 12.87 0.24 
42.03 -144.04 12.77 0.51 
41.12 -163.74 14.36 0.32 
-27.45 -159.60 13.78 0.35 
-30.64 -159.95 13.86 0.49 
-30.23 -120.37 10.56 0.43 
-32.06 -118.16 10.42 0.49 
-33.80 -115.84 10.27 0.59 
-36.94 -118.23 10.54 0.52 
-32.65 -97.96 8.79 0.49 
-34.51 -97.36 8.79 0.55 
-36.16 -96.20 8.74 0.60 
-38.25 -96.19 8.81 0.52 
-61.34 -146.12 13.48 0.41 
-33.75 -76.32 7.10 0.27 
-35.16 -75.62 7.09 0.66 
-36.85 -75.47 7.15 0.64 
-38.28 -74.79 7.15 0.59 
-40.36 -75.30 7.27 0.56 
-72.55 -129.40 12.62 0.48 
-71.98 -122.88 12.12 0.32 
-71.54 -116.99 11.67 0.45 
-84.66 -132.73 13.39 0.36 
-72.57 -109.17 11.15 0.58 
-75.03 -108.36 11.21 0.58 
-56.30 -78.10 8.19 0.49 
-57.71 -76.96 8.18 0.55 
-57.99 -74.35 8.02 0.47 
-64.05 -78.99 8.65 0.33 
-65.81 -78.09 8.69 0.42 
-67.82 -77.46 8.76 0.42 
-69.79 -76.73 8.82 0.64 
-75.78 -80.21 9.39 0.43 
-90.18 -88.49 10.75 0.57 
-92.41 -87.31 10.82 0.49 
-103.70 -80.88 11.19 0.52 
-113.58 -85.18 12.08 0.12 
-116.72 -84.13 12.24 0.30 
-31.97 -22.14 3.31 0.09 
-56.98 -26.50 5.35 0.51 
-132.37 -52.64 12.12 0.43 
-135.03 -50.76 12.27 0.27 
-134.80 -47.78 12.17 0.28 
-190.22 -55.50 16.86 0.28 
-186.78 -50.68 16.47 0.29 
-154.57 -26.58 13.34 0.36 
-152.91 -23.33 13.16 0.42 
-156.11 -20.80 13.40 0.52 
-149.51 -5.66 12.73 0.48 
-149.68 -2.83 12.74 0.54 
-148.83 -0.00 12.48 0.25 
-45.85 1.74 3.85 0.82 
-132.59 7.54 11.14 0.54 
-174.68 13.25 14.69 0.33 
-172.11 16.33 14.50 0.17 
-159.28 18.16 13.45 0.23 
-157.97 21.05 13.37 0.27 
-46.50 8.00 3.96 0.79 
-24.00 9.54 2.17 0.51 
-23.32 10.31 2.14 0.71 
-22.55 11.55 2.13 0.23 
-22.20 11.90 2.11 0.27 
-22.20 12.44 2.13 0.22 
-17.60 12.19 1.80 0.86 
-37.38 29.15 3.98 0.24 
-18.63 17.60 2.15 0.89 
-18.82 18.47 2.21 0.82 
-4.71 13.28 1.18 0.64 
-4.47 13.40 1.18 0.91 
14.60 11.83 1.58 0.50 
14.65 11.42 1.56 0.92 
23.79 16.47 2.43 0.28 
27.91 6.45 2.40 0.63 
28.24 5.97 2.42 0.20 
43.10 -5.74 3.65 0.23 
155.67 -29.82 13.29 0.16 
146.40 -30.92 12.55 0.52 
146.73 -33.91 12.63 0.51 
147.06 -36.93 12.72 0.51 
147.40 -39.99 12.81 0.50 
147.74 -43.11 12.91 0.50 
148.09 -46.27 13.01 0.49 
148.45 -49.48 13.12 0.48 
148.81 -52.75 13.24 0.48 
149.18 -56.08 13.37 0.47 
149.55 -59.47 13.50 0.46 
149.93 -62.94 13.64 0.45 
150.33 -66.48 13.79 0.45 
150.72 -70.09 13.94 0.44 
151.13 -73.79 14.11 0.43 
51.64 -26.44 4.87 0.61 
151.98 -81.47 14.46 0.41 
152.42 -85.46 14.66 0.40 
152.88 -89.55 14.86 0.39 
153.34 -93.77 15.08 0.38 
153.82 -98.11 15.30 0.37 
154.32 -102.58 15.54 0.36 
154.83 -107.20 15.80 0.35 
154.92 -111.66 16.02 0.31 
149.67 -112.24 15.69 0.32 
144.63 -112.80 15.38 0.33 
139.94 -113.47 15.11 0.34 
140.49 -118.39 15.41 0.33 
141.05 -123.50 15.73 0.32 
141.64 -128.84 16.06 0.31 
55.71 -61.24 6.94 0.63 
16.61 -20.49 2.21 0.41 
16.09 -20.63 2.19 0.89 
22.44 -36.69 3.61 0.50 
64.22 -145.22 13.32 0.29 
33.78 -80.47 7.32 0.53 
3.30 -8.30 0.75 0.95 
63.80 -169.72 15.21 0.39 
35.41 -99.89 8.89 0.63 
42.01 -143.99 12.58 0.51 
41.09 -163.64 14.15 0.32 
-27.44 -159.54 13.58 0.48 
-30.27 -120.52 10.42 0.43 
-32.08 -118.23 10.27 0.34 
-33.80 -115.84 10.12 0.43 
-35.70 -114.26 10.04 0.46 
-39.04 -117.13 10.36 0.41 
-33.85 -95.51 8.50 0.54 
-36.19 -96.26 8.63 0.60 
-38.23 -96.12 8.68 0.55 
-34.10 -81.22 7.39 0.06 
-33.89 -76.64 7.03 0.47 
-35.20 -75.69 7.00 0.36 
-36.87 -75.52 7.05 0.54 
-38.31 -74.84 7.05 0.59 
-40.39 -75.36 7.17 0.56 
-72.61 -129.51 12.45 0.16 
-70.46 -120.29 11.69 0.27 
-72.28 -118.21 11.62 0.45 
-71.35 -111.87 11.13 0.56 
-72.61 -109.22 11.00 0.52 
-74.60 -107.74 10.99 0.59 
-57.03 -79.12 8.18 0.19 
-57.79 -77.06 8.08 0.15 
-58.06 -74.44 7.92 0.55 
-64.46 -79.50 8.58 0.39 
-65.81 -78.09 8.57 0.60 
-67.79 -77.42 8.63 0.39 
-69.82 -76.76 8.70 0.64 
-76.12 -80.57 9.30 0.49 
-90.24 -88.55 10.60 0.53 
-92.50 -87.40 10.67 0.47 
-103.91 -81.04 11.05 0.52 
-114.27 -85.69 11.98 0.53 
-114.36 -82.43 11.82 0.33 
-31.97 -22.14 3.26 0.09 
-56.98 -26.50 5.27 0.51 
-132.46 -52.68 11.96 0.43 
-134.86 -50.70 12.08 0.40 
-134.75 -47.77 11.99 0.28 
-190.22 -55.50 16.62 0.28 
-186.78 -50.68 16.23 0.29 
-163.69 -41.10 14.16 0.10 
-154.46 -26.57 13.15 0.44 
-152.78 -23.31 12.96 0.42 
-156.14 -20.81 13.21 0.52 
-149.45 -5.66 12.54 0.52 
-149.68 -2.83 12.56 0.54 
-148.59 -0.00 12.28 0.52 
-45.85 1.74 3.79 0.82 
-132.85 7.55 11.00 0.49 
-195.74 14.85 16.23 0.22 
-176.14 16.72 14.63 0.49 
-46.50 8.00 3.90 0.79 
-23.99 9.54 2.13 0.51 
-23.32 10.31 2.11 0.71 
-22.46 11.50 2.09 0.23 
-22.12 11.86 2.08 0.29 
-22.10 12.39 2.09 0.22 
-17.60 12.19 1.77 0.86 
-37.38 29.15 3.92 0.24 
-18.64 17.61 2.12 0.77 
-18.82 18.47 2.18 0.79 
-4.71 13.28 1.16 0.64 
-4.47 13.40 1.17 0.91 
14.59 11.83 1.55 0.50 
14.65 11.42 1.54 0.92 
23.76 16.45 2.39 0.57 
27.91 6.45 2.37 0.63 
28.24 5.97 2.39 0.20 
43.10 -5.74 3.59 0.23 
155.66 -29.82 13.10 0.16 
146.40 -30.92 12.37 0.52 
146.73 -33.91 12.45 0.51 
147.06 -36.93 12.54 0.51 
147.40 -39.99 12.63 0.50 
147.74 -43.11 12.72 0.50 
148.09 -46.27 12.83 0.49 
148.45 -49.48 12.94 0.48 
148.81 -52.75 13.05 0.48 
149.18 -56.08 13.18 0.47 
149.55 -59.47 13.31 0.46 
149.93 -62.94 13.44 0.45 
150.32 -66.48 13.59 0.45 
150.72 -70.09 13.74 0.44 
151.13 -73.79 13.90 0.43 
51.64 -26.43 4.80 0.61 
151.98 -81.47 14.26 0.41 
152.42 -85.46 14.45 0.40 
152.88 -89.55 14.65 0.39 
153.34 -93.77 14.86 0.38 
153.82 -98.11 15.08 0.37 
154.32 -102.58 15.32 0.36 
154.83 -107.20 15.57 0.35 
154.92 -111.66 15.79 0.31 
149.67 -112.24 15.47 0.32 
144.63 -112.80 15.16 0.33 
139.94 -113.47 14.89 0.34 
140.49 -118.39 15.19 0.33 
141.05 -123.50 15.50 0.32 
141.64 -128.84 15.83 0.31 
142.26 -134.40 16.18 0.29 
55.70 -61.24 6.84 0.63 
16.61 -20.48 2.18 0.41 
16.09 -20.62 2.16 0.89 
22.44 -36.69 3.56 0.50 
64.19 -145.16 13.12 0.29 
33.78 -80.46 7.21 0.53 
3.30 -8.30 0.74 0.95 
63.76 -169.62 14.98 0.39 
35.41 -99.89 8.76 0.63 
44.44 -163.78 14.03 0.31 
41.13 -163.79 13.96 0.35 
-27.51 -159.95 13.42 0.36 
-30.16 -157.47 13.26 0.46 
-31.79 -117.15 10.04 0.54 
-33.98 -116.46 10.03 0.47 
-35.73 -114.38 9.91 0.34 
-32.78 -98.36 8.57 0.14 
-33.98 -95.87 8.41 0.52 
-36.21 -96.33 8.51 0.48 
-38.21 -96.09 8.55 0.10 
-34.44 -82.05 7.36 0.31 
-33.94 -76.75 6.94 0.48 
-35.26 -75.83 6.91 0.51 
-36.91 -75.60 6.96 0.54 
-38.38 -74.98 6.96 0.08 
-40.42 -75.41 7.07 0.56 
-72.01 -128.45 12.17 0.44 
-70.52 -120.38 11.53 0.28 
-72.29 -118.21 11.46 0.45 
-71.29 -111.77 10.96 0.57 
-72.66 -109.30 10.85 0.52 
-74.62 -107.77 10.84 0.58 
-57.45 -79.70 8.12 0.49 
-73.94 -98.60 10.19 0.40 
-58.24 -74.68 7.83 0.61 
-64.56 -79.62 8.47 0.39 
-65.86 -78.15 8.45 0.21 
-67.90 -77.55 8.52 0.57 
-69.85 -76.80 8.58 0.58 
-76.67 -81.15 9.23 0.51 
-90.47 -88.78 10.48 0.57 
-92.00 -86.92 10.46 0.28 
-102.36 -79.83 10.73 0.34 
-105.22 -78.91 10.87 0.34 
-114.55 -82.56 11.67 0.46 
-31.97 -22.14 3.21 0.09 
-56.98 -26.50 5.20 0.51 
-132.56 -52.72 11.79 0.43 
-135.24 -50.84 11.94 0.50 
-134.70 -47.75 11.82 0.28 
-190.22 -55.50 16.38 0.28 
-186.78 -50.68 16.00 0.29 
-163.64 -41.09 13.95 0.10 
-154.39 -26.55 12.95 0.44 
-152.65 -23.29 12.77 0.42 
-149.40 -5.66 12.36 0.52 
-149.68 -2.83 12.38 0.54 
-151.08 -0.00 12.31 0.45 
-45.85 1.74 3.74 0.82 
-134.59 7.65 10.98 0.42 
-196.96 14.94 16.09 0.41 
-176.15 16.72 14.41 0.49 
-46.50 8.00 3.84 0.79 
-23.98 9.54 2.10 0.51 
-23.32 10.31 2.08 0.71 
-22.36 11.45 2.05 0.23 
-22.05 11.82 2.04 0.29 
-22.00 12.34 2.05 0.22 
-17.60 12.19 1.74 0.86 
-37.27 29.07 3.85 0.21 
-18.66 17.63 2.09 0.77 
-18.83 18.48 2.15 0.56 
-4.71 13.27 1.15 0.64 
-4.47 13.40 1.15 0.91 
14.59 11.83 1.53 0.50 
14.65 11.42 1.51 0.92 
23.73 16.43 2.35 0.46 
27.91 6.45 2.33 0.63 
28.24 5.97 2.35 0.20 
43.11 -5.74 3.54 0.23 
155.66 -29.82 12.91 0.16 
146.40 -30.92 12.19 0.52 
146.73 -33.91 12.27 0.51 
147.06 -36.93 12.35 0.51 
147.40 -39.99 12.44 0.50 
147.74 -43.11 12.54 0.50 
148.09 -46.27 12.64 0.49 
148.45 -49.48 12.75 0.48 
148.81 -52.75 12.86 0.48 
149.18 -56.08 12.98 0.47 
149.55 -59.47 13.11 0.46 
149.93 -62.94 13.25 0.45 
150.32 -66.48 13.39 0.45 
150.72 -70.09 13.54 0.44 
151.13 -73.79 13.70 0.43 
51.64 -26.43 4.73 0.61 
151.98 -81.47 14.05 0.41 
152.42 -85.46 14.24 0.40 
152.88 -89.55 14.43 0.39 
153.34 -93.77 14.64 0.38 
153.82 -98.11 14.86 0.37 
154.32 -102.58 15.10 0.36 
154.83 -107.20 15.34 0.35 
154.92 -111.66 15.56 0.31 
149.67 -112.24 15.24 0.32 
144.63 -112.80 14.94 0.33 
139.94 -113.47 14.68 0.34 
140.49 -118.39 14.97 0.33 
141.05 -123.50 15.27 0.32 
141.64 -128.84 15.60 0.31 
142.26 -134.40 15.94 0.29 
55.70 -61.23 6.74 0.63 
16.60 -20.48 2.15 0.41 
16.08 -20.62 2.13 0.89 
22.43 -36.69 3.50 0.50 
64.16 -145.09 12.92 0.29 
33.77 -80.45 7.11 0.53 
3.30 -8.30 0.73 0.95 
63.72 -169.51 14.75 0.39 
35.41 -99.89 8.63 0.63 
44.38 -163.56 13.81 0.38 
41.08 -163.60 13.74 0.23 
-27.51 -159.97 13.22 0.49 
-30.18 -157.57 13.07 0.43 
-31.78 -117.13 9.89 0.54 
-34.01 -116.56 9.89 0.48 
-35.83 -114.70 9.79 0.41 
-33.10 -99.32 8.53 0.46 
-33.93 -95.72 8.27 0.56 
-36.25 -96.42 8.39 0.19 
-38.26 -96.21 8.44 0.09 
-33.18 -79.05 6.98 0.54 
-34.44 -77.89 6.94 0.48 
-35.55 -76.45 6.87 0.43 
-36.99 -75.76 6.87 0.41 
-38.78 -75.75 6.93 0.53 
-40.51 -75.57 6.99 0.61 
-72.06 -128.53 12.00 0.44 
-86.75 -148.09 13.98 0.44 
-72.91 -119.24 11.39 0.47 
-71.47 -112.05 10.83 0.57 
-72.79 -109.50 10.71 0.42 
-69.15 -99.87 9.90 0.46 
-57.32 -79.53 7.99 0.33 
-57.67 -76.90 7.83 0.45 
-58.12 -74.51 7.70 0.64 
-64.69 -79.79 8.37 0.32 
-65.95 -78.27 8.34 0.66 
-66.99 -76.51 8.28 0.62 
-69.90 -76.85 8.46 0.58 
-71.19 -75.35 8.45 0.50 
-79.12 -80.63 9.20 0.53 
-91.06 -89.35 10.39 0.36 
-92.68 -87.56 10.39 0.32 
-102.87 -80.23 10.63 0.43 
-105.75 -79.31 10.77 0.27 
-114.67 -82.65 11.52 0.40 
-31.97 -22.14 3.17 0.09 
-56.98 -26.50 5.12 0.51 
-132.65 -52.75 11.63 0.43 
-135.29 -50.86 11.77 0.49 
-135.48 -48.02 11.71 0.35 
-190.23 -55.50 16.14 0.28 
-186.78 -50.68 15.77 0.29 
-164.80 -41.38 13.84 0.12 
-46.03 -9.72 3.83 0.82 
-154.32 -26.54 12.76 0.39 
-152.52 -23.27 12.57 0.42 
-147.96 -2.80 12.06 0.09 
-150.95 -0.00 12.12 0.17 
-45.85 1.74 3.68 0.82 
-131.71 7.49 10.59 0.20 
-195.48 14.83 15.74 0.25 
-176.15 16.72 14.20 0.49 
-46.50 8.00 3.79 0.79 
-23.95 9.52 2.07 0.52 
-23.32 10.31 2.05 0.71 
-22.30 11.42 2.01 0.42 
-21.99 11.79 2.00 0.39 
-21.91 12.28 2.02 0.22 
-17.60 12.18 1.72 0.86 
-18.69 17.66 2.06 0.36 
-18.84 18.48 2.12 0.56 
-4.71 13.27 1.13 0.64 
-4.47 13.40 1.13 0.91 
14.59 11.83 1.51 0.50 
14.65 11.42 1.49 0.92 
23.69 16.40 2.31 0.46 
27.91 6.45 2.30 0.63 
28.24 5.97 2.32 0.20 
43.11 -5.74 3.49 0.23 
155.66 -29.82 12.72 0.16 
146.40 -30.92 12.01 0.52 
146.73 -33.91 12.09 0.51 
147.06 -36.93 12.17 0.51 
147.40 -39.99 12.26 0.50 
147.74 -43.10 12.35 0.50 
148.09 -46.27 12.45 0.49 
148.45 -49.48 12.56 0.48 
148.81 -52.75 12.67 0.48 
149.18 -56.08 12.79 0.47 
149.55 -59.47 12.92 0.46 
149.93 -62.94 13.05 0.45 
150.32 -66.47 13.19 0.45 
150.72 -70.09 13.34 0.44 
151.13 -73.79 13.50 0.43 
51.64 -26.43 4.66 0.61 
151.98 -81.47 13.84 0.41 
152.42 -85.46 14.03 0.40 
152.88 -89.55 14.22 0.39 
153.34 -93.77 14.43 0.38 
153.82 -98.11 14.64 0.37 
154.32 -102.58 14.87 0.36 
154.83 -107.20 15.12 0.35 
154.92 -111.66 15.33 0.31 
149.67 -112.24 15.02 0.32 
144.63 -112.80 14.72 0.33 
139.94 -113.47 14.46 0.34 
51.75 -43.61 5.43 0.62 
141.05 -123.50 15.05 0.32 
141.64 -128.84 15.37 0.31 
142.26 -134.40 15.71 0.29 
55.69 -61.23 6.64 0.63 
16.60 -20.48 2.12 0.41 
16.08 -20.62 2.10 0.89 
22.43 -36.68 3.45 0.50 
64.13 -145.02 12.73 0.29 
33.77 -80.45 7.00 0.53 
3.30 -8.30 0.72 0.95 
63.88 -169.92 14.57 0.43 
35.41 -99.90 8.51 0.63 
44.32 -163.34 13.58 0.31 
41.02 -163.37 13.52 0.34 
-27.54 -160.10 13.04 0.50 
-35.35 -140.77 11.65 0.34 
-31.80 -117.20 9.75 0.54 
-34.50 -118.23 9.89 0.44 
-35.90 -114.91 9.66 0.39 
-33.12 -99.38 8.41 0.46 
-33.96 -95.80 8.16 0.56 
-36.31 -96.60 8.28 0.47 
-59.15 -148.74 12.85 0.37 
-33.22 -79.14 6.89 0.43 
-34.73 -78.54 6.89 0.58 
-35.46 -76.26 6.75 0.48 
-36.84 -75.46 6.74 0.40 
-38.85 -75.89 6.84 0.64 
-40.59 -75.72 6.90 0.31 
-73.22 -130.60 12.02 0.35 
-70.56 -120.46 11.21 0.50 
-72.98 -119.34 11.23 0.48 
-71.46 -112.04 10.67 0.37 
-72.96 -109.75 10.58 0.48 
-74.68 -107.86 10.53 0.42 
-57.49 -79.76 7.89 0.21 
-57.75 -77.00 7.73 0.30 
-58.19 -74.61 7.59 0.44 
-61.15 -75.42 7.79 0.09 
-65.97 -78.28 8.22 0.66 
-67.28 -76.83 8.20 0.35 
-69.95 -76.91 8.34 0.58 
-71.23 -75.39 8.32 0.57 
-79.19 -80.71 9.08 0.12 
-90.47 -88.77 10.17 0.58 
-92.42 -87.31 10.20 0.57 
-102.16 -82.83 10.56 0.24 
-103.45 -80.68 10.53 0.12 
-105.86 -79.39 10.62 0.46 
-31.97 -22.13 3.12 0.09 
-56.98 -26.50 5.04 0.51 
-132.74 -52.79 11.47 0.43 
-131.79 -49.54 11.30 0.17 
-136.09 -48.24 11.59 0.46 
-190.23 -55.50 15.91 0.28 
-165.09 -44.80 13.73 0.49 
-164.23 -41.24 13.59 0.09 
-46.03 -9.72 3.78 0.82 
-152.62 -26.25 12.43 0.32 
-152.41 -23.25 12.38 0.31 
-147.72 -2.80 11.86 0.17 
-150.80 -0.00 11.92 0.43 
-45.85 1.74 3.63 0.82 
-131.70 7.49 10.43 0.48 
-195.34 14.82 15.49 0.25 
-176.15 16.72 13.99 0.49 
-155.82 17.77 12.40 0.45 
-46.50 8.00 3.73 0.79 
-23.95 9.52 2.04 0.52 
-23.32 10.31 2.02 0.71 
-22.25 11.39 1.98 0.42 
-21.94 11.76 1.97 0.39 
-21.85 12.25 1.98 0.42 
-17.60 12.18 1.69 0.86 
-18.87 18.52 2.09 0.40 
-4.70 13.27 1.11 0.64 
-4.47 13.40 1.12 0.91 
5.36 23.21 1.88 0.70 
14.59 11.83 1.49 0.50 
14.65 11.42 1.47 0.92 
23.66 16.38 2.28 0.80 
27.91 6.45 2.26 0.63 
28.24 5.97 2.28 0.20 
43.11 -5.74 3.44 0.23 
155.66 -29.82 12.53 0.16 
146.40 -30.92 11.83 0.52 
146.73 -33.91 11.91 0.51 
147.06 -36.93 11.99 0.51 
147.40 -39.99 12.08 0.50 
147.74 -43.11 12.17 0.50 
148.09 -46.27 12.27 0.49 
148.45 -49.48 12.37 0.48 
148.81 -52.75 12.48 0.48 
149.18 -56.08 12.60 0.47 
149.55 -59.47 12.72 0.46 
149.93 -62.94 12.86 0.45 
150.32 -66.47 13.00 0.45 
150.72 -70.09 13.14 0.44 
151.13 -73.79 13.30 0.43 
51.64 -26.43 4.59 0.61 
151.98 -81.47 13.63 0.41 
152.42 -85.46 13.82 0.40 
152.88 -89.55 14.01 0.39 
153.34 -93.77 14.21 0.38 
153.82 -98.11 14.42 0.37 
154.32 -102.58 14.65 0.36 
154.83 -107.20 14.89 0.35 
154.92 -111.66 15.10 0.31 
149.67 -112.24 14.79 0.32 
144.63 -112.80 14.50 0.33 
139.94 -113.47 14.24 0.34 
140.49 -118.39 14.53 0.33 
141.05 -123.50 14.82 0.32 
141.64 -128.84 15.14 0.31 
142.26 -134.40 15.47 0.29 
55.69 -61.22 6.54 0.63 
16.60 -20.47 2.08 0.41 
16.08 -20.62 2.07 0.89 
22.43 -36.68 3.40 0.50 
64.10 -144.95 12.53 0.30 
33.77 -80.44 6.90 0.53 
3.30 -8.30 0.71 0.95 
64.66 -172.01 14.53 0.30 
35.41 -99.90 8.38 0.63 
44.94 -165.63 13.57 0.44 
41.24 -164.22 13.39 0.45 
-27.37 -159.14 12.77 0.27 
-30.26 -157.95 12.72 0.48 
-32.23 -139.47 11.32 0.40 
-29.40 -117.09 9.54 0.28 
-31.85 -117.39 9.62 0.47 
-33.99 -116.48 9.59 0.48 
-36.17 -115.79 9.59 0.16 
-33.16 -99.48 8.29 0.41 
-33.99 -95.89 8.04 0.48 
-36.34 -96.66 8.16 0.44 
-59.17 -148.80 12.66 0.38 
-33.27 -79.27 6.80 0.43 
-34.87 -78.86 6.82 0.57 
-35.54 -76.43 6.66 0.06 
-36.90 -75.57 6.65 0.40 
-38.66 -75.52 6.71 0.61 
-40.63 -75.80 6.80 0.51 
-71.93 -128.29 11.63 0.53 
-70.64 -120.59 11.05 0.44 
-72.61 -118.75 11.00 0.35 
-71.33 -111.84 10.49 0.37 
-73.05 -109.90 10.43 0.45 
-74.76 -107.97 10.38 0.40 
-56.69 -78.65 7.67 0.36 
-56.53 -75.38 7.45 0.32 
-58.42 -74.90 7.51 0.49 
-59.65 -73.56 7.49 0.49 
-65.99 -78.31 8.10 0.61 
-66.75 -76.23 8.01 0.44 
-70.39 -77.39 8.27 0.49 
-70.04 -74.13 8.06 0.34 
-90.13 -88.44 9.98 0.60 
-92.28 -87.18 10.04 0.55 
-102.44 -83.06 10.43 0.53 
-102.93 -80.28 10.32 0.23 
-105.93 -79.44 10.47 0.46 
-115.00 -82.89 11.21 0.48 
-31.97 -22.13 3.07 0.09 
-56.98 -26.50 4.97 0.51 
-132.81 -52.81 11.30 0.50 
-136.03 -48.22 11.41 0.45 
-190.23 -55.50 15.67 0.28 
-165.14 -44.81 13.53 0.50 
-165.35 -41.52 13.48 0.39 
-46.03 -9.72 3.72 0.82 
-152.78 -26.28 12.26 0.32 
-154.86 -23.63 12.39 0.27 
-146.95 -2.78 11.62 0.14 
-45.85 1.74 3.57 0.82 
-131.65 7.48 10.27 0.48 
-64.26 4.87 5.02 0.24 
-64.30 6.10 5.03 0.54 
-155.78 17.77 12.21 0.45 
-23.95 9.52 2.01 0.52 
-23.32 10.31 1.99 0.71 
-22.20 11.37 1.94 0.42 
-21.89 11.73 1.93 0.50 
-21.80 12.22 1.95 0.42 
-17.59 12.18 1.67 0.86 
-4.70 13.27 1.10 0.64 
-4.47 13.40 1.10 0.91 
5.36 23.21 1.85 0.70 
14.59 11.83 1.46 0.50 
14.65 11.42 1.45 0.92 
23.75 17.12 2.28 0.77 
23.75 16.44 2.25 0.85 
27.91 6.45 2.23 0.63 
28.24 5.97 2.25 0.20 
43.12 -5.75 3.39 0.23 
155.66 -29.82 12.34 0.16 
146.40 -30.92 11.65 0.52 
146.73 -33.91 11.73 0.51 
147.06 -36.93 11.81 0.51 
147.40 -39.99 11.89 0.50 
147.74 -43.11 11.98 0.50 
148.09 -46.27 12.08 0.49 
148.45 -49.48 12.18 0.48 
148.81 -52.75 12.29 0.48 
149.18 -56.08 12.41 0.47 
149.55 -59.47 12.53 0.46 
149.93 -62.94 12.66 0.45 
150.32 -66.47 12.80 0.45 
150.72 -70.09 12.94 0.44 
151.13 -73.79 13.09 0.43 
51.64 -26.43 4.52 0.61 
151.98 -81.47 13.43 0.41 
152.42 -85.46 13.61 0.40 
152.88 -89.55 13.79 0.39 
153.34 -93.77 13.99 0.38 
153.82 -98.11 14.21 0.37 
154.32 -102.58 14.43 0.36 
154.83 -107.20 14.66 0.35 
154.92 -111.66 14.87 0.31 
149.67 -112.24 14.57 0.32 
144.63 -112.80 14.28 0.33 
139.94 -113.47 14.03 0.34 
140.49 -118.39 14.30 0.33 
141.05 -123.50 14.60 0.32 
141.64 -128.84 14.91 0.31 
142.26 -134.40 15.24 0.29 
55.68 -61.22 6.44 0.63 
16.60 -20.47 2.05 0.41 
16.08 -20.62 2.04 0.89 
22.42 -36.67 3.35 0.50 
64.08 -144.91 12.34 0.31 
33.76 -80.43 6.79 0.53 
3.30 -8.30 0.70 0.95 
64.79 -172.34 14.33 0.35 
35.41 -99.90 8.25 0.63 
44.95 -165.68 13.37 0.44 
41.22 -164.13 13.18 0.45 
-27.13 -157.72 12.46 0.46 
-30.27 -158.05 12.53 0.44 
-32.24 -139.49 11.15 0.40 
-29.45 -117.29 9.42 0.31 
-32.13 -118.41 9.55 0.18 
-34.01 -116.56 9.45 0.48 
-35.99 -115.21 9.40 0.41 
-33.41 -100.25 8.23 0.45 
-34.19 -96.46 7.97 0.28 
-36.37 -96.74 8.05 0.57 
-59.04 -148.45 12.44 0.35 
-33.89 -80.75 6.82 0.66 
-34.88 -78.88 6.72 0.57 
-35.97 -77.34 6.64 0.68 
-36.95 -75.68 6.56 0.40 
-38.69 -75.57 6.61 0.60 
-40.66 -75.86 6.70 0.51 
-44.04 -78.54 7.01 0.17 
-70.91 -121.05 10.92 0.56 
-72.72 -118.91 10.85 0.32 
-71.37 -111.90 10.33 0.37 
-73.28 -110.24 10.31 0.13 
-74.79 -108.02 10.23 0.57 
-57.16 -79.30 7.61 0.24 
-56.43 -75.25 7.32 0.56 
-58.44 -74.93 7.40 0.29 
-59.72 -73.65 7.38 0.35 
-65.80 -78.09 7.95 0.44 
-68.31 -78.02 8.07 0.62 
-68.41 -75.21 7.92 0.48 
-71.41 -75.58 8.10 0.57 
-79.75 -81.27 8.87 0.56 
-90.15 -88.46 9.83 0.58 
-92.33 -87.23 9.89 0.55 
-103.17 -80.47 10.19 0.53 
-106.14 -79.60 10.33 0.48 
-115.09 -82.96 11.05 0.48 
-31.96 -22.13 3.03 0.09 
-56.98 -26.50 4.89 0.51 
-131.75 -52.40 11.04 0.25 
-130.26 -48.97 10.84 0.39 
-135.73 -48.11 11.21 0.41 
-190.23 -55.50 15.43 0.28 
-186.78 -50.68 15.07 0.29 
-165.36 -41.52 13.27 0.39 
-46.03 -9.72 3.66 0.82 
-154.87 -23.63 12.20 0.27 
-148.26 -2.81 11.55 0.11 
-45.85 1.74 3.52 0.82 
-131.59 7.48 10.10 0.48 
-64.26 4.87 4.94 0.76 
-64.30 6.10 4.95 0.54 
-64.51 7.36 4.98 0.71 
-23.95 9.52 1.98 0.52 
-23.32 10.31 1.95 0.71 
-22.16 11.34 1.91 0.42 
-21.85 11.71 1.90 0.50 
-21.75 12.20 1.91 0.45 
-17.59 12.18 1.64 0.86 
-4.70 13.27 1.08 0.64 
-4.46 13.40 1.08 0.91 
5.36 23.21 1.83 0.70 
14.59 11.83 1.44 0.50 
14.65 11.42 1.42 0.92 
23.58 17.68 2.26 0.08 
23.75 17.12 2.24 0.77 
23.75 16.45 2.21 0.85 
35.09 12.44 2.85 0.81 
27.91 6.45 2.20 0.63 
28.24 5.97 2.21 0.20 
43.12 -5.75 3.33 0.23 
155.66 -29.82 12.15 0.16 
146.40 -30.92 11.47 0.52 
146.73 -33.91 11.54 0.51 
147.06 -36.93 11.62 0.51 
147.40 -39.99 11.71 0.50 
147.74 -43.10 11.80 0.50 
148.09 -46.27 11.89 0.49 
148.45 -49.48 11.99 0.48 
148.81 -52.75 12.10 0.48 
149.18 -56.08 12.22 0.47 
149.55 -59.47 12.34 0.46 
149.93 -62.94 12.47 0.45 
150.32 -66.47 12.60 0.45 
150.72 -70.09 12.74 0.44 
151.13 -73.79 12.89 0.43 
51.63 -26.43 4.45 0.61 
151.98 -81.47 13.22 0.41 
152.42 -85.46 13.40 0.40 
152.88 -89.55 13.58 0.39 
153.34 -93.77 13.78 0.38 
153.82 -98.11 13.99 0.37 
154.32 -102.58 14.20 0.36 
154.83 -107.20 14.44 0.35 
154.92 -111.66 14.64 0.31 
149.67 -112.24 14.34 0.32 
144.63 -112.80 14.06 0.33 
139.94 -113.47 13.81 0.34 
140.49 -118.39 14.08 0.33 
141.05 -123.50 14.37 0.32 
141.64 -128.84 14.68 0.31 
142.26 -134.40 15.00 0.29 
55.68 -61.21 6.34 0.63 
16.59 -20.47 2.02 0.41 
16.08 -20.62 2.00 0.89 
22.42 -36.67 3.29 0.50 
64.06 -144.87 12.14 0.31 
33.76 -80.42 6.69 0.53 
3.30 -8.30 0.68 0.95 
64.85 -172.52 14.13 0.35 
35.41 -99.90 8.13 0.63 
37.54 -120.16 9.65 0.19 
41.19 -164.05 12.97 0.45 
-27.04 -157.21 12.23 0.22 
-30.32 -158.31 12.36 0.40 
-32.12 -138.98 10.93 0.39 
-29.53 -117.60 9.29 0.46 
-31.93 -117.69 9.35 0.49 
-34.03 -116.64 9.31 0.48 
-36.00 -115.24 9.25 0.34 
-33.47 -100.40 8.11 0.30 
-34.04 -96.04 7.81 0.20 
-36.14 -96.13 7.87 0.41 
-37.87 -95.24 7.86 0.21 
-33.81 -80.54 6.70 0.69 
-34.63 -78.31 6.56 0.49 
-35.84 -77.08 6.52 0.51 
-36.91 -75.59 6.45 0.56 
-38.71 -75.62 6.51 0.61 
-40.83 -76.17 6.62 0.36 
-71.91 -128.26 11.27 0.41 
-70.77 -120.81 10.73 0.48 
-72.86 -119.14 10.71 0.24 
-71.49 -112.09 10.19 0.27 
-72.74 -109.42 10.07 0.49 
-74.88 -108.14 10.08 0.56 
-57.18 -79.34 7.50 0.51 
-56.47 -75.30 7.21 0.56 
-58.52 -75.03 7.29 0.38 
-60.06 -74.07 7.31 0.50 
-65.82 -78.11 7.83 0.44 
-67.28 -76.84 7.83 0.37 
-68.40 -75.20 7.79 0.52 
-71.15 -75.31 7.94 0.07 
-79.80 -81.33 8.73 0.56 
-90.19 -88.50 9.69 0.17 
-92.50 -87.39 9.75 0.47 
-103.20 -80.49 10.03 0.57 
-103.78 -77.83 9.94 0.20 
-114.07 -82.22 10.78 0.22 
-31.96 -22.13 2.98 0.09 
-56.98 -26.50 4.82 0.51 
-128.55 -51.12 10.61 0.31 
-133.35 -50.13 10.92 0.25 
-135.66 -48.09 11.03 0.41 
-190.23 -55.50 15.19 0.28 
-186.78 -50.68 14.84 0.29 
-165.36 -41.52 13.07 0.39 
-46.03 -9.72 3.61 0.82 
-154.87 -23.63 12.01 0.27 
-147.95 -2.80 11.34 0.11 
-45.85 1.74 3.46 0.82 
-131.50 7.47 9.94 0.32 
-64.27 4.87 4.86 0.75 
-176.16 16.72 13.35 0.49 
-64.53 7.36 4.90 0.75 
-23.95 9.52 1.94 0.52 
-23.32 10.31 1.92 0.71 
-22.11 11.32 1.87 0.45 
-21.81 11.69 1.87 0.50 
-21.71 12.17 1.88 0.45 
-17.59 12.18 1.61 0.86 
-4.70 13.27 1.06 0.64 
-4.46 13.39 1.07 0.91 
5.36 23.20 1.80 0.70 
5.80 23.10 1.80 0.87 
14.59 11.83 1.42 0.50 
14.65 11.42 1.40 0.92 
23.75 17.12 2.21 0.77 
23.75 16.45 2.18 0.85 
27.91 6.45 2.16 0.63 
28.25 5.97 2.18 0.20 
43.12 -5.75 3.28 0.23 
155.66 -29.82 11.96 0.16 
146.40 -30.92 11.29 0.52 
146.73 -33.91 11.36 0.51 
147.06 -36.93 11.44 0.51 
147.40 -39.99 11.52 0.50 
147.74 -43.10 11.61 0.50 
148.09 -46.27 11.71 0.49 
148.45 -49.48 11.81 0.48 
148.81 -52.75 11.91 0.48 
149.18 -56.08 12.03 0.47 
149.55 -59.47 12.14 0.46 
149.93 -62.94 12.27 0.45 
150.32 -66.47 12.40 0.45 
150.72 -70.09 12.54 0.44 
151.13 -73.79 12.69 0.43 
51.63 -26.43 4.38 0.61 
151.98 -81.47 13.01 0.41 
152.42 -85.46 13.19 0.40 
152.88 -89.55 13.37 0.39 
153.34 -93.77 13.56 0.38 
153.82 -98.11 13.77 0.37 
154.32 -102.58 13.98 0.36 
154.83 -107.20 14.21 0.35 
154.92 -111.66 14.41 0.31 
149.67 -112.24 14.12 0.32 
144.63 -112.80 13.84 0.33 
139.94 -113.47 13.59 0.34 
140.49 -118.39 13.86 0.33 
141.05 -123.50 14.15 0.32 
141.64 -128.83 14.45 0.31 
142.26 -134.40 14.77 0.29 
55.67 -61.21 6.24 0.63 
16.59 -20.46 1.99 0.41 
16.08 -20.62 1.97 0.89 
22.42 -36.66 3.24 0.50 
64.05 -144.83 11.95 0.31 
33.76 -80.42 6.58 0.53 
3.30 -8.30 0.67 0.95 
35.41 -99.91 8.00 0.63 
37.54 -120.15 9.50 0.19 
45.03 -165.97 12.98 0.31 
41.29 -164.44 12.79 0.49 
-27.03 -157.16 12.03 0.50 
-30.36 -158.49 12.18 0.20 
-32.20 -139.33 10.79 0.45 
-29.79 -118.64 9.23 0.19 
-32.20 -118.67 9.28 0.55 
-34.14 -117.03 9.20 0.58 
-36.02 -115.30 9.11 0.45 
-33.27 -99.81 7.94 0.19 
-34.13 -96.28 7.71 0.47 
-36.17 -96.23 7.76 0.25 
-37.47 -94.21 7.65 0.49 
-33.82 -80.57 6.59 0.69 
-34.95 -79.04 6.52 0.58 
-35.89 -77.17 6.42 0.51 
-36.94 -75.66 6.35 0.56 
-38.85 -75.90 6.43 0.39 
-40.82 -76.15 6.52 0.50 
-43.81 -78.15 6.76 0.48 
-70.51 -120.36 10.53 0.54 
-73.01 -119.40 10.56 0.45 
-71.64 -112.33 10.05 0.54 
-72.78 -109.48 9.92 0.49 
-75.15 -108.54 9.96 0.44 
-57.23 -79.40 7.39 0.51 
-56.70 -75.61 7.13 0.43 
-57.80 -74.11 7.09 0.66 
-60.16 -74.19 7.21 0.39 
-65.84 -78.13 7.71 0.44 
-67.07 -76.60 7.68 0.63 
-68.34 -75.14 7.66 0.62 
-71.55 -75.73 7.86 0.29 
-79.86 -81.38 8.60 0.33 
-90.50 -88.80 9.57 0.45 
-92.64 -87.52 9.62 0.50 
-103.74 -84.11 10.08 0.51 
-101.42 -79.10 9.71 0.54 
-113.10 -84.82 10.67 0.42 
-114.30 -82.39 10.63 0.53 
-31.96 -22.13 2.93 0.09 
-56.98 -26.50 4.74 0.51 
-128.37 -51.05 10.42 0.23 
-132.74 -49.90 10.70 0.25 
-135.59 -48.06 10.85 0.47 
-190.23 -55.50 14.95 0.28 
-186.78 -50.68 14.60 0.29 
-165.36 -41.53 12.86 0.39 
-165.51 -38.25 12.82 0.39 
-46.03 -9.72 3.55 0.82 
-154.85 -23.63 11.82 0.32 
-147.63 -2.79 11.14 0.11 
-154.51 -0.00 11.47 0.09 
-45.85 1.74 3.41 0.82 
-132.66 7.54 9.87 0.25 
-64.27 4.88 4.79 0.75 
-176.16 16.72 13.14 0.49 
-64.53 7.36 4.82 0.75 
-23.95 9.52 1.91 0.52 
-23.32 10.31 1.89 0.71 
-22.07 11.30 1.84 0.45 
-21.78 11.67 1.83 0.50 
-21.67 12.15 1.84 0.45 
-17.59 12.18 1.59 0.86 
-4.70 13.27 1.05 0.64 
-4.46 13.39 1.05 0.91 
5.36 23.20 1.77 0.70 
5.80 23.10 1.77 0.87 
14.59 11.83 1.39 0.50 
14.65 11.42 1.38 0.92 
23.75 17.12 2.17 0.77 
23.76 16.45 2.15 0.84 
27.91 6.45 2.13 0.63 
28.25 5.97 2.14 0.20 
43.12 -5.75 3.23 0.23 
155.66 -29.82 11.77 0.16 
146.40 -30.92 11.11 0.52 
146.73 -33.91 11.18 0.51 
147.06 -36.93 11.26 0.51 
147.40 -39.99 11.34 0.50 
147.74 -43.10 11.43 0.50 
148.09 -46.27 11.52 0.49 
148.45 -49.48 11.62 0.48 
148.81 -52.75 11.72 0.48 
149.18 -56.08 11.83 0.47 
149.55 -59.47 11.95 0.46 
149.93 -62.94 12.07 0.45 
150.32 -66.47 12.20 0.45 
150.72 -70.09 12.34 0.44 
151.13 -73.79 12.49 0.43 
51.63 -26.43 4.31 0.61 
151.98 -81.47 12.80 0.41 
152.42 -85.46 12.98 0.40 
152.88 -89.55 13.16 0.39 
153.34 -93.77 13.35 0.38 
153.82 -98.11 13.55 0.37 
154.32 -102.58 13.76 0.36 
154.83 -107.20 13.98 0.35 
154.92 -111.66 14.18 0.31 
149.67 -112.24 13.89 0.32 
144.63 -112.80 13.62 0.33 
139.94 -113.47 13.38 0.34 
140.49 -118.39 13.64 0.33 
141.05 -123.50 13.92 0.32 
141.64 -128.83 14.22 0.31 
142.26 -134.40 14.53 0.29 
55.67 -61.20 6.14 0.63 
16.59 -20.46 1.96 0.41 
16.08 -20.62 1.94 0.89 
22.42 -36.66 3.19 0.50 
64.03 -144.80 11.76 0.31 
33.75 -80.41 6.48 0.66 
3.30 -8.30 0.66 0.95 
35.41 -99.91 7.87 0.63 
37.53 -120.13 9.35 0.19 
45.01 -165.90 12.76 0.31 
41.29 -164.41 12.59 0.49 
-25.45 -191.01 14.31 0.46 
-27.05 -157.25 11.85 0.46 
-30.55 -159.51 12.06 0.45 
-32.22 -139.45 10.63 0.34 
-30.31 -120.69 9.24 0.28 
-31.79 -117.15 9.01 0.57 
-34.16 -117.08 9.06 0.58 
-36.10 -115.54 8.99 0.45 
-38.54 -115.62 9.05 0.18 
-34.17 -96.41 7.59 0.46 
-35.58 -94.64 7.51 0.42 
-38.22 -96.10 7.68 0.44 
-33.96 -80.91 6.52 0.56 
-34.70 -78.48 6.37 0.52 
-35.76 -76.89 6.30 0.37 
-36.98 -75.73 6.26 0.55 
-39.02 -76.22 6.36 0.55 
-41.78 -77.94 6.57 0.53 
-44.32 -79.05 6.73 0.29 
-71.10 -121.37 10.44 0.34 
-73.04 -119.45 10.40 0.46 
-70.42 -110.40 9.72 0.11 
-72.58 -109.18 9.73 0.32 
-75.18 -108.57 9.81 0.44 
-57.33 -79.54 7.28 0.21 
-56.75 -75.67 7.02 0.52 
-57.82 -74.14 6.98 0.66 
-60.13 -74.15 7.09 0.46 
-65.18 -77.34 7.51 0.34 
-67.32 -76.89 7.59 0.58 
-68.34 -75.14 7.54 0.62 
-71.70 -75.89 7.75 0.54 
-79.99 -81.51 8.48 0.33 
-90.55 -88.85 9.42 0.35 
-92.83 -87.70 9.48 0.30 
-101.62 -79.26 9.57 0.55 
-106.17 -79.62 9.85 0.27 
-114.40 -82.45 10.47 0.42 
-31.96 -22.13 2.88 0.09 
-56.98 -26.50 4.67 0.51 
-128.93 -51.27 10.30 0.42 
-132.59 -49.84 10.52 0.48 
-135.59 -48.06 10.68 0.47 
-190.23 -55.50 14.71 0.28 
-186.78 -50.68 14.37 0.29 
-165.37 -41.53 12.66 0.39 
-165.90 -38.34 12.64 0.26 
-46.03 -9.72 3.49 0.82 
-154.77 -23.61 11.63 0.32 
-147.32 -2.79 10.94 0.11 
-154.75 -0.00 11.30 0.46 
-45.85 1.74 3.35 0.82 
-133.17 7.57 9.74 0.33 
-64.28 4.88 4.71 0.73 
-176.16 16.72 12.93 0.49 
-64.53 7.36 4.74 0.75 
-23.95 9.52 1.88 0.52 
-25.11 10.54 1.99 0.03 
-23.32 10.31 1.86 0.71 
-22.03 11.28 1.81 0.46 
-21.74 11.66 1.80 0.55 
-21.63 12.13 1.81 0.45 
-28.71 17.56 2.46 0.44 
-17.59 12.18 1.56 0.86 
-4.70 13.27 1.03 0.64 
-4.46 13.39 1.03 0.91 
5.36 23.20 1.74 0.70 
5.79 23.04 1.74 0.38 
14.59 11.83 1.37 0.50 
14.65 11.42 1.36 0.92 
23.77 16.46 2.11 0.51 
27.91 6.45 2.09 0.63 
28.25 5.97 2.11 0.20 
43.13 -5.75 3.18 0.23 
155.66 -29.82 11.58 0.16 
146.40 -30.92 10.93 0.52 
146.73 -33.91 11.00 0.51 
147.06 -36.93 11.08 0.51 
147.40 -39.99 11.16 0.50 
147.74 -43.10 11.24 0.50 
148.09 -46.27 11.33 0.49 
148.45 -49.48 11.43 0.48 
148.81 -52.75 11.53 0.48 
149.18 -56.08 11.64 0.47 
149.55 -59.47 11.76 0.46 
149.93 -62.94 11.88 0.45 
150.32 -66.47 12.01 0.45 
150.72 -70.09 12.14 0.44 
151.13 -73.79 12.29 0.43 
51.63 -26.43 4.24 0.61 
151.98 -81.47 12.60 0.41 
152.42 -85.46 12.77 0.40 
152.88 -89.55 12.94 0.39 
153.34 -93.77 13.13 0.38 
153.82 -98.11 13.33 0.37 
154.32 -102.58 13.54 0.36 
154.83 -107.20 13.76 0.35 
154.92 -111.66 13.95 0.31 
149.67 -112.24 13.67 0.32 
144.63 -112.80 13.40 0.33 
139.94 -113.47 13.16 0.34 
140.49 -118.39 13.42 0.33 
141.05 -123.50 13.70 0.32 
141.64 -128.83 13.99 0.31 
142.26 -134.40 14.30 0.29 
55.67 -61.20 6.04 0.63 
16.59 -20.46 1.92 0.41 
16.08 -20.61 1.91 0.89 
22.41 -36.65 3.14 0.50 
64.01 -144.76 11.56 0.31 
33.75 -80.41 6.37 0.66 
3.30 -8.30 0.65 0.95 
35.41 -99.91 7.74 0.63 
37.52 -120.11 9.19 0.19 
45.14 -166.37 12.59 0.35 
-25.46 -191.03 14.08 0.44 
-27.08 -157.46 11.67 0.49 
-30.43 -158.88 11.82 0.42 
-32.27 -139.63 10.47 0.34 
-31.29 -124.61 9.39 0.17 
-31.58 -116.40 8.81 0.50 
-34.21 -117.24 8.92 0.33 
-36.14 -115.69 8.85 0.51 
-32.15 -96.46 7.43 0.47 
-34.15 -96.34 7.47 0.57 
-35.67 -94.88 7.40 0.47 
-37.66 -94.71 7.45 0.29 
-33.53 -79.87 6.33 0.12 
-34.75 -78.59 6.28 0.31 
-35.85 -77.10 6.21 0.55 
-37.07 -75.93 6.17 0.56 
-39.13 -76.44 6.27 0.62 
-41.80 -77.98 6.46 0.45 
-44.47 -79.32 6.64 0.12 
-70.93 -121.08 10.25 0.44 
-72.95 -119.30 10.22 0.49 
-70.02 -109.78 9.51 0.40 
-72.92 -109.69 9.62 0.10 
-75.23 -108.65 9.65 0.41 
-57.59 -79.89 7.19 0.40 
-57.36 -76.49 6.98 0.36 
-57.70 -73.98 6.85 0.30 
-60.49 -74.60 7.02 0.54 
-65.25 -77.43 7.40 0.34 
-66.82 -76.31 7.41 0.67 
-68.36 -75.16 7.42 0.62 
-72.63 -76.88 7.73 0.53 
-80.25 -81.79 8.37 0.56 
-90.77 -89.07 9.29 0.57 
-92.87 -87.74 9.33 0.48 
-102.70 -83.27 9.66 0.46 
-101.68 -79.31 9.42 0.22 
-105.01 -78.75 9.59 0.52 
-114.54 -82.56 10.31 0.40 
-31.96 -22.13 2.84 0.09 
-56.98 -26.50 4.59 0.51 
-132.37 -55.56 10.49 0.50 
-129.05 -51.32 10.15 0.47 
-132.63 -49.86 10.35 0.48 
-136.05 -48.23 10.54 0.40 
-190.23 -55.50 14.48 0.28 
-186.78 -50.68 14.14 0.29 
-165.37 -41.53 12.46 0.39 
-46.03 -9.72 3.44 0.82 
-154.69 -23.60 11.43 0.32 
-147.04 -2.78 10.74 0.25 
-154.81 -0.00 11.12 0.46 
-45.85 1.74 3.30 0.82 
-133.13 7.57 9.58 0.33 
-64.28 4.88 4.63 0.73 
-176.16 16.72 12.71 0.49 
-64.53 7.36 4.67 0.75 
-23.95 9.52 1.85 0.52 
-25.05 10.52 1.95 0.24 
-23.32 10.31 1.83 0.71 
-24.41 11.35 1.93 0.69 
-22.68 11.07 1.81 0.31 
-21.99 11.26 1.77 0.46 
-21.71 11.64 1.77 0.56 
-21.59 12.11 1.78 0.45 
-28.67 17.53 2.41 0.34 
-17.59 12.18 1.54 0.86 
-4.70 13.26 1.01 0.64 
-4.46 13.39 1.01 0.91 
5.36 23.19 1.71 0.70 
5.78 23.03 1.71 0.38 
14.59 11.83 1.35 0.50 
14.65 11.43 1.33 0.92 
23.80 16.48 2.08 0.51 
35.16 11.72 2.66 0.78 
27.91 6.45 2.06 0.63 
28.25 5.97 2.07 0.20 
43.13 -5.75 3.13 0.23 
155.66 -29.82 11.39 0.16 
146.40 -30.92 10.75 0.52 
146.73 -33.91 10.82 0.51 
147.06 -36.93 10.89 0.51 
147.40 -39.99 10.97 0.50 
147.74 -43.10 11.06 0.50 
148.09 -46.27 11.15 0.49 
148.45 -49.48 11.24 0.48 
148.81 -52.75 11.34 0.48 
149.18 -56.08 11.45 0.47 
149.55 -59.47 11.56 0.46 
149.93 -62.94 11.68 0.45 
150.32 -66.47 11.81 0.45 
150.72 -70.09 11.94 0.44 
151.13 -73.79 12.08 0.43 
51.63 -26.43 4.17 0.61 
151.98 -81.47 12.39 0.41 
152.42 -85.46 12.56 0.40 
152.88 -89.55 12.73 0.39 
153.34 -93.77 12.91 0.38 
153.82 -98.11 13.11 0.37 
154.32 -102.58 13.31 0.36 
154.83 -107.20 13.53 0.35 
154.92 -111.66 13.72 0.31 
149.67 -112.24 13.44 0.32 
144.63 -112.80 13.18 0.33 
139.94 -113.47 12.94 0.34 
140.49 -118.39 13.20 0.33 
141.05 -123.50 13.47 0.32 
141.64 -128.83 13.76 0.31 
142.26 -134.40 14.06 0.29 
55.66 -61.19 5.94 0.63 
16.58 -20.45 1.89 0.41 
16.08 -20.61 1.88 0.89 
22.41 -36.65 3.09 0.50 
64.00 -144.72 11.37 0.31 
33.75 -80.40 6.27 0.66 
3.30 -8.30 0.64 0.95 
35.41 -99.91 7.62 0.63 
37.52 -120.10 9.04 0.19 
-22.13 -194.06 14.03 0.23 
-25.47 -191.16 13.86 0.35 
-26.97 -176.78 12.85 0.48 
-26.97 -156.83 11.43 0.49 
-30.63 -159.91 11.70 0.11 
-32.43 -140.34 10.35 0.37 
-30.23 -120.38 8.92 0.29 
-31.62 -116.53 8.68 0.42 
-34.02 -116.62 8.73 0.51 
-36.19 -115.85 8.72 0.47 
-32.25 -96.76 7.33 0.50 
-34.24 -96.60 7.36 0.53 
-35.76 -95.12 7.30 0.40 
-58.23 -146.43 11.32 0.48 
-33.60 -80.05 6.24 0.53 
-34.82 -78.75 6.19 0.31 
-36.09 -77.61 6.15 0.44 
-37.11 -76.01 6.08 0.55 
-39.26 -76.70 6.19 0.47 
-41.86 -78.10 6.37 0.45 
-43.56 -77.70 6.40 0.20 
-71.24 -121.62 10.13 0.22 
-73.07 -119.49 10.06 0.51 
-70.72 -110.87 9.45 0.24 
-73.42 -110.45 9.53 0.16 
-75.48 -109.02 9.53 0.52 
-71.11 -98.66 8.74 0.35 
-57.11 -76.16 6.84 0.36 
-57.71 -74.00 6.74 0.64 
-60.92 -75.13 6.95 0.64 
-66.10 -78.44 7.37 0.63 
-67.16 -76.70 7.32 0.59 
-68.38 -75.18 7.30 0.61 
-70.16 -74.26 7.34 0.49 
-80.30 -81.84 8.24 0.56 
-90.54 -88.85 9.11 0.30 
-91.07 -86.04 9.00 0.30 
-100.60 -81.57 9.31 0.59 
-101.80 -79.40 9.28 0.55 
-103.95 -77.96 9.34 0.16 
-115.27 -83.08 10.21 0.45 
-31.96 -22.13 2.79 0.09 
-56.98 -26.50 4.51 0.51 
-132.33 -55.55 10.31 0.55 
-129.10 -51.34 9.98 0.47 
-134.15 -50.43 10.30 0.50 
-138.56 -49.12 10.56 0.50 
-190.23 -55.50 14.24 0.28 
-186.78 -50.68 13.91 0.29 
-165.37 -41.53 12.25 0.39 
-67.33 -15.56 4.97 0.72 
-46.03 -9.72 3.38 0.82 
-67.61 -12.95 4.95 0.72 
-154.61 -23.59 11.24 0.32 
-149.92 -2.84 10.77 0.34 
-154.87 -0.00 10.94 0.45 
-45.85 1.74 3.24 0.82 
-133.09 7.56 9.42 0.33 
-64.28 4.88 4.55 0.73 
-176.17 16.72 12.50 0.49 
-64.53 7.36 4.59 0.75 
-23.95 9.52 1.82 0.52 
-25.00 10.50 1.92 0.24 
-23.32 10.31 1.80 0.71 
-24.40 11.35 1.90 0.69 
-22.68 11.07 1.78 0.31 
-21.95 11.24 1.74 0.63 
-21.68 11.62 1.74 0.56 
-21.59 12.10 1.75 0.63 
-28.62 17.50 2.37 0.59 
-17.59 12.18 1.51 0.86 
-4.70 13.26 0.99 0.64 
-4.46 13.39 1.00 0.91 
5.36 23.19 1.68 0.70 
5.78 23.03 1.68 0.38 
14.59 11.83 1.33 0.50 
14.65 11.43 1.31 0.92 
27.91 6.45 2.02 0.64 
28.25 5.97 2.04 0.20 
43.13 -5.75 3.07 0.23 
155.66 -29.82 11.20 0.16 
146.40 -30.92 10.57 0.52 
146.73 -33.91 10.64 0.51 
147.06 -36.93 10.71 0.51 
147.40 -39.99 10.79 0.50 
147.74 -43.10 10.87 0.50 
148.09 -46.27 10.96 0.49 
148.45 -49.48 11.05 0.48 
148.81 -52.75 11.15 0.48 
149.18 -56.08 11.26 0.47 
149.55 -59.47 11.37 0.46 
149.93 -62.94 11.49 0.45 
150.32 -66.47 11.61 0.45 
150.72 -70.09 11.74 0.44 
151.13 -73.79 11.88 0.43 
51.63 -26.43 4.10 0.61 
151.98 -81.47 12.18 0.41 
152.42 -85.46 12.35 0.40 
152.88 -89.55 12.52 0.39 
153.34 -93.77 12.70 0.38 
153.82 -98.11 12.89 0.37 
154.32 -102.58 13.09 0.36 
154.83 -107.20 13.30 0.35 
154.92 -111.66 13.49 0.31 
149.67 -112.24 13.22 0.32 
144.63 -112.80 12.96 0.33 
139.94 -113.47 12.73 0.34 
140.49 -118.39 12.98 0.33 
141.05 -123.50 13.24 0.32 
141.64 -128.83 13.53 0.31 
142.26 -134.40 13.83 0.29 
55.66 -61.19 5.84 0.63 
16.58 -20.45 1.86 0.41 
16.08 -20.61 1.85 0.89 
22.41 -36.64 3.03 0.50 
38.47 -75.15 5.96 0.40 
33.75 -80.40 6.16 0.66 
3.30 -8.30 0.63 0.95 
35.41 -99.91 7.49 0.63 
37.51 -120.08 8.89 0.19 
-22.09 -193.73 13.78 0.28 
-25.51 -191.46 13.65 0.31 
-26.98 -176.81 12.64 0.47 
-27.00 -156.98 11.25 0.50 
-30.67 -160.13 11.52 0.24 
-30.23 -143.09 10.33 0.31 
-32.07 -138.79 10.06 0.38 
-29.85 -118.87 8.66 0.56 
-31.57 -116.36 8.52 0.57 
-34.05 -116.70 8.59 0.51 
-36.39 -116.47 8.62 0.45 
-24.77 -74.30 5.53 0.53 
-34.26 -96.65 7.24 0.46 
-35.91 -95.52 7.21 0.52 
-38.66 -97.21 7.39 0.51 
-33.61 -80.08 6.14 0.39 
-34.91 -78.94 6.10 0.62 
-36.15 -77.74 6.06 0.67 
-37.20 -76.19 5.99 0.11 
-39.40 -76.96 6.11 0.54 
-41.93 -78.22 6.27 0.45 
-69.69 -124.30 10.07 0.39 
-71.31 -121.73 9.97 0.34 
-73.22 -119.73 9.91 0.34 
-70.59 -110.67 9.27 0.40 
-72.55 -109.14 9.26 0.51 
-75.54 -109.10 9.38 0.10 
-58.17 -80.71 7.03 0.31 
-56.67 -75.57 6.67 0.63 
-57.73 -74.03 6.63 0.64 
-60.95 -75.17 6.84 0.55 
-66.08 -78.42 7.24 0.64 
-66.92 -76.43 7.18 0.60 
-68.58 -75.40 7.20 0.13 
-70.26 -74.37 7.23 0.44 
-80.43 -81.97 8.11 0.19 
-90.80 -89.10 8.99 0.41 
-91.10 -86.07 8.85 0.30 
-100.64 -81.60 9.15 0.56 
-101.85 -79.44 9.13 0.51 
-104.51 -78.37 9.23 0.43 
-115.60 -83.32 10.07 0.52 
-31.96 -22.13 2.74 0.09 
-56.98 -26.50 4.44 0.51 
-129.15 -51.36 9.82 0.47 
-134.11 -50.41 10.12 0.50 
-190.23 -55.50 14.00 0.28 
-186.78 -50.68 13.67 0.29 
-165.80 -41.63 12.08 0.39 
-67.35 -15.56 4.88 0.75 
-46.03 -9.72 3.32 0.82 
-155.57 -23.73 11.12 0.51 
-149.93 -2.84 10.59 0.34 
-45.85 1.74 3.19 0.82 
-133.57 7.59 9.29 0.50 
-64.28 4.88 4.48 0.75 
-64.53 7.36 4.51 0.75 
-23.95 9.52 1.79 0.52 
-38.68 16.24 2.91 0.66 
-23.32 10.31 1.77 0.71 
-24.38 11.34 1.87 0.67 
-22.68 11.07 1.75 0.32 
-21.95 11.23 1.71 0.64 
-21.65 11.61 1.71 0.84 
-21.59 12.10 1.72 0.63 
-28.46 16.67 2.29 0.51 
-28.58 17.48 2.33 0.48 
-17.59 12.18 1.49 0.86 
-4.70 13.26 0.98 0.64 
-4.46 13.39 0.98 0.91 
5.36 23.18 1.65 0.70 
5.78 23.03 1.65 0.38 
14.59 11.83 1.30 0.50 
14.65 11.43 1.29 0.92 
35.18 11.72 2.57 0.17 
27.91 6.45 1.99 0.64 
28.25 5.97 2.01 0.20 
43.14 -5.75 3.02 0.23 
155.66 -29.82 11.01 0.16 
146.40 -30.92 10.39 0.52 
146.73 -33.91 10.46 0.51 
147.06 -36.93 10.53 0.51 
147.40 -39.99 10.61 0.50 
147.74 -43.10 10.69 0.50 
148.09 -46.27 10.77 0.49 
148.45 -49.48 10.87 0.48 
148.81 -52.75 10.96 0.48 
149.18 -56.08 11.07 0.47 
149.55 -59.47 11.18 0.46 
149.93 -62.94 11.29 0.45 
150.32 -66.47 11.41 0.45 
150.72 -70.09 11.54 0.44 
151.13 -73.79 11.68 0.43 
51.63 -26.43 4.03 0.61 
151.98 -81.47 11.98 0.41 
152.42 -85.46 12.14 0.40 
152.88 -89.55 12.30 0.39 
153.34 -93.77 12.48 0.38 
153.82 -98.11 12.67 0.37 
154.32 -102.58 12.87 0.36 
154.83 -107.20 13.08 0.35 
154.92 -111.66 13.26 0.31 
149.67 -112.24 12.99 0.32 
144.63 -112.80 12.74 0.33 
139.94 -113.47 12.51 0.34 
140.49 -118.39 12.76 0.33 
141.05 -123.50 13.02 0.32 
141.64 -128.83 13.30 0.31 
142.26 -134.40 13.59 0.29 
55.65 -61.18 5.74 0.63 
16.58 -20.45 1.83 0.41 
16.07 -20.61 1.82 0.89 
22.41 -36.64 2.98 0.50 
33.75 -80.40 6.06 0.66 
3.30 -8.30 0.62 0.95 
35.42 -99.91 7.36 0.63 
37.51 -120.06 8.74 0.19 
-23.82 -178.74 12.52 0.42 
-27.08 -177.50 12.47 0.48 
-27.00 -156.99 11.06 0.46 
-29.68 -140.52 9.97 0.13 
-32.08 -138.82 9.89 0.48 
-29.86 -118.91 8.51 0.56 
-31.59 -116.42 8.38 0.57 
-34.09 -116.84 8.45 0.45 
-36.08 -115.50 8.40 0.55 
-32.69 -98.08 7.18 0.30 
-33.65 -94.92 6.99 0.64 
-35.87 -95.43 7.08 0.47 
-37.82 -95.11 7.11 0.26 
-33.59 -80.01 6.03 0.66 
-34.99 -79.12 6.01 0.22 
-36.17 -77.78 5.96 0.67 
-37.27 -76.34 5.90 0.54 
-38.92 -76.02 5.93 0.42 
-41.05 -76.59 6.03 0.37 
-72.25 -128.87 10.26 0.38 
-71.48 -122.03 9.82 0.35 
-73.10 -119.55 9.73 0.29 
-72.48 -113.64 9.36 0.18 
-72.62 -109.24 9.11 0.44 
-77.73 -112.26 9.48 0.20 
-57.99 -80.45 6.89 0.21 
-56.72 -75.63 6.57 0.53 
-57.77 -74.07 6.52 0.59 
-61.00 -75.23 6.73 0.49 
-65.57 -77.81 7.07 0.64 
-66.93 -76.45 7.06 0.60 
-70.82 -77.86 7.31 0.54 
-70.61 -74.74 7.14 0.23 
-80.61 -82.15 7.99 0.48 
-90.83 -89.12 8.84 0.39 
-91.30 -86.26 8.72 0.32 
-100.69 -81.64 9.00 0.59 
-102.10 -79.63 8.99 0.16 
-105.30 -78.97 9.14 0.41 
-115.79 -83.46 9.91 0.43 
-31.96 -22.13 2.70 0.09 
-56.98 -26.50 4.36 0.51 
-129.39 -51.45 9.67 0.40 
-130.85 -49.19 9.71 0.49 
-190.23 -55.50 13.76 0.28 
-188.90 -51.25 13.59 0.31 
-165.80 -41.64 11.87 0.39 
-67.35 -15.56 4.80 0.74 
-46.03 -9.72 3.27 0.82 
-155.57 -23.74 10.93 0.51 
-149.94 -2.84 10.41 0.34 
-45.85 1.74 3.13 0.82 
-133.64 7.60 9.13 0.50 
-64.28 4.88 4.40 0.75 
-176.64 16.77 12.11 0.16 
-64.53 7.36 4.43 0.75 
-23.95 9.52 1.76 0.52 
-23.32 10.31 1.74 0.71 
-24.37 11.33 1.83 0.67 
-22.68 11.07 1.72 0.32 
-21.95 11.24 1.68 0.64 
-21.66 11.61 1.68 0.90 
-21.59 12.11 1.69 0.63 
-28.65 16.78 2.27 0.29 
-28.55 17.46 2.28 0.82 
-17.59 12.18 1.46 0.86 
-4.70 13.26 0.96 0.64 
-4.46 13.39 0.96 0.91 
5.36 23.18 1.62 0.70 
5.78 23.02 1.62 0.38 
14.59 11.83 1.28 0.50 
14.65 11.43 1.27 0.92 
35.16 11.72 2.53 0.62 
27.91 6.45 1.95 0.64 
28.25 5.97 1.97 0.20 
43.14 -5.75 2.97 0.23 
155.66 -29.82 10.82 0.16 
146.40 -30.92 10.21 0.52 
146.73 -33.91 10.28 0.51 
147.06 -36.93 10.35 0.51 
147.40 -39.99 10.42 0.50 
147.74 -43.10 10.50 0.50 
148.09 -46.27 10.59 0.49 
148.45 -49.48 10.68 0.48 
148.81 -52.75 10.77 0.48 
149.18 -56.08 10.88 0.47 
149.55 -59.47 10.98 0.46 
149.93 -62.94 11.10 0.45 
150.32 -66.47 11.22 0.45 
150.72 -70.09 11.34 0.44 
151.13 -73.79 11.48 0.43 
51.63 -26.43 3.96 0.61 
151.98 -81.47 11.77 0.41 
152.42 -85.46 11.93 0.40 
152.88 -89.55 12.09 0.39 
153.34 -93.77 12.27 0.38 
153.82 -98.11 12.45 0.37 
154.32 -102.58 12.65 0.36 
154.83 -107.20 12.85 0.35 
154.92 -111.66 13.03 0.31 
149.67 -112.24 12.77 0.32 
144.63 -112.80 12.52 0.33 
139.94 -113.47 12.30 0.34 
140.49 -118.39 12.54 0.33 
141.05 -123.50 12.79 0.32 
141.64 -128.83 13.07 0.31 
142.26 -134.40 13.36 0.29 
55.65 -61.18 5.64 0.63 
16.58 -20.44 1.80 0.41 
16.07 -20.61 1.78 0.89 
22.40 -36.64 2.93 0.51 
33.75 -80.39 5.95 0.66 
3.30 -8.30 0.61 0.95 
35.42 -99.91 7.23 0.63 
37.50 -120.05 8.58 0.19 
-25.32 -189.98 13.08 0.43 
-27.09 -177.56 12.26 0.40 
-27.03 -157.16 10.88 0.40 
-30.42 -158.79 11.03 0.19 
-30.21 -143.03 9.98 0.37 
-32.11 -138.94 9.73 0.42 
-29.88 -118.98 8.37 0.48 
-31.94 -117.71 8.32 0.46 
-34.16 -117.08 8.32 0.37 
-36.13 -115.65 8.27 0.60 
-32.57 -97.72 7.03 0.59 
-33.67 -94.99 6.88 0.55 
-35.93 -95.57 6.97 0.34 
-38.62 -97.12 7.13 0.24 
-35.21 -83.88 6.21 0.53 
-35.20 -79.59 5.94 0.17 
-35.65 -76.67 5.77 0.50 
-37.29 -76.38 5.80 0.60 
-38.99 -76.16 5.84 0.41 
-41.13 -76.73 5.94 0.37 
-44.12 -78.70 6.16 0.43 
-71.00 -121.21 9.59 0.43 
-73.20 -119.71 9.58 0.29 
-83.06 -130.23 10.54 0.23 
-72.69 -109.35 8.96 0.46 
-84.85 -122.55 10.17 0.54 
-58.13 -80.65 6.78 0.44 
-56.82 -75.76 6.46 0.48 
-57.81 -74.13 6.42 0.59 
-58.73 -72.43 6.36 0.54 
-65.69 -77.95 6.96 0.11 
-67.09 -76.63 6.95 0.65 
-70.56 -77.58 7.16 0.29 
-70.67 -74.80 7.02 0.09 
-80.70 -82.24 7.86 0.48 
-90.84 -89.14 8.69 0.18 
-91.25 -86.21 8.57 0.52 
-100.72 -81.67 8.85 0.43 
-102.05 -79.59 8.83 0.35 
-106.34 -79.75 9.07 0.41 
-113.10 -81.52 9.51 0.52 
-31.96 -22.13 2.65 0.09 
-56.98 -26.50 4.29 0.51 
-129.74 -51.60 9.53 0.49 
-130.78 -49.16 9.53 0.53 
-165.81 -41.64 11.67 0.39 
-67.35 -15.56 4.72 0.74 
-46.03 -9.72 3.21 0.82 
-87.53 -13.35 6.04 0.56 
-150.93 -2.86 10.30 0.36 
-133.70 7.60 8.98 0.50 
-64.28 4.88 4.32 0.76 
-176.61 16.76 11.89 0.16 
-64.53 7.36 4.35 0.75 
-23.95 9.52 1.73 0.52 
-23.32 10.31 1.71 0.71 
-22.68 11.07 1.69 0.32 
-21.95 11.24 1.65 0.64 
-21.65 11.61 1.65 0.90 
-21.60 12.11 1.66 0.63 
-22.69 13.29 1.76 0.13 
-28.64 17.51 2.25 0.80 
-17.58 12.18 1.43 0.86 
-4.70 13.26 0.94 0.64 
-4.46 13.39 0.95 0.91 
5.36 23.18 1.59 0.70 
5.78 23.00 1.59 0.44 
14.59 11.83 1.26 0.50 
14.65 11.43 1.25 0.92 
35.15 11.71 2.48 0.58 
27.91 6.45 1.92 0.64 
28.25 5.97 1.94 0.20 
43.14 -5.75 2.92 0.23 
155.66 -29.82 10.63 0.16 
146.40 -30.92 10.03 0.52 
146.73 -33.91 10.10 0.51 
147.06 -36.93 10.17 0.51 
147.40 -39.99 10.24 0.50 
147.74 -43.10 10.32 0.50 
