VERSION 0.7
FIELDS x y z intensity
SIZE 4 4 4 8
TYPE F F F F
COUNT 1 1 1 1
WIDTH 2076
HEIGHT 1
VIEWPOINT 0.0 0.0 0.0 1.0 0.0 0.0 0.0
POINTS 2076
DATA ascii
-0.51 -6.78 -1.68 0.23 
-0.64 -6.77 -1.68 0.23 
-0.77 -6.75 -1.68 0.23 
-0.90 -6.74 -1.68 0.23 
-1.02 -6.72 -1.68 0.23 
-1.15 -6.70 -1.68 0.23 
-1.28 -6.67 -1.68 0.23 
-1.40 -6.65 -1.68 0.23 
-1.53 -6.62 -1.68 0.23 
-1.66 -6.59 -1.68 0.23 
-1.78 -6.56 -1.68 0.23 
-1.90 -6.52 -1.68 0.23 
-2.03 -6.49 -1.68 0.23 
-2.15 -6.45 -1.68 0.23 
-2.27 -6.41 -1.68 0.23 
-2.39 -6.36 -1.68 0.23 
-2.51 -6.31 -1.68 0.23 
-1.61 -3.83 -1.03 0.31 
-1.61 -3.65 -0.99 0.44 
-1.62 -3.49 -0.95 0.49 
-1.64 -3.36 -0.93 0.51 
-1.66 -3.24 -0.90 0.59 
-1.68 -3.14 -0.88 0.61 
-1.71 -3.06 -0.87 0.69 
-1.75 -2.99 -0.86 0.80 
-1.80 -2.95 -0.86 0.97 
-1.86 -2.92 -0.86 0.97 
-1.93 -2.91 -0.87 0.86 
-2.01 -2.90 -0.87 0.87 
-2.09 -2.90 -0.88 0.78 
-2.17 -2.90 -0.90 0.80 
-2.26 -2.90 -0.91 0.79 
-2.35 -2.90 -0.92 0.73 
-2.44 -2.90 -0.94 0.72 
-2.54 -2.90 -0.96 0.71 
-2.64 -2.91 -0.97 0.70 
-2.75 -2.91 -0.99 0.64 
-2.87 -2.92 -1.01 0.64 
-2.99 -2.93 -1.04 0.56 
-3.13 -2.95 -1.06 0.55 
-3.27 -2.98 -1.10 0.50 
-3.44 -3.01 -1.13 0.39 
-5.20 -4.38 -1.68 0.23 
-5.28 -4.28 -1.68 0.23 
-5.36 -4.18 -1.68 0.23 
-5.44 -4.08 -1.68 0.23 
-5.51 -3.97 -1.68 0.23 
-5.59 -3.87 -1.68 0.23 
-5.66 -3.76 -1.68 0.23 
-5.73 -3.65 -1.68 0.23 
-5.80 -3.54 -1.68 0.23 
-5.86 -3.43 -1.68 0.23 
-5.93 -3.32 -1.68 0.23 
-5.99 -3.21 -1.68 0.23 
-6.05 -3.10 -1.68 0.23 
-6.11 -2.98 -1.68 0.23 
-6.16 -2.86 -1.68 0.23 
-6.21 -2.75 -1.68 0.23 
-6.26 -2.63 -1.68 0.23 
-0.77 -0.30 -0.20 0.21 
-0.77 -0.29 -0.20 0.21 
-0.78 -0.28 -0.20 0.21 
-0.78 -0.26 -0.20 0.21 
-0.79 -0.25 -0.20 0.21 
-0.79 -0.23 -0.20 0.21 
-0.79 -0.22 -0.20 0.21 
-0.80 -0.20 -0.20 0.21 
-0.80 -0.19 -0.20 0.21 
-0.80 -0.17 -0.20 0.22 
-0.81 -0.15 -0.20 0.22 
-0.81 -0.14 -0.20 0.22 
-0.81 -0.12 -0.20 0.22 
-0.81 -0.11 -0.20 0.22 
-0.82 -0.09 -0.20 0.22 
-0.82 -0.08 -0.20 0.22 
-0.82 -0.06 -0.20 0.22 
-0.82 -0.05 -0.20 0.22 
-0.82 -0.03 -0.20 0.21 
-0.82 -0.02 -0.20 0.21 
-0.81 -0.00 -0.20 0.21 
-0.81 0.02 -0.20 0.21 
-0.81 0.03 -0.20 0.21 
-0.81 0.05 -0.20 0.21 
-0.81 0.06 -0.20 0.21 
-0.81 0.08 -0.20 0.21 
-0.81 0.09 -0.20 0.21 
-0.81 0.11 -0.20 0.21 
-0.80 0.12 -0.20 0.21 
-0.80 0.14 -0.20 0.21 
-0.80 0.15 -0.20 0.22 
-0.80 0.17 -0.20 0.22 
-0.79 0.18 -0.20 0.22 
-0.79 0.20 -0.20 0.22 
-0.78 0.21 -0.20 0.22 
-0.78 0.23 -0.20 0.22 
-0.78 0.24 -0.20 0.22 
-0.77 0.26 -0.20 0.22 
-0.77 0.27 -0.20 0.22 
-0.76 0.29 -0.20 0.22 
-0.76 0.30 -0.20 0.22 
-0.75 0.31 -0.20 0.22 
-0.74 0.33 -0.20 0.22 
-0.74 0.34 -0.20 0.21 
-0.73 0.36 -0.20 0.21 
-0.72 0.37 -0.20 0.21 
-0.72 0.38 -0.20 0.21 
-0.71 0.40 -0.20 0.21 
-0.70 0.41 -0.20 0.21 
-0.69 0.42 -0.20 0.21 
-0.69 0.44 -0.20 0.21 
-5.63 3.74 -1.68 0.23 
-5.56 3.85 -1.68 0.23 
-5.48 3.95 -1.68 0.23 
-5.41 4.05 -1.68 0.23 
-5.33 4.16 -1.68 0.23 
-5.25 4.26 -1.68 0.23 
-5.17 4.35 -1.68 0.23 
-5.08 4.45 -1.68 0.23 
-5.00 4.55 -1.68 0.23 
-4.91 4.64 -1.68 0.23 
-4.82 4.73 -1.68 0.23 
-4.73 4.82 -1.68 0.23 
-4.64 4.91 -1.68 0.23 
-4.55 5.00 -1.68 0.23 
-4.45 5.08 -1.68 0.23 
-4.35 5.17 -1.68 0.23 
-4.26 5.25 -1.68 0.23 
-4.16 5.33 -1.68 0.23 
-4.05 5.41 -1.68 0.23 
-3.95 5.48 -1.68 0.23 
-3.85 5.56 -1.68 0.23 
-3.74 5.63 -1.68 0.23 
-3.63 5.70 -1.68 0.23 
-3.53 5.77 -1.68 0.23 
-3.42 5.83 -1.68 0.23 
-3.30 5.89 -1.68 0.23 
-3.19 5.96 -1.68 0.23 
-3.08 6.02 -1.68 0.23 
-2.96 6.07 -1.68 0.23 
-2.85 6.13 -1.68 0.23 
-2.73 6.18 -1.68 0.23 
-2.62 6.23 -1.68 0.23 
-2.50 6.28 -1.68 0.23 
-2.26 6.01 -1.60 0.90 
-2.13 6.01 -1.59 0.90 
-2.00 6.01 -1.58 0.90 
-1.88 6.01 -1.57 0.90 
-1.89 6.49 -1.68 0.23 
-1.77 6.52 -1.68 0.23 
-1.65 6.55 -1.68 0.23 
-1.52 6.58 -1.68 0.23 
-1.40 6.61 -1.68 0.23 
-1.27 6.64 -1.68 0.23 
-1.15 6.66 -1.68 0.23 
-1.02 6.68 -1.68 0.23 
-0.89 6.70 -1.68 0.23 
-0.77 6.71 -1.68 0.23 
-0.64 6.73 -1.68 0.23 
-0.51 6.74 -1.68 0.23 
-0.38 6.75 -1.68 0.23 
-0.26 6.75 -1.68 0.23 
-0.13 6.76 -1.68 0.23 
-0.00 6.76 -1.68 0.23 
0.13 6.76 -1.68 0.23 
0.26 6.75 -1.68 0.23 
0.38 6.75 -1.68 0.23 
0.51 6.74 -1.68 0.23 
0.64 6.73 -1.68 0.23 
0.77 6.71 -1.68 0.23 
0.89 6.70 -1.68 0.23 
1.02 6.68 -1.68 0.23 
1.15 6.66 -1.68 0.23 
1.27 6.64 -1.68 0.23 
1.40 6.61 -1.68 0.23 
1.52 6.58 -1.68 0.23 
1.65 6.55 -1.68 0.23 
1.77 6.52 -1.68 0.23 
1.89 6.49 -1.68 0.23 
2.02 6.45 -1.68 0.23 
2.14 6.41 -1.68 0.23 
2.26 6.37 -1.68 0.23 
2.38 6.33 -1.68 0.23 
2.50 6.28 -1.68 0.23 
2.62 6.23 -1.68 0.23 
2.73 6.18 -1.68 0.23 
2.85 6.13 -1.68 0.23 
2.97 6.07 -1.68 0.23 
3.08 6.02 -1.68 0.23 
3.19 5.96 -1.68 0.23 
3.31 5.90 -1.68 0.23 
3.42 5.83 -1.68 0.23 
3.53 5.77 -1.68 0.23 
3.63 5.70 -1.68 0.23 
3.74 5.63 -1.68 0.23 
3.85 5.56 -1.68 0.23 
3.95 5.48 -1.68 0.23 
4.05 5.41 -1.68 0.23 
4.16 5.33 -1.68 0.23 
4.26 5.25 -1.68 0.23 
4.36 5.17 -1.68 0.23 
4.45 5.09 -1.68 0.23 
4.55 5.00 -1.68 0.23 
4.64 4.91 -1.68 0.23 
4.73 4.82 -1.68 0.23 
4.82 4.73 -1.68 0.23 
4.91 4.64 -1.68 0.23 
5.00 4.55 -1.68 0.23 
5.09 4.45 -1.68 0.23 
5.17 4.36 -1.68 0.23 
5.25 4.26 -1.68 0.23 
5.33 4.16 -1.68 0.23 
5.41 4.06 -1.68 0.23 
5.48 3.95 -1.68 0.23 
5.56 3.85 -1.68 0.23 
5.63 3.74 -1.68 0.23 
5.70 3.63 -1.68 0.23 
5.77 3.53 -1.68 0.23 
5.83 3.42 -1.68 0.23 
5.90 3.31 -1.68 0.23 
5.96 3.19 -1.68 0.23 
5.40 2.76 -1.51 0.78 
5.44 2.65 -1.51 0.42 
5.71 2.65 -1.57 0.40 
6.18 2.73 -1.68 0.23 
6.23 2.62 -1.68 0.23 
6.28 2.50 -1.68 0.23 
6.33 2.38 -1.68 0.23 
6.37 2.26 -1.68 0.23 
6.41 2.14 -1.68 0.23 
6.45 2.02 -1.68 0.23 
6.49 1.89 -1.68 0.23 
6.52 1.77 -1.68 0.23 
6.56 1.65 -1.68 0.23 
6.59 1.52 -1.68 0.23 
6.61 1.40 -1.68 0.23 
6.64 1.27 -1.68 0.23 
6.66 1.15 -1.68 0.23 
6.68 1.02 -1.68 0.23 
6.70 0.89 -1.68 0.23 
6.72 0.77 -1.68 0.23 
6.73 0.64 -1.68 0.23 
6.74 0.51 -1.68 0.23 
6.75 0.38 -1.68 0.23 
6.76 0.26 -1.68 0.23 
6.76 0.13 -1.68 0.23 
6.76 -0.00 -1.68 0.23 
6.76 -0.13 -1.68 0.23 
6.76 -0.26 -1.68 0.23 
6.75 -0.38 -1.68 0.23 
6.74 -0.51 -1.68 0.23 
6.73 -0.64 -1.68 0.23 
6.72 -0.77 -1.68 0.23 
6.70 -0.89 -1.68 0.23 
6.68 -1.02 -1.68 0.23 
6.66 -1.15 -1.68 0.23 
6.64 -1.27 -1.68 0.23 
6.61 -1.40 -1.68 0.23 
6.59 -1.52 -1.68 0.23 
6.56 -1.65 -1.68 0.23 
6.53 -1.77 -1.68 0.23 
6.49 -1.89 -1.68 0.23 
6.45 -2.02 -1.68 0.23 
6.41 -2.14 -1.68 0.23 
6.37 -2.26 -1.68 0.23 
6.33 -2.38 -1.68 0.23 
6.28 -2.50 -1.68 0.23 
6.23 -2.62 -1.68 0.23 
6.18 -2.73 -1.68 0.23 
6.13 -2.85 -1.68 0.23 
6.08 -2.97 -1.68 0.23 
6.02 -3.08 -1.68 0.23 
5.96 -3.19 -1.68 0.23 
5.90 -3.31 -1.68 0.23 
5.83 -3.42 -1.68 0.23 
5.77 -3.53 -1.68 0.23 
5.70 -3.64 -1.68 0.23 
5.63 -3.74 -1.68 0.23 
5.56 -3.85 -1.68 0.23 
5.49 -3.95 -1.68 0.23 
5.41 -4.06 -1.68 0.23 
5.33 -4.16 -1.68 0.23 
5.25 -4.26 -1.68 0.23 
5.17 -4.36 -1.68 0.23 
5.09 -4.45 -1.68 0.23 
5.00 -4.55 -1.68 0.23 
4.91 -4.64 -1.68 0.23 
4.83 -4.74 -1.68 0.23 
4.74 -4.83 -1.68 0.23 
4.64 -4.91 -1.68 0.23 
4.55 -5.00 -1.68 0.23 
4.45 -5.09 -1.68 0.23 
4.36 -5.17 -1.68 0.23 
4.26 -5.25 -1.68 0.23 
4.16 -5.33 -1.68 0.23 
4.06 -5.41 -1.68 0.23 
3.95 -5.49 -1.68 0.23 
3.85 -5.56 -1.68 0.23 
3.74 -5.63 -1.68 0.23 
3.64 -5.70 -1.68 0.23 
3.53 -5.77 -1.68 0.23 
3.42 -5.83 -1.68 0.23 
3.31 -5.90 -1.68 0.23 
3.19 -5.96 -1.68 0.23 
3.08 -6.02 -1.68 0.23 
2.97 -6.08 -1.68 0.23 
2.85 -6.13 -1.68 0.23 
2.73 -6.18 -1.68 0.23 
2.62 -6.23 -1.68 0.23 
2.50 -6.28 -1.68 0.23 
2.38 -6.33 -1.68 0.23 
2.26 -6.37 -1.68 0.23 
2.14 -6.41 -1.68 0.23 
2.02 -6.45 -1.68 0.23 
1.89 -6.49 -1.68 0.23 
1.77 -6.53 -1.68 0.23 
1.65 -6.56 -1.68 0.23 
1.52 -6.59 -1.68 0.23 
1.40 -6.62 -1.68 0.23 
1.27 -6.64 -1.68 0.23 
1.15 -6.66 -1.68 0.23 
1.02 -6.68 -1.68 0.23 
0.89 -6.70 -1.68 0.23 
0.77 -6.72 -1.68 0.23 
0.64 -6.73 -1.68 0.23 
0.51 -6.74 -1.68 0.23 
0.38 -6.75 -1.68 0.23 
0.26 -6.76 -1.68 0.23 
0.13 -6.76 -1.68 0.23 
-0.00 -6.76 -1.68 0.23 
-0.13 -6.76 -1.68 0.23 
-0.26 -6.76 -1.68 0.23 
-0.38 -6.75 -1.68 0.23 
-0.51 -6.74 -1.68 0.23 
-0.64 -6.73 -1.68 0.23 
-0.77 -6.72 -1.68 0.23 
-0.89 -6.70 -1.68 0.23 
-1.02 -6.68 -1.68 0.23 
-1.15 -6.66 -1.68 0.23 
-1.27 -6.64 -1.68 0.23 
-1.40 -6.61 -1.68 0.23 
-1.52 -6.59 -1.68 0.23 
-1.65 -6.56 -1.68 0.23 
-1.77 -6.53 -1.68 0.23 
-1.89 -6.49 -1.68 0.23 
-2.02 -6.45 -1.68 0.23 
-2.14 -6.41 -1.68 0.23 
-2.26 -6.37 -1.68 0.23 
-2.38 -6.33 -1.68 0.23 
-2.50 -6.28 -1.68 0.23 
-1.61 -3.82 -1.03 0.31 
-1.61 -3.64 -0.99 0.44 
-1.62 -3.49 -0.96 0.50 
-1.64 -3.36 -0.93 0.51 
-1.66 -3.24 -0.91 0.60 
-1.68 -3.14 -0.89 0.61 
-1.71 -3.05 -0.87 0.69 
-1.75 -2.98 -0.86 0.80 
-1.80 -2.95 -0.86 0.97 
-1.86 -2.92 -0.86 0.97 
-1.93 -2.91 -0.87 0.86 
-2.01 -2.90 -0.88 0.87 
-2.09 -2.90 -0.89 0.78 
-2.17 -2.90 -0.90 0.80 
-2.26 -2.90 -0.91 0.79 
-2.35 -2.90 -0.93 0.73 
-2.44 -2.90 -0.94 0.72 
-2.54 -2.90 -0.96 0.71 
-2.64 -2.91 -0.98 0.70 
-2.75 -2.91 -1.00 0.65 
-2.87 -2.92 -1.02 0.64 
-2.99 -2.93 -1.04 0.56 
-3.13 -2.95 -1.07 0.54 
-3.27 -2.98 -1.10 0.50 
-3.44 -3.01 -1.14 0.39 
-5.17 -4.36 -1.68 0.23 
-5.25 -4.26 -1.68 0.23 
-5.33 -4.16 -1.68 0.23 
-5.41 -4.06 -1.68 0.23 
-5.48 -3.95 -1.68 0.23 
-5.56 -3.85 -1.68 0.23 
-5.63 -3.74 -1.68 0.23 
-5.70 -3.63 -1.68 0.23 
-5.77 -3.53 -1.68 0.23 
-5.83 -3.42 -1.68 0.23 
-5.90 -3.31 -1.68 0.23 
-5.96 -3.19 -1.68 0.23 
-6.02 -3.08 -1.68 0.23 
-6.07 -2.97 -1.68 0.23 
-6.13 -2.85 -1.68 0.23 
-6.18 -2.73 -1.68 0.23 
-6.23 -2.62 -1.68 0.23 
-0.76 -0.30 -0.20 0.22 
-0.77 -0.29 -0.20 0.22 
-0.77 -0.27 -0.20 0.22 
-0.78 -0.26 -0.20 0.22 
-0.78 -0.24 -0.20 0.22 
-0.79 -0.23 -0.20 0.22 
-0.79 -0.21 -0.20 0.22 
-0.79 -0.20 -0.20 0.22 
-0.80 -0.18 -0.20 0.22 
-0.80 -0.17 -0.20 0.22 
-0.80 -0.15 -0.20 0.22 
-0.81 -0.14 -0.20 0.22 
-0.81 -0.12 -0.20 0.22 
-0.81 -0.11 -0.20 0.22 
-0.81 -0.09 -0.20 0.22 
-0.81 -0.08 -0.20 0.22 
-0.81 -0.06 -0.20 0.22 
-0.81 -0.05 -0.20 0.22 
-0.81 -0.03 -0.20 0.21 
-0.81 -0.02 -0.20 0.21 
-0.81 -0.00 -0.20 0.21 
-0.81 0.02 -0.20 0.21 
-0.81 0.03 -0.20 0.21 
-0.81 0.05 -0.20 0.21 
-0.81 0.06 -0.20 0.21 
-0.80 0.08 -0.20 0.21 
-0.80 0.09 -0.20 0.21 
-0.80 0.11 -0.20 0.21 
-0.80 0.12 -0.20 0.21 
-0.80 0.14 -0.20 0.21 
-0.79 0.15 -0.20 0.22 
-0.79 0.17 -0.20 0.22 
-0.79 0.18 -0.20 0.22 
-0.78 0.20 -0.20 0.22 
-0.78 0.21 -0.20 0.22 
-0.78 0.23 -0.20 0.22 
-0.77 0.24 -0.20 0.22 
-0.77 0.26 -0.20 0.22 
-0.76 0.27 -0.20 0.22 
-0.76 0.28 -0.20 0.22 
-0.75 0.30 -0.20 0.22 
-0.75 0.31 -0.20 0.22 
-0.74 0.33 -0.20 0.22 
-0.73 0.34 -0.20 0.21 
-0.73 0.35 -0.20 0.21 
-0.72 0.37 -0.20 0.21 
-0.71 0.38 -0.20 0.21 
-0.70 0.39 -0.20 0.21 
-0.70 0.41 -0.20 0.21 
-0.69 0.42 -0.20 0.21 
-0.68 0.43 -0.20 0.21 
-0.72 0.48 -0.22 0.03 
-5.53 3.83 -1.68 0.24 
-5.45 3.93 -1.68 0.24 
-5.38 4.03 -1.68 0.24 
-5.30 4.13 -1.68 0.24 
-5.22 4.23 -1.68 0.24 
-5.14 4.33 -1.68 0.24 
-5.06 4.43 -1.68 0.24 
-4.97 4.52 -1.68 0.24 
-4.89 4.62 -1.68 0.24 
-4.80 4.71 -1.68 0.24 
-4.71 4.80 -1.68 0.24 
-4.62 4.89 -1.68 0.24 
-4.52 4.97 -1.68 0.24 
-4.43 5.06 -1.68 0.24 
-4.33 5.14 -1.68 0.24 
-4.23 5.22 -1.68 0.24 
-4.13 5.30 -1.68 0.24 
-4.03 5.38 -1.68 0.24 
-3.93 5.45 -1.68 0.24 
-3.83 5.53 -1.68 0.24 
-3.72 5.60 -1.68 0.24 
-3.62 5.67 -1.68 0.24 
-3.51 5.74 -1.68 0.24 
-3.40 5.80 -1.68 0.24 
-3.29 5.86 -1.68 0.24 
-3.18 5.93 -1.68 0.24 
-3.06 5.98 -1.68 0.24 
-2.95 6.04 -1.68 0.24 
-2.84 6.10 -1.68 0.24 
-2.72 6.15 -1.68 0.24 
-2.60 6.20 -1.68 0.24 
-2.48 6.25 -1.68 0.24 
-2.26 6.01 -1.61 0.90 
-2.13 6.01 -1.60 0.90 
-2.00 6.01 -1.58 0.90 
-1.88 6.01 -1.57 0.90 
-1.88 6.45 -1.68 0.24 
-1.76 6.49 -1.68 0.24 
-1.64 6.52 -1.68 0.24 
-1.51 6.55 -1.68 0.24 
-1.39 6.58 -1.68 0.24 
-1.26 6.60 -1.68 0.24 
-1.14 6.63 -1.68 0.24 
-1.01 6.65 -1.68 0.24 
-0.89 6.66 -1.68 0.24 
-0.76 6.68 -1.68 0.24 
-0.64 6.69 -1.68 0.24 
-0.51 6.70 -1.68 0.24 
-0.38 6.71 -1.68 0.24 
-0.25 6.72 -1.68 0.24 
-0.13 6.72 -1.68 0.24 
0.00 6.72 -1.68 0.24 
0.13 6.72 -1.68 0.24 
0.25 6.72 -1.68 0.24 
0.38 6.71 -1.68 0.24 
0.51 6.70 -1.68 0.24 
0.64 6.69 -1.68 0.24 
0.76 6.68 -1.68 0.24 
0.89 6.66 -1.68 0.24 
1.01 6.65 -1.68 0.24 
1.14 6.63 -1.68 0.24 
1.26 6.60 -1.68 0.24 
1.39 6.58 -1.68 0.24 
1.51 6.55 -1.68 0.24 
1.64 6.52 -1.68 0.24 
1.76 6.49 -1.68 0.24 
1.88 6.45 -1.68 0.24 
2.01 6.42 -1.68 0.24 
2.13 6.38 -1.68 0.24 
2.25 6.34 -1.68 0.24 
2.37 6.29 -1.68 0.24 
2.48 6.25 -1.68 0.24 
2.60 6.20 -1.68 0.24 
2.72 6.15 -1.68 0.24 
2.84 6.10 -1.68 0.24 
2.95 6.04 -1.68 0.24 
3.06 5.99 -1.68 0.24 
3.18 5.93 -1.68 0.24 
3.29 5.87 -1.68 0.24 
3.40 5.80 -1.68 0.24 
3.51 5.74 -1.68 0.24 
3.62 5.67 -1.68 0.24 
3.72 5.60 -1.68 0.24 
3.83 5.53 -1.68 0.24 
3.93 5.45 -1.68 0.24 
4.03 5.38 -1.68 0.24 
4.14 5.30 -1.68 0.24 
4.24 5.22 -1.68 0.24 
4.33 5.14 -1.68 0.24 
4.43 5.06 -1.68 0.24 
4.52 4.97 -1.68 0.24 
4.62 4.89 -1.68 0.24 
4.71 4.80 -1.68 0.24 
4.80 4.71 -1.68 0.24 
4.89 4.62 -1.68 0.24 
4.97 4.52 -1.68 0.24 
5.06 4.43 -1.68 0.24 
5.14 4.33 -1.68 0.24 
5.22 4.24 -1.68 0.24 
5.30 4.14 -1.68 0.24 
5.38 4.03 -1.68 0.24 
5.46 3.93 -1.68 0.24 
5.53 3.83 -1.68 0.24 
5.60 3.72 -1.68 0.24 
5.67 3.62 -1.68 0.24 
5.74 3.51 -1.68 0.24 
5.80 3.40 -1.68 0.24 
5.87 3.29 -1.68 0.24 
5.93 3.18 -1.68 0.24 
5.40 2.76 -1.52 0.78 
5.44 2.65 -1.51 0.42 
5.71 2.65 -1.57 0.40 
6.15 2.72 -1.68 0.24 
6.20 2.60 -1.68 0.24 
6.25 2.49 -1.68 0.24 
6.30 2.37 -1.68 0.24 
6.34 2.25 -1.68 0.24 
6.38 2.13 -1.68 0.24 
6.42 2.01 -1.68 0.24 
6.46 1.88 -1.68 0.24 
6.49 1.76 -1.68 0.24 
6.52 1.64 -1.68 0.24 
6.55 1.51 -1.68 0.24 
6.58 1.39 -1.68 0.24 
6.61 1.27 -1.68 0.24 
6.63 1.14 -1.68 0.24 
6.65 1.01 -1.68 0.24 
6.67 0.89 -1.68 0.24 
6.68 0.76 -1.68 0.24 
6.70 0.64 -1.68 0.24 
6.71 0.51 -1.68 0.24 
6.72 0.38 -1.68 0.24 
6.72 0.25 -1.68 0.24 
6.72 0.13 -1.68 0.24 
6.73 -0.00 -1.68 0.24 
6.72 -0.13 -1.68 0.24 
6.72 -0.25 -1.68 0.24 
6.72 -0.38 -1.68 0.24 
6.71 -0.51 -1.68 0.24 
6.70 -0.64 -1.68 0.24 
6.68 -0.76 -1.68 0.24 
6.67 -0.89 -1.68 0.24 
6.65 -1.01 -1.68 0.24 
6.63 -1.14 -1.68 0.24 
6.61 -1.27 -1.68 0.24 
6.58 -1.39 -1.68 0.24 
6.55 -1.51 -1.68 0.24 
6.52 -1.64 -1.68 0.24 
6.49 -1.76 -1.68 0.24 
6.46 -1.88 -1.68 0.24 
6.42 -2.01 -1.68 0.24 
6.38 -2.13 -1.68 0.24 
6.34 -2.25 -1.68 0.24 
6.30 -2.37 -1.68 0.24 
6.25 -2.49 -1.68 0.24 
6.20 -2.60 -1.68 0.24 
6.15 -2.72 -1.68 0.24 
6.10 -2.84 -1.68 0.24 
6.04 -2.95 -1.68 0.24 
5.99 -3.07 -1.68 0.24 
5.93 -3.18 -1.68 0.24 
5.87 -3.29 -1.68 0.24 
5.80 -3.40 -1.68 0.24 
5.74 -3.51 -1.68 0.24 
5.67 -3.62 -1.68 0.24 
5.60 -3.72 -1.68 0.24 
5.53 -3.83 -1.68 0.24 
5.46 -3.93 -1.68 0.24 
5.38 -4.04 -1.68 0.24 
5.30 -4.14 -1.68 0.24 
5.23 -4.24 -1.68 0.24 
5.14 -4.33 -1.68 0.24 
5.06 -4.43 -1.68 0.24 
4.98 -4.53 -1.68 0.24 
4.89 -4.62 -1.68 0.24 
4.80 -4.71 -1.68 0.24 
4.71 -4.80 -1.68 0.24 
4.62 -4.89 -1.68 0.24 
4.53 -4.98 -1.68 0.24 
4.43 -5.06 -1.68 0.24 
4.33 -5.14 -1.68 0.24 
4.24 -5.23 -1.68 0.24 
4.14 -5.30 -1.68 0.24 
4.04 -5.38 -1.68 0.24 
3.93 -5.46 -1.68 0.24 
3.83 -5.53 -1.68 0.24 
3.72 -5.60 -1.68 0.24 
3.62 -5.67 -1.68 0.24 
3.51 -5.74 -1.68 0.24 
3.40 -5.80 -1.68 0.24 
3.29 -5.87 -1.68 0.24 
3.18 -5.93 -1.68 0.24 
3.07 -5.99 -1.68 0.24 
2.95 -6.05 -1.68 0.24 
2.84 -6.10 -1.68 0.24 
2.72 -6.15 -1.68 0.24 
2.60 -6.20 -1.68 0.24 
2.49 -6.25 -1.68 0.24 
2.37 -6.30 -1.68 0.24 
2.25 -6.34 -1.68 0.24 
2.13 -6.38 -1.68 0.24 
2.01 -6.42 -1.68 0.24 
1.88 -6.46 -1.68 0.24 
1.76 -6.49 -1.68 0.24 
1.64 -6.52 -1.68 0.24 
1.51 -6.55 -1.68 0.24 
1.39 -6.58 -1.68 0.24 
1.27 -6.61 -1.68 0.24 
1.14 -6.63 -1.68 0.24 
1.01 -6.65 -1.68 0.24 
0.89 -6.67 -1.68 0.24 
0.76 -6.68 -1.68 0.24 
0.64 -6.70 -1.68 0.24 
0.51 -6.71 -1.68 0.24 
0.38 -6.72 -1.68 0.24 
0.25 -6.72 -1.68 0.24 
0.13 -6.73 -1.68 0.24 
0.00 -6.73 -1.68 0.24 
-0.13 -6.73 -1.68 0.24 
-0.25 -6.72 -1.68 0.24 
-0.38 -6.72 -1.68 0.24 
-0.51 -6.71 -1.68 0.24 
-0.64 -6.70 -1.68 0.24 
-0.76 -6.68 -1.68 0.24 
-0.89 -6.67 -1.68 0.24 
-1.01 -6.65 -1.68 0.24 
-1.14 -6.63 -1.68 0.24 
-1.27 -6.61 -1.68 0.24 
-1.39 -6.58 -1.68 0.24 
-1.51 -6.55 -1.68 0.24 
-1.64 -6.52 -1.68 0.24 
-1.76 -6.49 -1.68 0.24 
-1.88 -6.46 -1.68 0.24 
-2.01 -6.42 -1.68 0.24 
-2.13 -6.38 -1.68 0.24 
-2.25 -6.34 -1.68 0.24 
-2.37 -6.30 -1.68 0.24 
-2.49 -6.25 -1.68 0.24 
-1.60 -3.82 -1.04 0.31 
-1.61 -3.64 -0.99 0.44 
-1.62 -3.48 -0.96 0.50 
-1.64 -3.36 -0.93 0.51 
-1.66 -3.24 -0.91 0.60 
-1.68 -3.14 -0.89 0.61 
-1.71 -3.05 -0.88 0.80 
-1.75 -2.98 -0.86 0.81 
-1.80 -2.95 -0.86 0.97 
-1.86 -2.92 -0.87 0.97 
-1.93 -2.91 -0.87 0.86 
-2.01 -2.90 -0.88 0.87 
-2.09 -2.90 -0.89 0.78 
-2.17 -2.90 -0.91 0.80 
-2.26 -2.89 -0.92 0.79 
-2.35 -2.90 -0.93 0.73 
-2.44 -2.90 -0.95 0.72 
-2.54 -2.90 -0.96 0.71 
-2.64 -2.91 -0.98 0.70 
-2.75 -2.91 -1.00 0.65 
-2.87 -2.92 -1.02 0.64 
-2.99 -2.93 -1.05 0.56 
-3.12 -2.95 -1.08 0.54 
-3.27 -2.98 -1.11 0.50 
-3.44 -3.01 -1.14 0.39 
-5.14 -4.33 -1.68 0.24 
-5.22 -4.24 -1.68 0.24 
-5.30 -4.14 -1.68 0.24 
-5.38 -4.03 -1.68 0.24 
-5.46 -3.93 -1.68 0.24 
-5.53 -3.83 -1.68 0.24 
-5.60 -3.72 -1.68 0.24 
-5.67 -3.62 -1.68 0.24 
-5.74 -3.51 -1.68 0.24 
-5.80 -3.40 -1.68 0.24 
-5.87 -3.29 -1.68 0.24 
-5.93 -3.18 -1.68 0.24 
-5.99 -3.06 -1.68 0.24 
-6.04 -2.95 -1.68 0.24 
-6.10 -2.84 -1.68 0.24 
-6.15 -2.72 -1.68 0.24 
-0.81 -0.34 -0.22 0.00 
-0.76 -0.30 -0.20 0.22 
-0.76 -0.29 -0.20 0.22 
-0.77 -0.27 -0.20 0.22 
-0.77 -0.26 -0.20 0.22 
-0.78 -0.24 -0.20 0.22 
-0.78 -0.23 -0.20 0.22 
-0.79 -0.21 -0.20 0.22 
-0.79 -0.20 -0.20 0.22 
-0.79 -0.18 -0.20 0.22 
-0.80 -0.17 -0.20 0.22 
-0.80 -0.15 -0.20 0.22 
-0.80 -0.14 -0.20 0.22 
-0.80 -0.12 -0.20 0.22 
-0.80 -0.11 -0.20 0.22 
-0.81 -0.09 -0.20 0.22 
-0.81 -0.08 -0.20 0.22 
-0.81 -0.06 -0.20 0.22 
-0.81 -0.05 -0.20 0.22 
-0.81 -0.03 -0.20 0.22 
-0.81 -0.02 -0.20 0.21 
-0.80 -0.00 -0.20 0.21 
-0.80 0.02 -0.20 0.21 
-0.80 0.03 -0.20 0.21 
-0.80 0.05 -0.20 0.21 
-0.80 0.06 -0.20 0.21 
-0.80 0.08 -0.20 0.21 
-0.80 0.09 -0.20 0.21 
-0.80 0.11 -0.20 0.21 
-0.79 0.12 -0.20 0.21 
-0.79 0.14 -0.20 0.22 
-0.79 0.15 -0.20 0.22 
-0.79 0.17 -0.20 0.22 
-0.78 0.18 -0.20 0.22 
-0.78 0.20 -0.20 0.22 
-0.78 0.21 -0.20 0.22 
-0.77 0.23 -0.20 0.22 
-0.77 0.24 -0.20 0.22 
-0.76 0.25 -0.20 0.22 
-0.76 0.27 -0.20 0.22 
-0.75 0.28 -0.20 0.22 
-0.75 0.30 -0.20 0.22 
-0.74 0.31 -0.20 0.22 
-0.74 0.33 -0.20 0.21 
-0.73 0.34 -0.20 0.21 
-0.72 0.35 -0.20 0.21 
-0.72 0.37 -0.20 0.21 
-0.71 0.38 -0.20 0.21 
-0.70 0.39 -0.20 0.21 
-0.69 0.41 -0.20 0.22 
-0.68 0.42 -0.20 0.22 
-0.68 0.43 -0.20 0.22 
-0.70 0.46 -0.21 0.04 
-5.50 3.81 -1.68 0.24 
-5.43 3.91 -1.68 0.24 
-5.35 4.01 -1.68 0.24 
-5.27 4.11 -1.68 0.24 
-5.20 4.21 -1.68 0.24 
-5.12 4.31 -1.68 0.24 
-5.03 4.41 -1.68 0.24 
-4.95 4.50 -1.68 0.24 
-4.86 4.59 -1.68 0.24 
-4.77 4.69 -1.68 0.24 
-4.69 4.77 -1.68 0.24 
-4.59 4.86 -1.68 0.24 
-4.50 4.95 -1.68 0.24 
-4.41 5.03 -1.68 0.24 
-4.31 5.12 -1.68 0.24 
-4.21 5.20 -1.68 0.24 
-4.11 5.27 -1.68 0.24 
-4.01 5.35 -1.68 0.24 
-3.91 5.43 -1.68 0.24 
-3.81 5.50 -1.68 0.24 
-3.70 5.57 -1.68 0.24 
-3.60 5.64 -1.68 0.24 
-3.49 5.71 -1.68 0.24 
-3.38 5.77 -1.68 0.24 
-3.27 5.83 -1.68 0.24 
-3.16 5.90 -1.68 0.24 
-3.05 5.95 -1.68 0.24 
-2.93 6.01 -1.68 0.24 
-2.82 6.07 -1.68 0.24 
-2.71 6.12 -1.68 0.24 
-2.59 6.17 -1.68 0.24 
-2.47 6.22 -1.68 0.24 
-2.26 6.01 -1.61 0.90 
-2.13 6.01 -1.60 0.90 
-2.00 6.01 -1.59 0.90 
-1.99 6.39 -1.68 0.24 
-1.87 6.42 -1.68 0.24 
-1.75 6.46 -1.68 0.24 
-1.63 6.49 -1.68 0.24 
-1.51 6.52 -1.68 0.24 
-1.38 6.54 -1.68 0.24 
-1.26 6.57 -1.68 0.24 
-1.13 6.59 -1.68 0.24 
-1.01 6.61 -1.68 0.24 
-0.88 6.63 -1.68 0.24 
-0.76 6.65 -1.68 0.24 
-0.63 6.66 -1.68 0.24 
-0.51 6.67 -1.68 0.24 
-0.38 6.68 -1.68 0.24 
-0.25 6.68 -1.68 0.24 
-0.13 6.69 -1.68 0.24 
0.00 6.69 -1.68 0.24 
0.13 6.69 -1.68 0.24 
0.25 6.68 -1.68 0.24 
0.38 6.68 -1.68 0.24 
0.51 6.67 -1.68 0.24 
0.63 6.66 -1.68 0.24 
0.76 6.65 -1.68 0.24 
0.88 6.63 -1.68 0.24 
1.01 6.61 -1.68 0.24 
1.13 6.59 -1.68 0.24 
1.26 6.57 -1.68 0.24 
1.38 6.55 -1.68 0.24 
1.51 6.52 -1.68 0.24 
1.63 6.49 -1.68 0.24 
1.75 6.46 -1.68 0.24 
1.87 6.42 -1.68 0.24 
1.99 6.39 -1.68 0.24 
2.12 6.35 -1.68 0.24 
2.24 6.31 -1.68 0.24 
2.35 6.26 -1.68 0.24 
2.47 6.22 -1.68 0.24 
2.59 6.17 -1.68 0.24 
2.71 6.12 -1.68 0.24 
2.82 6.07 -1.68 0.24 
2.94 6.01 -1.68 0.24 
3.05 5.96 -1.68 0.24 
3.16 5.90 -1.68 0.24 
3.27 5.84 -1.68 0.24 
3.38 5.77 -1.68 0.24 
3.49 5.71 -1.68 0.24 
3.60 5.64 -1.68 0.24 
3.70 5.57 -1.68 0.24 
3.81 5.50 -1.68 0.24 
3.91 5.43 -1.68 0.24 
4.01 5.35 -1.68 0.24 
4.11 5.28 -1.68 0.24 
4.21 5.20 -1.68 0.24 
4.31 5.12 -1.68 0.24 
4.41 5.03 -1.68 0.24 
4.50 4.95 -1.68 0.24 
4.59 4.86 -1.68 0.24 
4.69 4.78 -1.68 0.24 
4.78 4.69 -1.68 0.24 
4.86 4.59 -1.68 0.24 
4.95 4.50 -1.68 0.24 
5.03 4.41 -1.68 0.24 
5.12 4.31 -1.68 0.24 
5.20 4.21 -1.68 0.24 
5.28 4.11 -1.68 0.24 
5.35 4.01 -1.68 0.24 
5.43 3.91 -1.68 0.24 
5.50 3.81 -1.68 0.24 
5.57 3.70 -1.68 0.24 
5.64 3.60 -1.68 0.24 
5.71 3.49 -1.68 0.24 
5.77 3.38 -1.68 0.24 
5.84 3.27 -1.68 0.24 
5.90 3.16 -1.68 0.24 
5.40 2.77 -1.53 0.57 
5.44 2.65 -1.52 0.41 
5.71 2.65 -1.58 0.40 
6.12 2.71 -1.68 0.24 
6.17 2.59 -1.68 0.24 
6.22 2.47 -1.68 0.24 
6.26 2.35 -1.68 0.24 
6.31 2.24 -1.68 0.24 
6.35 2.12 -1.68 0.24 
6.39 2.00 -1.68 0.24 
6.42 1.87 -1.68 0.24 
6.46 1.75 -1.68 0.24 
6.49 1.63 -1.68 0.24 
6.52 1.51 -1.68 0.24 
6.55 1.38 -1.68 0.24 
6.57 1.26 -1.68 0.24 
6.59 1.13 -1.68 0.24 
6.62 1.01 -1.68 0.24 
6.63 0.88 -1.68 0.24 
6.65 0.76 -1.68 0.24 
6.66 0.63 -1.68 0.24 
6.67 0.51 -1.68 0.24 
6.68 0.38 -1.68 0.24 
6.69 0.25 -1.68 0.24 
6.69 0.13 -1.68 0.24 
6.69 -0.00 -1.68 0.24 
6.69 -0.13 -1.68 0.24 
6.69 -0.25 -1.68 0.24 
6.68 -0.38 -1.68 0.24 
6.67 -0.51 -1.68 0.24 
6.66 -0.63 -1.68 0.24 
6.65 -0.76 -1.68 0.24 
6.63 -0.88 -1.68 0.24 
6.62 -1.01 -1.68 0.24 
6.60 -1.13 -1.68 0.24 
6.57 -1.26 -1.68 0.24 
6.55 -1.38 -1.68 0.24 
6.52 -1.51 -1.68 0.24 
6.49 -1.63 -1.68 0.24 
6.46 -1.75 -1.68 0.24 
6.42 -1.87 -1.68 0.24 
6.39 -2.00 -1.68 0.24 
6.35 -2.12 -1.68 0.24 
6.31 -2.24 -1.68 0.24 
6.26 -2.36 -1.68 0.24 
6.22 -2.47 -1.68 0.24 
6.17 -2.59 -1.68 0.24 
6.12 -2.71 -1.68 0.24 
6.07 -2.82 -1.68 0.24 
6.01 -2.94 -1.68 0.24 
5.96 -3.05 -1.68 0.24 
5.90 -3.16 -1.68 0.24 
5.84 -3.27 -1.68 0.24 
5.78 -3.38 -1.68 0.24 
5.71 -3.49 -1.68 0.24 
5.64 -3.60 -1.68 0.24 
5.57 -3.71 -1.68 0.24 
5.50 -3.81 -1.68 0.24 
5.43 -3.91 -1.68 0.24 
5.35 -4.02 -1.68 0.24 
5.28 -4.12 -1.68 0.24 
5.20 -4.22 -1.68 0.24 
5.12 -4.31 -1.68 0.24 
5.04 -4.41 -1.68 0.24 
4.95 -4.50 -1.68 0.24 
4.87 -4.60 -1.68 0.24 
4.78 -4.69 -1.68 0.24 
4.69 -4.78 -1.68 0.24 
4.60 -4.87 -1.68 0.24 
4.50 -4.95 -1.68 0.24 
4.41 -5.04 -1.68 0.24 
4.31 -5.12 -1.68 0.24 
4.22 -5.20 -1.68 0.24 
4.12 -5.28 -1.68 0.24 
4.02 -5.35 -1.68 0.24 
3.91 -5.43 -1.68 0.24 
3.81 -5.50 -1.68 0.24 
3.71 -5.57 -1.68 0.24 
3.60 -5.64 -1.68 0.24 
3.49 -5.71 -1.68 0.24 
3.38 -5.78 -1.68 0.24 
3.27 -5.84 -1.68 0.24 
3.16 -5.90 -1.68 0.24 
3.05 -5.96 -1.68 0.24 
2.94 -6.01 -1.68 0.24 
2.82 -6.07 -1.68 0.24 
2.71 -6.12 -1.68 0.24 
2.59 -6.17 -1.68 0.24 
2.47 -6.22 -1.68 0.24 
2.36 -6.26 -1.68 0.24 
2.24 -6.31 -1.68 0.24 
2.12 -6.35 -1.68 0.24 
2.00 -6.39 -1.68 0.24 
1.87 -6.43 -1.68 0.24 
1.75 -6.46 -1.68 0.24 
1.63 -6.49 -1.68 0.24 
1.51 -6.52 -1.68 0.24 
1.38 -6.55 -1.68 0.24 
1.26 -6.57 -1.68 0.24 
1.13 -6.60 -1.68 0.24 
1.01 -6.62 -1.68 0.24 
0.88 -6.63 -1.68 0.24 
0.76 -6.65 -1.68 0.24 
0.63 -6.66 -1.68 0.24 
0.51 -6.67 -1.68 0.24 
0.38 -6.68 -1.68 0.24 
0.25 -6.69 -1.68 0.24 
0.13 -6.69 -1.68 0.24 
-0.00 -6.69 -1.68 0.24 
-0.13 -6.69 -1.68 0.24 
-0.25 -6.69 -1.68 0.24 
-0.38 -6.68 -1.68 0.24 
-0.51 -6.67 -1.68 0.24 
-0.63 -6.66 -1.68 0.24 
-0.76 -6.65 -1.68 0.24 
-0.88 -6.63 -1.68 0.24 
-1.01 -6.62 -1.68 0.24 
-1.13 -6.60 -1.68 0.24 
-1.26 -6.57 -1.68 0.24 
-1.38 -6.55 -1.68 0.24 
-1.51 -6.52 -1.68 0.24 
-1.63 -6.49 -1.68 0.24 
-1.75 -6.46 -1.68 0.24 
-1.87 -6.42 -1.68 0.24 
-2.00 -6.39 -1.68 0.24 
-2.12 -6.35 -1.68 0.24 
-2.24 -6.31 -1.68 0.24 
-2.35 -6.26 -1.68 0.24 
-2.47 -6.22 -1.68 0.24 
-1.60 -3.81 -1.04 0.31 
-1.61 -3.63 -1.00 0.44 
-1.62 -3.48 -0.96 0.50 
-1.64 -3.35 -0.94 0.49 
-1.66 -3.24 -0.91 0.60 
-1.68 -3.13 -0.89 0.61 
-1.71 -3.05 -0.88 0.80 
-1.75 -2.98 -0.87 0.81 
-1.80 -2.95 -0.87 0.97 
-1.86 -2.92 -0.87 0.97 
-1.93 -2.91 -0.88 0.86 
-2.01 -2.90 -0.89 0.87 
-2.09 -2.90 -0.90 0.78 
-2.17 -2.90 -0.91 0.80 
-2.26 -2.89 -0.92 0.79 
-2.35 -2.90 -0.94 0.73 
-2.44 -2.90 -0.95 0.72 
-2.54 -2.90 -0.97 0.71 
-2.64 -2.91 -0.99 0.70 
-2.75 -2.91 -1.01 0.65 
-2.87 -2.92 -1.03 0.64 
-2.99 -2.93 -1.05 0.56 
-3.12 -2.95 -1.08 0.54 
-3.27 -2.98 -1.11 0.50 
-3.43 -3.01 -1.15 0.39 
-5.12 -4.31 -1.68 0.24 
-5.20 -4.21 -1.68 0.24 
-5.28 -4.12 -1.68 0.24 
-5.35 -4.01 -1.68 0.24 
-5.43 -3.91 -1.68 0.24 
-5.50 -3.81 -1.68 0.24 
-5.57 -3.70 -1.68 0.24 
-5.64 -3.60 -1.68 0.24 
-5.71 -3.49 -1.68 0.24 
-5.77 -3.38 -1.68 0.24 
-5.84 -3.27 -1.68 0.24 
-5.90 -3.16 -1.68 0.24 
-5.96 -3.05 -1.68 0.24 
-6.01 -2.94 -1.68 0.24 
-6.07 -2.82 -1.68 0.24 
-6.12 -2.71 -1.68 0.24 
-0.75 -0.31 -0.20 0.22 
-0.75 -0.30 -0.20 0.22 
-0.76 -0.28 -0.20 0.22 
-0.76 -0.27 -0.20 0.22 
-0.77 -0.26 -0.20 0.22 
-0.77 -0.24 -0.20 0.22 
-0.78 -0.23 -0.20 0.22 
-0.78 -0.21 -0.20 0.22 
-0.78 -0.20 -0.20 0.22 
-0.79 -0.18 -0.20 0.22 
-0.79 -0.17 -0.20 0.22 
-0.79 -0.15 -0.20 0.22 
-0.80 -0.14 -0.20 0.22 
-0.80 -0.12 -0.20 0.22 
-0.80 -0.11 -0.20 0.22 
-0.80 -0.09 -0.20 0.22 
-0.80 -0.08 -0.20 0.22 
-0.80 -0.06 -0.20 0.22 
-0.80 -0.05 -0.20 0.22 
-0.80 -0.03 -0.20 0.22 
-0.80 -0.02 -0.20 0.21 
-0.80 -0.00 -0.20 0.21 
-0.80 0.02 -0.20 0.21 
-0.80 0.03 -0.20 0.21 
-0.80 0.05 -0.20 0.21 
-0.80 0.06 -0.20 0.21 
-0.79 0.08 -0.20 0.21 
-0.79 0.09 -0.20 0.21 
-0.79 0.11 -0.20 0.21 
-0.79 0.12 -0.20 0.21 
-0.79 0.14 -0.20 0.22 
-0.78 0.15 -0.20 0.22 
-0.78 0.17 -0.20 0.22 
-0.78 0.18 -0.20 0.22 
-0.78 0.19 -0.20 0.22 
-0.77 0.21 -0.20 0.22 
-0.77 0.22 -0.20 0.22 
-0.76 0.24 -0.20 0.22 
-0.76 0.25 -0.20 0.22 
-0.75 0.27 -0.20 0.22 
-0.75 0.28 -0.20 0.22 
-0.74 0.30 -0.20 0.22 
-0.74 0.31 -0.20 0.21 
-0.73 0.32 -0.20 0.21 
-0.73 0.34 -0.20 0.21 
-0.72 0.35 -0.20 0.21 
-0.71 0.36 -0.20 0.21 
-0.70 0.38 -0.20 0.21 
-0.70 0.39 -0.20 0.21 
-0.69 0.40 -0.20 0.22 
-0.68 0.42 -0.20 0.22 
-0.67 0.43 -0.20 0.22 
-0.67 0.45 -0.20 0.04 
-5.47 3.79 -1.68 0.24 
-5.40 3.89 -1.68 0.24 
-5.32 3.99 -1.68 0.24 
-5.25 4.09 -1.68 0.24 
-5.17 4.19 -1.68 0.24 
-5.09 4.29 -1.68 0.24 
-5.01 4.38 -1.68 0.24 
-4.92 4.48 -1.68 0.24 
-4.84 4.57 -1.68 0.24 
-4.75 4.66 -1.68 0.24 
-4.66 4.75 -1.68 0.24 
-4.57 4.84 -1.68 0.24 
-4.48 4.92 -1.68 0.24 
-4.38 5.01 -1.68 0.24 
-4.29 5.09 -1.68 0.24 
-4.19 5.17 -1.68 0.24 
-4.09 5.25 -1.68 0.24 
-3.99 5.32 -1.68 0.24 
-3.89 5.40 -1.68 0.24 
-3.79 5.47 -1.68 0.24 
-3.68 5.54 -1.68 0.24 
-3.58 5.61 -1.68 0.24 
-3.47 5.68 -1.68 0.24 
-3.36 5.74 -1.68 0.24 
-3.25 5.81 -1.68 0.24 
-3.14 5.87 -1.68 0.24 
-3.03 5.92 -1.68 0.24 
-2.92 5.98 -1.68 0.24 
-2.81 6.03 -1.68 0.24 
-2.69 6.09 -1.68 0.24 
-2.58 6.14 -1.68 0.24 
-2.46 6.18 -1.68 0.24 
-2.26 6.01 -1.62 0.90 
-2.13 6.01 -1.61 0.90 
-2.00 6.01 -1.60 0.90 
-1.98 6.35 -1.68 0.24 
-1.86 6.39 -1.68 0.24 
-1.74 6.42 -1.68 0.24 
-1.62 6.46 -1.68 0.24 
-1.50 6.48 -1.68 0.24 
-1.38 6.51 -1.68 0.24 
-1.25 6.54 -1.68 0.24 
-1.13 6.56 -1.68 0.24 
-1.00 6.58 -1.68 0.24 
-0.88 6.60 -1.68 0.24 
-0.75 6.61 -1.68 0.24 
-0.63 6.63 -1.68 0.24 
-0.50 6.64 -1.68 0.24 
-0.38 6.65 -1.68 0.24 
-0.25 6.65 -1.68 0.24 
-0.13 6.65 -1.68 0.24 
-0.00 6.66 -1.68 0.24 
0.13 6.65 -1.68 0.24 
0.25 6.65 -1.68 0.24 
0.38 6.65 -1.68 0.24 
0.50 6.64 -1.68 0.24 
0.63 6.63 -1.68 0.24 
0.75 6.61 -1.68 0.24 
0.88 6.60 -1.68 0.24 
1.00 6.58 -1.68 0.24 
1.13 6.56 -1.68 0.24 
1.25 6.54 -1.68 0.24 
1.38 6.51 -1.68 0.24 
1.50 6.49 -1.68 0.24 
1.62 6.46 -1.68 0.24 
1.74 6.42 -1.68 0.24 
1.86 6.39 -1.68 0.24 
1.98 6.35 -1.68 0.24 
2.10 6.31 -1.68 0.24 
2.22 6.27 -1.68 0.24 
2.34 6.23 -1.68 0.24 
2.46 6.19 -1.68 0.24 
2.58 6.14 -1.68 0.24 
2.69 6.09 -1.68 0.24 
2.81 6.04 -1.68 0.24 
2.92 5.98 -1.68 0.24 
3.03 5.93 -1.68 0.24 
3.14 5.87 -1.68 0.24 
3.26 5.81 -1.68 0.24 
3.36 5.74 -1.68 0.24 
3.47 5.68 -1.68 0.24 
3.58 5.61 -1.68 0.24 
3.69 5.54 -1.68 0.24 
3.79 5.47 -1.68 0.24 
3.89 5.40 -1.68 0.24 
3.99 5.33 -1.68 0.24 
4.09 5.25 -1.68 0.24 
4.19 5.17 -1.68 0.24 
4.29 5.09 -1.68 0.24 
4.39 5.01 -1.68 0.24 
4.48 4.92 -1.68 0.24 
4.57 4.84 -1.68 0.24 
4.66 4.75 -1.68 0.24 
4.75 4.66 -1.68 0.24 
4.84 4.57 -1.68 0.24 
4.92 4.48 -1.68 0.24 
5.01 4.39 -1.68 0.24 
5.09 4.29 -1.68 0.24 
5.17 4.19 -1.68 0.24 
5.25 4.09 -1.68 0.24 
5.33 3.99 -1.68 0.24 
5.40 3.89 -1.68 0.24 
5.47 3.79 -1.68 0.24 
5.54 3.69 -1.68 0.24 
5.61 3.58 -1.68 0.24 
5.68 3.47 -1.68 0.24 
5.74 3.37 -1.68 0.24 
5.81 3.26 -1.68 0.24 
5.87 3.15 -1.68 0.24 
5.41 2.77 -1.54 0.57 
5.44 2.65 -1.53 0.41 
5.71 2.65 -1.59 0.40 
6.09 2.69 -1.68 0.24 
6.14 2.58 -1.68 0.24 
6.19 2.46 -1.68 0.24 
6.23 2.34 -1.68 0.24 
6.28 2.22 -1.68 0.24 
6.32 2.11 -1.68 0.24 
6.36 1.99 -1.68 0.24 
6.39 1.86 -1.68 0.24 
6.43 1.74 -1.68 0.24 
6.46 1.62 -1.68 0.24 
6.49 1.50 -1.68 0.24 
6.51 1.38 -1.68 0.24 
6.54 1.25 -1.68 0.24 
6.56 1.13 -1.68 0.24 
6.58 1.00 -1.68 0.24 
6.60 0.88 -1.68 0.24 
6.62 0.75 -1.68 0.24 
6.63 0.63 -1.68 0.24 
6.64 0.50 -1.68 0.24 
6.65 0.38 -1.68 0.24 
6.65 0.25 -1.68 0.24 
6.66 0.13 -1.68 0.24 
6.66 -0.00 -1.68 0.24 
6.66 -0.13 -1.68 0.24 
6.65 -0.25 -1.68 0.24 
6.65 -0.38 -1.68 0.24 
6.64 -0.50 -1.68 0.24 
6.63 -0.63 -1.68 0.24 
6.62 -0.75 -1.68 0.24 
6.60 -0.88 -1.68 0.24 
6.58 -1.00 -1.68 0.24 
6.56 -1.13 -1.68 0.24 
6.54 -1.25 -1.68 0.24 
6.51 -1.38 -1.68 0.24 
6.49 -1.50 -1.68 0.24 
6.46 -1.62 -1.68 0.24 
6.43 -1.74 -1.68 0.24 
6.39 -1.87 -1.68 0.24 
6.36 -1.99 -1.68 0.24 
6.32 -2.11 -1.68 0.24 
6.28 -2.22 -1.68 0.24 
6.23 -2.34 -1.68 0.24 
6.19 -2.46 -1.68 0.24 
6.14 -2.58 -1.68 0.24 
6.09 -2.69 -1.68 0.24 
6.04 -2.81 -1.68 0.24 
5.98 -2.92 -1.68 0.24 
5.93 -3.03 -1.68 0.24 
5.87 -3.15 -1.68 0.24 
5.81 -3.26 -1.68 0.24 
5.75 -3.37 -1.68 0.24 
5.68 -3.47 -1.68 0.24 
5.61 -3.58 -1.68 0.24 
5.55 -3.69 -1.68 0.24 
5.47 -3.79 -1.68 0.24 
5.40 -3.89 -1.68 0.24 
5.33 -4.00 -1.68 0.24 
5.25 -4.10 -1.68 0.24 
5.17 -4.19 -1.68 0.24 
5.09 -4.29 -1.68 0.24 
5.01 -4.39 -1.68 0.24 
4.93 -4.48 -1.68 0.24 
4.84 -4.57 -1.68 0.24 
4.75 -4.66 -1.68 0.24 
4.66 -4.75 -1.68 0.24 
4.57 -4.84 -1.68 0.24 
4.48 -4.93 -1.68 0.24 
4.39 -5.01 -1.68 0.24 
4.29 -5.09 -1.68 0.24 
4.19 -5.17 -1.68 0.24 
4.10 -5.25 -1.68 0.24 
4.00 -5.33 -1.68 0.24 
3.89 -5.40 -1.68 0.24 
3.79 -5.48 -1.68 0.24 
3.69 -5.55 -1.68 0.24 
3.58 -5.61 -1.68 0.24 
3.47 -5.68 -1.68 0.24 
3.37 -5.75 -1.68 0.24 
3.26 -5.81 -1.68 0.24 
3.15 -5.87 -1.68 0.24 
3.03 -5.93 -1.68 0.24 
2.92 -5.98 -1.68 0.24 
2.81 -6.04 -1.68 0.24 
2.69 -6.09 -1.68 0.24 
2.58 -6.14 -1.68 0.24 
2.46 -6.19 -1.68 0.24 
2.34 -6.23 -1.68 0.24 
2.22 -6.28 -1.68 0.24 
2.11 -6.32 -1.68 0.24 
1.99 -6.36 -1.68 0.24 
1.87 -6.39 -1.68 0.24 
1.74 -6.43 -1.68 0.24 
1.62 -6.46 -1.68 0.24 
1.50 -6.49 -1.68 0.24 
1.38 -6.52 -1.68 0.24 
1.25 -6.54 -1.68 0.24 
1.13 -6.56 -1.68 0.24 
1.00 -6.58 -1.68 0.24 
0.88 -6.60 -1.68 0.24 
0.75 -6.62 -1.68 0.24 
0.63 -6.63 -1.68 0.24 
0.50 -6.64 -1.68 0.24 
0.38 -6.65 -1.68 0.24 
0.25 -6.65 -1.68 0.24 
0.13 -6.66 -1.68 0.24 
-0.00 -6.66 -1.68 0.24 
-0.13 -6.66 -1.68 0.24 
-0.25 -6.65 -1.68 0.24 
-0.38 -6.65 -1.68 0.24 
-0.50 -6.64 -1.68 0.24 
-0.63 -6.63 -1.68 0.24 
-0.75 -6.62 -1.68 0.24 
-0.88 -6.60 -1.68 0.24 
-1.00 -6.58 -1.68 0.24 
-1.13 -6.56 -1.68 0.24 
-1.25 -6.54 -1.68 0.24 
-1.38 -6.52 -1.68 0.24 
-1.50 -6.49 -1.68 0.24 
-1.62 -6.46 -1.68 0.24 
-1.74 -6.43 -1.68 0.24 
-1.87 -6.39 -1.68 0.24 
-1.99 -6.36 -1.68 0.24 
-2.11 -6.32 -1.68 0.24 
-2.22 -6.28 -1.68 0.24 
-2.34 -6.23 -1.68 0.24 
-2.46 -6.19 -1.68 0.24 
-1.60 -3.80 -1.04 0.31 
-1.60 -3.63 -1.00 0.44 
-1.62 -3.48 -0.97 0.50 
-1.63 -3.35 -0.94 0.49 
-1.65 -3.23 -0.92 0.60 
-1.68 -3.13 -0.90 0.61 
-1.71 -3.05 -0.88 0.80 
-1.74 -2.98 -0.87 0.81 
-1.80 -2.94 -0.87 0.97 
-1.86 -2.91 -0.87 0.97 
-1.93 -2.91 -0.88 0.86 
-2.01 -2.90 -0.89 0.87 
-2.09 -2.90 -0.90 0.78 
-2.17 -2.90 -0.91 0.80 
-2.26 -2.89 -0.93 0.79 
-2.35 -2.90 -0.94 0.73 
-2.44 -2.90 -0.96 0.72 
-2.54 -2.90 -0.97 0.71 
-2.64 -2.90 -0.99 0.69 
-2.75 -2.91 -1.01 0.65 
-2.86 -2.92 -1.03 0.64 
-2.98 -2.93 -1.06 0.56 
-3.12 -2.95 -1.09 0.54 
-3.27 -2.97 -1.12 0.50 
-3.43 -3.00 -1.15 0.39 
-5.09 -4.29 -1.68 0.24 
-5.17 -4.19 -1.68 0.24 
-5.25 -4.09 -1.68 0.24 
-5.33 -3.99 -1.68 0.24 
-5.40 -3.89 -1.68 0.24 
-5.47 -3.79 -1.68 0.24 
-5.54 -3.69 -1.68 0.24 
-5.61 -3.58 -1.68 0.24 
-5.68 -3.47 -1.68 0.24 
-5.74 -3.37 -1.68 0.24 
-5.81 -3.26 -1.68 0.24 
-5.87 -3.15 -1.68 0.24 
-5.93 -3.03 -1.68 0.24 
-5.98 -2.92 -1.68 0.24 
-6.04 -2.81 -1.68 0.24 
-6.09 -2.69 -1.68 0.24 
-0.74 -0.31 -0.20 0.22 
-0.75 -0.30 -0.20 0.22 
-0.75 -0.28 -0.20 0.22 
-0.76 -0.27 -0.20 0.22 
-0.76 -0.25 -0.20 0.22 
-0.77 -0.24 -0.20 0.22 
-0.77 -0.23 -0.20 0.22 
-0.78 -0.21 -0.20 0.22 
-0.78 -0.20 -0.20 0.22 
-0.78 -0.18 -0.20 0.22 
-0.79 -0.17 -0.20 0.22 
-0.79 -0.15 -0.20 0.22 
-0.79 -0.14 -0.20 0.22 
-0.79 -0.12 -0.20 0.22 
-0.80 -0.11 -0.20 0.22 
-0.80 -0.09 -0.20 0.22 
-0.80 -0.08 -0.20 0.22 
-0.80 -0.06 -0.20 0.22 
-0.80 -0.05 -0.20 0.22 
-0.80 -0.03 -0.20 0.22 
-0.80 -0.02 -0.20 0.21 
-0.80 -0.00 -0.20 0.21 
-0.79 0.01 -0.20 0.21 
-0.79 0.03 -0.20 0.21 
-0.79 0.05 -0.20 0.21 
-0.79 0.06 -0.20 0.21 
-0.79 0.08 -0.20 0.21 
-0.79 0.09 -0.20 0.21 
-0.79 0.10 -0.20 0.21 
-0.78 0.12 -0.20 0.21 
-0.78 0.13 -0.20 0.22 
-0.78 0.15 -0.20 0.22 
-0.78 0.16 -0.20 0.22 
-0.77 0.18 -0.20 0.22 
-0.77 0.19 -0.20 0.22 
-0.77 0.21 -0.20 0.22 
-0.76 0.22 -0.20 0.22 
-0.76 0.24 -0.20 0.22 
-0.75 0.25 -0.20 0.22 
-0.75 0.27 -0.20 0.22 
-0.74 0.28 -0.20 0.22 
-0.74 0.29 -0.20 0.21 
-0.73 0.31 -0.20 0.21 
-0.73 0.32 -0.20 0.21 
-0.72 0.34 -0.20 0.21 
-0.71 0.35 -0.20 0.21 
-0.71 0.36 -0.20 0.21 
-0.70 0.38 -0.20 0.21 
-0.69 0.39 -0.20 0.21 
-0.68 0.40 -0.20 0.22 
-0.68 0.41 -0.20 0.22 
-0.67 0.43 -0.20 0.22 
-0.66 0.44 -0.20 0.22 
-5.44 3.77 -1.68 0.24 
-5.37 3.87 -1.68 0.24 
-5.30 3.97 -1.68 0.24 
-5.22 4.07 -1.68 0.24 
-5.14 4.17 -1.68 0.24 
-5.06 4.27 -1.68 0.24 
-4.98 4.36 -1.68 0.24 
-4.90 4.46 -1.68 0.24 
-4.81 4.55 -1.68 0.24 
-4.73 4.64 -1.68 0.24 
-4.64 4.73 -1.68 0.24 
-4.55 4.81 -1.68 0.24 
-4.46 4.90 -1.68 0.24 
-4.36 4.98 -1.68 0.24 
-4.27 5.06 -1.68 0.24 
-4.17 5.14 -1.68 0.24 
-4.07 5.22 -1.68 0.24 
-3.97 5.30 -1.68 0.24 
-3.87 5.37 -1.68 0.24 
-3.77 5.44 -1.68 0.24 
-3.67 5.51 -1.68 0.24 
-3.56 5.58 -1.68 0.24 
-3.45 5.65 -1.68 0.24 
-3.35 5.71 -1.68 0.24 
-3.24 5.78 -1.68 0.24 
-3.13 5.84 -1.68 0.24 
-3.02 5.89 -1.68 0.24 
-2.91 5.95 -1.68 0.24 
-2.79 6.00 -1.68 0.24 
-2.68 6.06 -1.68 0.24 
-2.56 6.11 -1.68 0.24 
-2.45 6.15 -1.68 0.24 
-2.26 6.01 -1.63 0.90 
-2.13 6.01 -1.62 0.90 
-2.00 6.01 -1.61 0.90 
-1.97 6.32 -1.68 0.24 
-1.85 6.36 -1.68 0.24 
-1.73 6.39 -1.68 0.24 
-1.61 6.42 -1.68 0.24 
-1.49 6.45 -1.68 0.24 
-1.37 6.48 -1.68 0.24 
-1.25 6.50 -1.68 0.24 
-1.12 6.53 -1.68 0.24 
-1.00 6.55 -1.68 0.24 
-0.87 6.56 -1.68 0.24 
-0.75 6.58 -1.68 0.24 
-0.63 6.59 -1.68 0.24 
-0.50 6.60 -1.68 0.24 
-0.38 6.61 -1.68 0.24 
-0.25 6.62 -1.68 0.24 
-0.13 6.62 -1.68 0.24 
-0.00 6.62 -1.68 0.24 
0.13 6.62 -1.68 0.24 
0.25 6.62 -1.68 0.24 
0.38 6.61 -1.68 0.24 
0.50 6.60 -1.68 0.24 
0.63 6.59 -1.68 0.24 
0.75 6.58 -1.68 0.24 
0.87 6.56 -1.68 0.24 
1.00 6.55 -1.68 0.24 
1.12 6.53 -1.68 0.24 
1.25 6.50 -1.68 0.24 
1.37 6.48 -1.68 0.24 
1.49 6.45 -1.68 0.24 
1.61 6.42 -1.68 0.24 
1.73 6.39 -1.68 0.24 
1.85 6.36 -1.68 0.24 
1.97 6.32 -1.68 0.24 
2.09 6.28 -1.68 0.24 
2.21 6.24 -1.68 0.24 
2.33 6.20 -1.68 0.24 
2.45 6.15 -1.68 0.24 
2.56 6.11 -1.68 0.24 
2.68 6.06 -1.68 0.24 
2.79 6.01 -1.68 0.24 
2.91 5.95 -1.68 0.24 
3.02 5.90 -1.68 0.24 
3.13 5.84 -1.68 0.24 
3.24 5.78 -1.68 0.24 
3.35 5.71 -1.68 0.24 
3.46 5.65 -1.68 0.24 
3.56 5.58 -1.68 0.24 
3.67 5.52 -1.68 0.24 
3.77 5.45 -1.68 0.24 
3.87 5.37 -1.68 0.24 
3.97 5.30 -1.68 0.24 
4.07 5.22 -1.68 0.24 
4.17 5.14 -1.68 0.24 
4.27 5.06 -1.68 0.24 
4.36 4.98 -1.68 0.24 
4.46 4.90 -1.68 0.24 
4.55 4.81 -1.68 0.24 
4.64 4.73 -1.68 0.24 
4.73 4.64 -1.68 0.24 
4.81 4.55 -1.68 0.24 
4.90 4.46 -1.68 0.24 
4.98 4.36 -1.68 0.24 
5.07 4.27 -1.68 0.24 
5.15 4.17 -1.68 0.24 
5.22 4.07 -1.68 0.24 
5.30 3.97 -1.68 0.24 
5.37 3.87 -1.68 0.24 
5.45 3.77 -1.68 0.24 
5.52 3.67 -1.68 0.24 
5.58 3.56 -1.68 0.24 
5.65 3.46 -1.68 0.24 
5.72 3.35 -1.68 0.24 
5.78 3.24 -1.68 0.24 
5.84 3.13 -1.68 0.24 
5.42 2.77 -1.54 0.57 
5.44 2.65 -1.54 0.41 
5.71 2.65 -1.60 0.40 
6.06 2.68 -1.68 0.24 
6.11 2.56 -1.68 0.24 
6.16 2.45 -1.68 0.24 
6.20 2.33 -1.68 0.24 
6.24 2.21 -1.68 0.24 
6.28 2.09 -1.68 0.24 
6.32 1.98 -1.68 0.24 
6.36 1.86 -1.68 0.24 
6.39 1.73 -1.68 0.24 
6.43 1.61 -1.68 0.24 
6.45 1.49 -1.68 0.24 
6.48 1.37 -1.68 0.24 
6.51 1.25 -1.68 0.24 
6.53 1.12 -1.68 0.24 
6.55 1.00 -1.68 0.24 
6.57 0.88 -1.68 0.24 
6.58 0.75 -1.68 0.24 
6.60 0.63 -1.68 0.24 
6.61 0.50 -1.68 0.24 
6.61 0.38 -1.68 0.24 
6.62 0.25 -1.68 0.24 
6.62 0.13 -1.68 0.24 
6.63 -0.00 -1.68 0.24 
6.62 -0.13 -1.68 0.24 
6.62 -0.25 -1.68 0.24 
6.61 -0.38 -1.68 0.24 
6.61 -0.50 -1.68 0.24 
6.60 -0.63 -1.68 0.24 
6.58 -0.75 -1.68 0.24 
6.57 -0.88 -1.68 0.24 
6.55 -1.00 -1.68 0.24 
6.53 -1.12 -1.68 0.24 
6.51 -1.25 -1.68 0.24 
6.48 -1.37 -1.68 0.24 
6.46 -1.49 -1.68 0.24 
6.43 -1.61 -1.68 0.24 
6.39 -1.74 -1.68 0.24 
6.36 -1.86 -1.68 0.24 
6.32 -1.98 -1.68 0.24 
6.29 -2.10 -1.68 0.24 
6.24 -2.21 -1.68 0.24 
6.20 -2.33 -1.68 0.24 
6.16 -2.45 -1.68 0.24 
6.11 -2.56 -1.68 0.24 
6.06 -2.68 -1.68 0.24 
6.01 -2.79 -1.68 0.24 
5.95 -2.91 -1.68 0.24 
5.90 -3.02 -1.68 0.24 
5.84 -3.13 -1.68 0.24 
5.78 -3.24 -1.68 0.24 
5.72 -3.35 -1.68 0.24 
5.65 -3.46 -1.68 0.24 
5.59 -3.56 -1.68 0.24 
5.52 -3.67 -1.68 0.24 
5.45 -3.77 -1.68 0.24 
5.38 -3.87 -1.68 0.24 
5.30 -3.98 -1.68 0.24 
5.22 -4.07 -1.68 0.24 
5.15 -4.17 -1.68 0.24 
5.07 -4.27 -1.68 0.24 
4.99 -4.36 -1.68 0.24 
4.90 -4.46 -1.68 0.24 
4.82 -4.55 -1.68 0.24 
4.73 -4.64 -1.68 0.24 
4.64 -4.73 -1.68 0.24 
4.55 -4.82 -1.68 0.24 
4.46 -4.90 -1.68 0.24 
4.36 -4.99 -1.68 0.24 
4.27 -5.07 -1.68 0.24 
4.17 -5.15 -1.68 0.24 
4.07 -5.22 -1.68 0.24 
3.98 -5.30 -1.68 0.24 
3.87 -5.38 -1.68 0.24 
3.77 -5.45 -1.68 0.24 
3.67 -5.52 -1.68 0.24 
3.56 -5.59 -1.68 0.24 
3.46 -5.65 -1.68 0.24 
3.35 -5.72 -1.68 0.24 
3.24 -5.78 -1.68 0.24 
3.13 -5.84 -1.68 0.24 
3.02 -5.90 -1.68 0.24 
2.91 -5.95 -1.68 0.24 
2.79 -6.01 -1.68 0.24 
2.68 -6.06 -1.68 0.24 
2.56 -6.11 -1.68 0.24 
2.45 -6.16 -1.68 0.24 
2.33 -6.20 -1.68 0.24 
2.21 -6.25 -1.68 0.24 
2.10 -6.29 -1.68 0.24 
1.98 -6.32 -1.68 0.24 
1.86 -6.36 -1.68 0.24 
1.74 -6.39 -1.68 0.24 
1.61 -6.43 -1.68 0.24 
1.49 -6.46 -1.68 0.24 
1.37 -6.48 -1.68 0.24 
1.25 -6.51 -1.68 0.24 
1.12 -6.53 -1.68 0.24 
1.00 -6.55 -1.68 0.24 
0.88 -6.57 -1.68 0.24 
0.75 -6.58 -1.68 0.24 
0.63 -6.60 -1.68 0.24 
0.50 -6.61 -1.68 0.24 
0.38 -6.62 -1.68 0.24 
0.25 -6.62 -1.68 0.24 
0.13 -6.62 -1.68 0.24 
-0.00 -6.63 -1.68 0.24 
-0.13 -6.62 -1.68 0.24 
-0.25 -6.62 -1.68 0.24 
-0.38 -6.62 -1.68 0.24 
-0.50 -6.61 -1.68 0.24 
-0.63 -6.60 -1.68 0.24 
-0.75 -6.58 -1.68 0.24 
-0.88 -6.57 -1.68 0.24 
-1.00 -6.55 -1.68 0.24 
-1.12 -6.53 -1.68 0.24 
-1.25 -6.51 -1.68 0.24 
-1.37 -6.48 -1.68 0.24 
-1.49 -6.46 -1.68 0.24 
-1.61 -6.43 -1.68 0.24 
-1.74 -6.39 -1.68 0.24 
-1.86 -6.36 -1.68 0.24 
-1.98 -6.32 -1.68 0.24 
-2.10 -6.29 -1.68 0.24 
-2.21 -6.24 -1.68 0.24 
-2.33 -6.20 -1.68 0.24 
-2.45 -6.16 -1.68 0.24 
-1.59 -3.80 -1.05 0.31 
-1.60 -3.62 -1.01 0.44 
-1.62 -3.47 -0.97 0.50 
-1.63 -3.34 -0.94 0.49 
-1.65 -3.23 -0.92 0.60 
-1.68 -3.13 -0.90 0.61 
-1.71 -3.05 -0.89 0.80 
-1.74 -2.98 -0.88 0.81 
-1.80 -2.94 -0.88 0.97 
-1.86 -2.91 -0.88 0.97 
-1.93 -2.90 -0.89 0.86 
-2.01 -2.90 -0.89 0.87 
-2.09 -2.89 -0.91 0.78 
-2.17 -2.89 -0.92 0.80 
-2.26 -2.89 -0.93 0.79 
-2.35 -2.89 -0.95 0.73 
-2.44 -2.90 -0.96 0.72 
-2.54 -2.90 -0.98 0.71 
-2.64 -2.90 -1.00 0.69 
-2.75 -2.91 -1.02 0.65 
-2.86 -2.92 -1.04 0.64 
-2.98 -2.93 -1.06 0.56 
-3.12 -2.95 -1.09 0.54 
-3.27 -2.97 -1.12 0.50 
-3.43 -3.00 -1.16 0.39 
-5.07 -4.27 -1.68 0.24 
-5.15 -4.17 -1.68 0.24 
-5.22 -4.07 -1.68 0.24 
-5.30 -3.97 -1.68 0.24 
-5.37 -3.87 -1.68 0.24 
-5.45 -3.77 -1.68 0.24 
-5.52 -3.67 -1.68 0.24 
-5.59 -3.56 -1.68 0.24 
-5.65 -3.46 -1.68 0.24 
-5.72 -3.35 -1.68 0.24 
-5.78 -3.24 -1.68 0.24 
-5.84 -3.13 -1.68 0.24 
-5.90 -3.02 -1.68 0.24 
-5.95 -2.91 -1.68 0.24 
-6.01 -2.79 -1.68 0.24 
-6.06 -2.68 -1.68 0.24 
-0.74 -0.31 -0.20 0.22 
-0.74 -0.30 -0.20 0.22 
-0.75 -0.28 -0.20 0.22 
-0.75 -0.27 -0.20 0.22 
-0.76 -0.25 -0.20 0.22 
-0.76 -0.24 -0.20 0.22 
-0.77 -0.22 -0.20 0.22 
-0.77 -0.21 -0.20 0.22 
-0.78 -0.19 -0.20 0.22 
-0.78 -0.18 -0.20 0.22 
-0.78 -0.17 -0.20 0.22 
-0.79 -0.15 -0.20 0.22 
-0.79 -0.14 -0.20 0.22 
-0.79 -0.12 -0.20 0.22 
-0.79 -0.11 -0.20 0.22 
-0.79 -0.09 -0.20 0.22 
-0.79 -0.08 -0.20 0.22 
-0.79 -0.06 -0.20 0.22 
-0.80 -0.05 -0.20 0.22 
-0.80 -0.03 -0.20 0.22 
-0.80 -0.02 -0.20 0.22 
-0.79 -0.00 -0.20 0.21 
-0.79 0.01 -0.20 0.21 
-0.79 0.03 -0.20 0.21 
-0.79 0.04 -0.20 0.21 
-0.79 0.06 -0.20 0.21 
-0.79 0.07 -0.20 0.21 
-0.78 0.09 -0.20 0.21 
-0.78 0.10 -0.20 0.21 
-0.78 0.12 -0.20 0.22 
-0.78 0.13 -0.20 0.22 
-0.78 0.15 -0.20 0.22 
-0.77 0.16 -0.20 0.22 
-0.77 0.18 -0.20 0.22 
-0.77 0.19 -0.20 0.22 
-0.76 0.21 -0.20 0.22 
-0.76 0.22 -0.20 0.22 
-0.75 0.24 -0.20 0.22 
-0.75 0.25 -0.20 0.22 
-0.75 0.26 -0.20 0.22 
-0.74 0.28 -0.20 0.22 
-0.74 0.29 -0.20 0.21 
-0.73 0.31 -0.20 0.21 
-0.72 0.32 -0.20 0.21 
-0.72 0.33 -0.20 0.21 
-0.71 0.35 -0.20 0.21 
-0.70 0.36 -0.20 0.21 
-0.70 0.37 -0.20 0.22 
-0.69 0.39 -0.20 0.22 
-0.68 0.40 -0.20 0.22 
-0.67 0.41 -0.20 0.22 
-0.67 0.42 -0.20 0.22 
-0.66 0.44 -0.20 0.22 
-0.72 0.50 -0.22 0.03 
-5.35 3.85 -1.68 0.24 
-5.27 3.95 -1.68 0.24 
-5.20 4.05 -1.68 0.24 
-5.12 4.15 -1.68 0.24 
-5.04 4.25 -1.68 0.24 
-4.96 4.34 -1.68 0.24 
-4.87 4.43 -1.68 0.24 
-4.79 4.53 -1.68 0.24 
-4.70 4.61 -1.68 0.24 
-4.61 4.70 -1.68 0.24 
-4.53 4.79 -1.68 0.24 
-4.43 4.87 -1.68 0.24 
-4.34 4.96 -1.68 0.24 
-4.25 5.04 -1.68 0.24 
-4.15 5.12 -1.68 0.24 
-4.05 5.20 -1.68 0.24 
-3.95 5.27 -1.68 0.24 
-3.85 5.35 -1.68 0.24 
-3.75 5.42 -1.68 0.24 
-3.65 5.49 -1.68 0.24 
-3.54 5.56 -1.68 0.24 
-3.44 5.62 -1.68 0.24 
-3.33 5.69 -1.68 0.24 
-3.22 5.75 -1.68 0.24 
-3.11 5.81 -1.68 0.24 
-3.00 5.87 -1.68 0.24 
-2.89 5.92 -1.68 0.24 
-2.78 5.97 -1.68 0.24 
-2.66 6.03 -1.68 0.24 
-2.55 6.08 -1.68 0.24 
-2.43 6.12 -1.68 0.24 
-2.26 6.01 -1.64 0.90 
-2.13 6.01 -1.63 0.90 
-2.00 6.01 -1.62 0.90 
-1.96 6.29 -1.68 0.24 
-1.85 6.33 -1.68 0.24 
-1.73 6.36 -1.68 0.24 
-1.60 6.39 -1.68 0.24 
-1.48 6.42 -1.68 0.24 
-1.36 6.45 -1.68 0.24 
-1.24 6.47 -1.68 0.24 
-1.12 6.49 -1.68 0.24 
-0.99 6.51 -1.68 0.24 
-0.87 6.53 -1.68 0.24 
-0.75 6.55 -1.68 0.24 
-0.62 6.56 -1.68 0.24 
-0.50 6.57 -1.68 0.24 
-0.37 6.58 -1.68 0.24 
-0.25 6.58 -1.68 0.24 
-0.12 6.59 -1.68 0.24 
0.00 6.59 -1.68 0.24 
0.12 6.59 -1.68 0.24 
0.25 6.58 -1.68 0.24 
0.37 6.58 -1.68 0.24 
0.50 6.57 -1.68 0.24 
0.62 6.56 -1.68 0.24 
0.75 6.55 -1.68 0.24 
0.87 6.53 -1.68 0.24 
0.99 6.51 -1.68 0.24 
1.12 6.49 -1.68 0.24 
1.24 6.47 -1.68 0.24 
1.36 6.45 -1.68 0.24 
1.48 6.42 -1.68 0.24 
1.61 6.39 -1.68 0.24 
1.73 6.36 -1.68 0.24 
1.85 6.33 -1.68 0.24 
1.97 6.29 -1.68 0.24 
2.08 6.25 -1.68 0.24 
2.20 6.21 -1.68 0.24 
2.32 6.17 -1.68 0.24 
2.44 6.12 -1.68 0.24 
2.55 6.08 -1.68 0.24 
2.67 6.03 -1.68 0.24 
2.78 5.98 -1.68 0.24 
2.89 5.92 -1.68 0.24 
3.00 5.87 -1.68 0.24 
3.11 5.81 -1.68 0.24 
3.22 5.75 -1.68 0.24 
3.33 5.69 -1.68 0.24 
3.44 5.62 -1.68 0.24 
3.54 5.56 -1.68 0.24 
3.65 5.49 -1.68 0.24 
3.75 5.42 -1.68 0.24 
3.85 5.35 -1.68 0.24 
3.95 5.27 -1.68 0.24 
4.05 5.20 -1.68 0.24 
4.15 5.12 -1.68 0.24 
4.25 5.04 -1.68 0.24 
4.34 4.96 -1.68 0.24 
4.43 4.88 -1.68 0.24 
4.53 4.79 -1.68 0.24 
4.62 4.70 -1.68 0.24 
4.70 4.62 -1.68 0.24 
4.79 4.53 -1.68 0.24 
4.88 4.43 -1.68 0.24 
4.96 4.34 -1.68 0.24 
5.04 4.25 -1.68 0.24 
5.12 4.15 -1.68 0.24 
5.20 4.05 -1.68 0.24 
5.27 3.95 -1.68 0.24 
5.35 3.85 -1.68 0.24 
5.42 3.75 -1.68 0.24 
5.49 3.65 -1.68 0.24 
5.56 3.54 -1.68 0.24 
5.62 3.44 -1.68 0.24 
5.69 3.33 -1.68 0.24 
5.75 3.22 -1.68 0.24 
5.81 3.11 -1.68 0.24 
5.42 2.78 -1.55 0.57 
5.44 2.65 -1.54 0.41 
5.71 2.65 -1.61 0.40 
6.03 2.67 -1.68 0.24 
6.08 2.55 -1.68 0.24 
6.12 2.44 -1.68 0.24 
6.17 2.32 -1.68 0.24 
6.21 2.20 -1.68 0.24 
6.25 2.08 -1.68 0.24 
6.29 1.97 -1.68 0.24 
6.33 1.85 -1.68 0.24 
6.36 1.73 -1.68 0.24 
6.39 1.61 -1.68 0.24 
6.42 1.48 -1.68 0.24 
6.45 1.36 -1.68 0.24 
6.47 1.24 -1.68 0.24 
6.50 1.12 -1.68 0.24 
6.52 0.99 -1.68 0.24 
6.53 0.87 -1.68 0.24 
6.55 0.75 -1.68 0.24 
6.56 0.62 -1.68 0.24 
6.57 0.50 -1.68 0.24 
6.58 0.37 -1.68 0.24 
6.59 0.25 -1.68 0.24 
6.59 0.12 -1.68 0.24 
6.59 -0.00 -1.68 0.24 
6.59 -0.12 -1.68 0.24 
6.59 -0.25 -1.68 0.24 
6.58 -0.37 -1.68 0.24 
6.57 -0.50 -1.68 0.24 
6.56 -0.62 -1.68 0.24 
6.55 -0.75 -1.68 0.24 
6.53 -0.87 -1.68 0.24 
6.52 -0.99 -1.68 0.24 
6.50 -1.12 -1.68 0.24 
6.47 -1.24 -1.68 0.24 
6.45 -1.36 -1.68 0.24 
6.42 -1.48 -1.68 0.24 
6.39 -1.61 -1.68 0.24 
6.36 -1.73 -1.68 0.24 
6.33 -1.85 -1.68 0.24 
6.29 -1.97 -1.68 0.24 
6.25 -2.08 -1.68 0.24 
6.21 -2.20 -1.68 0.24 
6.17 -2.32 -1.68 0.24 
6.13 -2.44 -1.68 0.24 
6.08 -2.55 -1.68 0.24 
6.03 -2.67 -1.68 0.24 
5.98 -2.78 -1.68 0.24 
5.92 -2.89 -1.68 0.24 
5.87 -3.00 -1.68 0.24 
5.81 -3.11 -1.68 0.24 
5.75 -3.22 -1.68 0.24 
5.69 -3.33 -1.68 0.24 
5.62 -3.44 -1.68 0.24 
5.56 -3.55 -1.68 0.24 
5.49 -3.65 -1.68 0.24 
5.42 -3.75 -1.68 0.24 
5.35 -3.86 -1.68 0.24 
5.27 -3.96 -1.68 0.24 
5.20 -4.05 -1.68 0.24 
5.12 -4.15 -1.68 0.24 
5.04 -4.25 -1.68 0.24 
4.96 -4.34 -1.68 0.24 
4.88 -4.44 -1.68 0.24 
4.79 -4.53 -1.68 0.24 
4.71 -4.62 -1.68 0.24 
4.62 -4.71 -1.68 0.24 
4.53 -4.79 -1.68 0.24 
4.44 -4.88 -1.68 0.24 
4.34 -4.96 -1.68 0.24 
4.25 -5.04 -1.68 0.24 
4.15 -5.12 -1.68 0.24 
4.05 -5.20 -1.68 0.24 
3.96 -5.27 -1.68 0.24 
3.86 -5.35 -1.68 0.24 
3.75 -5.42 -1.68 0.24 
3.65 -5.49 -1.68 0.24 
3.55 -5.56 -1.68 0.24 
3.44 -5.62 -1.68 0.24 
3.33 -5.69 -1.68 0.24 
3.22 -5.75 -1.68 0.24 
3.11 -5.81 -1.68 0.24 
3.00 -5.87 -1.68 0.24 
2.89 -5.92 -1.68 0.24 
2.78 -5.98 -1.68 0.24 
2.67 -6.03 -1.68 0.24 
2.55 -6.08 -1.68 0.24 
2.44 -6.13 -1.68 0.24 
2.32 -6.17 -1.68 0.24 
2.20 -6.21 -1.68 0.24 
2.08 -6.25 -1.68 0.24 
1.97 -6.29 -1.68 0.24 
1.85 -6.33 -1.68 0.24 
1.73 -6.36 -1.68 0.24 
1.61 -6.39 -1.68 0.24 
1.48 -6.42 -1.68 0.24 
1.36 -6.45 -1.68 0.24 
1.24 -6.48 -1.68 0.24 
1.12 -6.50 -1.68 0.24 
0.99 -6.52 -1.68 0.24 
0.87 -6.54 -1.68 0.24 
0.75 -6.55 -1.68 0.24 
0.62 -6.56 -1.68 0.24 
0.50 -6.57 -1.68 0.24 
0.37 -6.58 -1.68 0.24 
0.25 -6.59 -1.68 0.24 
0.12 -6.59 -1.68 0.24 
-0.00 -6.59 -1.68 0.24 
-0.12 -6.59 -1.68 0.24 
-0.25 -6.59 -1.68 0.24 
-0.37 -6.58 -1.68 0.24 
-0.50 -6.57 -1.68 0.24 
-0.62 -6.56 -1.68 0.24 
-0.75 -6.55 -1.68 0.24 
-0.87 -6.53 -1.68 0.24 
-0.99 -6.52 -1.68 0.24 
-1.12 -6.50 -1.68 0.24 
-1.24 -6.47 -1.68 0.24 
-1.36 -6.45 -1.68 0.24 
-1.48 -6.42 -1.68 0.24 
-1.61 -6.39 -1.68 0.24 
-1.73 -6.36 -1.68 0.24 
-1.85 -6.33 -1.68 0.24 
-1.97 -6.29 -1.68 0.24 
-2.08 -6.25 -1.68 0.24 
-2.20 -6.21 -1.68 0.24 
-2.32 -6.17 -1.68 0.24 
-2.44 -6.13 -1.68 0.24 
-1.59 -3.79 -1.05 0.31 
-1.60 -3.62 -1.01 0.44 
-1.61 -3.47 -0.98 0.50 
-1.63 -3.34 -0.95 0.49 
-1.65 -3.23 -0.92 0.60 
-1.68 -3.13 -0.90 0.61 
-1.71 -3.04 -0.89 0.80 
-1.74 -2.98 -0.88 0.81 
-1.80 -2.94 -0.88 0.97 
-1.86 -2.91 -0.88 0.97 
-1.93 -2.90 -0.89 0.86 
-2.00 -2.90 -0.90 0.87 
-2.09 -2.89 -0.91 0.78 
-2.17 -2.89 -0.92 0.80 
-2.26 -2.89 -0.94 0.79 
-2.35 -2.89 -0.95 0.73 
-2.44 -2.90 -0.97 0.72 
-2.54 -2.90 -0.98 0.71 
-2.64 -2.90 -1.00 0.69 
-2.75 -2.91 -1.02 0.65 
-2.86 -2.92 -1.04 0.64 
-2.98 -2.93 -1.07 0.56 
-3.12 -2.95 -1.10 0.54 
-3.27 -2.97 -1.13 0.50 
-3.43 -3.00 -1.16 0.39 
-5.04 -4.25 -1.68 0.24 
-5.12 -4.15 -1.68 0.24 
-5.20 -4.05 -1.68 0.24 
-5.27 -3.95 -1.68 0.24 
-5.35 -3.85 -1.68 0.24 
-5.42 -3.75 -1.68 0.24 
-5.49 -3.65 -1.68 0.24 
-5.56 -3.54 -1.68 0.24 
-5.62 -3.44 -1.68 0.24 
-5.69 -3.33 -1.68 0.24 
-5.75 -3.22 -1.68 0.24 
-5.81 -3.11 -1.68 0.24 
-5.87 -3.00 -1.68 0.24 
-5.92 -2.89 -1.68 0.24 
-5.98 -2.78 -1.68 0.24 
-6.03 -2.67 -1.68 0.24 
-0.73 -0.31 -0.20 0.21 
-0.74 -0.29 -0.20 0.22 
-0.75 -0.28 -0.20 0.22 
-0.75 -0.27 -0.20 0.22 
-0.76 -0.25 -0.20 0.22 
-0.76 -0.24 -0.20 0.22 
-0.76 -0.22 -0.20 0.22 
-0.77 -0.21 -0.20 0.22 
-0.77 -0.19 -0.20 0.22 
-0.78 -0.18 -0.20 0.22 
-0.78 -0.16 -0.20 0.22 
-0.78 -0.15 -0.20 0.22 
-0.78 -0.13 -0.20 0.22 
-0.79 -0.12 -0.20 0.22 
-0.79 -0.10 -0.20 0.22 
-0.79 -0.09 -0.20 0.22 
-0.79 -0.07 -0.20 0.22 
-0.79 -0.06 -0.20 0.22 
-0.79 -0.05 -0.20 0.22 
-0.79 -0.03 -0.20 0.22 
-0.79 -0.01 -0.20 0.22 
-0.79 -0.00 -0.20 0.22 
-0.79 0.01 -0.20 0.22 
-0.78 0.03 -0.20 0.22 
-0.78 0.04 -0.20 0.22 
-0.78 0.06 -0.20 0.22 
