VERSION 0.7
FIELDS x y z intensity
SIZE 4 4 4 8
TYPE F F F F
COUNT 1 1 1 1
WIDTH 2015
HEIGHT 1
VIEWPOINT 0.0 0.0 0.0 1.0 0.0 0.0 0.0
POINTS 2015
DATA ascii
-12.61 -3.94 -1.68 0.12 
-12.69 -3.70 -1.68 0.12 
-12.75 -3.46 -1.68 0.12 
-12.82 -3.22 -1.68 0.12 
-12.87 -2.97 -1.68 0.12 
-12.93 -2.73 -1.68 0.12 
-12.98 -2.49 -1.68 0.12 
-13.02 -2.24 -1.68 0.12 
-10.53 -1.61 -1.36 0.91 
-10.55 -1.41 -1.36 0.91 
-13.12 -1.50 -1.68 0.12 
-13.15 -1.25 -1.68 0.12 
-13.17 -1.00 -1.68 0.12 
-13.19 -0.75 -1.68 0.12 
-13.20 -0.50 -1.68 0.12 
-13.20 -0.25 -1.68 0.12 
-13.08 -0.00 -1.68 0.12 
-10.71 0.20 -1.38 0.90 
-10.73 0.41 -1.38 0.90 
-13.06 0.74 -1.68 0.12 
-13.04 0.99 -1.68 0.12 
-13.02 1.24 -1.68 0.12 
-12.99 1.48 -1.68 0.12 
-12.96 1.73 -1.68 0.12 
-12.92 1.97 -1.68 0.12 
-12.88 2.22 -1.68 0.12 
-11.98 2.29 -1.57 0.26 
-12.79 2.70 -1.68 0.12 
-12.74 2.94 -1.68 0.12 
-12.05 3.03 -1.60 0.31 
-12.61 3.42 -1.68 0.12 
-12.55 3.66 -1.68 0.12 
-12.47 3.90 -1.68 0.12 
-12.40 4.13 -1.68 0.12 
-12.32 4.37 -1.68 0.12 
-12.23 4.60 -1.68 0.12 
-12.14 4.83 -1.68 0.12 
-12.05 5.06 -1.68 0.12 
-11.95 5.28 -1.68 0.12 
-11.84 5.51 -1.68 0.12 
-11.74 5.73 -1.68 0.12 
-11.63 5.95 -1.68 0.12 
-11.51 6.17 -1.68 0.12 
-11.39 6.39 -1.68 0.12 
-11.27 6.60 -1.68 0.12 
-11.14 6.81 -1.68 0.12 
-8.68 5.53 -1.32 0.58 
-8.37 5.56 -1.29 0.60 
-8.07 5.59 -1.26 0.61 
-7.81 5.63 -1.24 0.64 
-7.55 5.66 -1.21 0.66 
-7.29 5.69 -1.19 0.68 
-7.05 5.72 -1.17 0.70 
-6.82 5.75 -1.15 0.71 
-6.60 5.78 -1.13 0.72 
-6.38 5.81 -1.11 0.72 
-6.17 5.83 -1.09 0.75 
-5.96 5.85 -1.07 0.74 
-5.76 5.87 -1.06 0.70 
-5.50 5.82 -1.03 0.75 
-5.31 5.84 -1.02 0.77 
-5.13 5.86 -1.00 0.78 
-4.95 5.87 -0.99 0.79 
-4.79 5.91 -0.98 0.86 
-4.63 5.94 -0.97 0.88 
-4.52 6.03 -0.97 0.96 
-4.42 6.13 -0.97 0.96 
-4.35 6.28 -0.98 0.75 
-4.30 6.46 -1.00 0.61 
-4.29 6.72 -1.03 0.54 
-4.30 7.03 -1.06 0.39 
-4.37 7.46 -1.11 0.32 
-6.20 11.06 -1.63 0.87 
-5.94 11.08 -1.62 0.88 
-5.69 11.11 -1.61 0.88 
-5.44 11.14 -1.59 0.89 
-5.19 11.16 -1.58 0.90 
-4.95 11.19 -1.57 0.90 
-4.70 11.21 -1.56 0.91 
-4.47 11.23 -1.55 0.91 
-4.23 11.25 -1.55 0.92 
-4.00 11.27 -1.54 0.92 
-3.76 11.29 -1.53 0.73 
-3.54 11.32 -1.52 0.12 
-3.32 11.38 -1.52 0.12 
-3.10 11.44 -1.52 0.12 
-2.89 11.50 -1.52 0.12 
-2.67 11.55 -1.52 0.12 
-2.45 11.60 -1.52 0.12 
-2.23 11.64 -1.52 0.12 
-2.01 11.68 -1.52 0.12 
-1.79 11.72 -1.52 0.12 
-1.57 11.75 -1.52 0.12 
-1.34 11.78 -1.52 0.12 
-1.12 11.80 -1.52 0.12 
-0.90 11.82 -1.52 0.12 
-0.67 11.83 -1.52 0.12 
-0.45 11.84 -1.52 0.12 
-0.22 11.85 -1.52 0.12 
0.00 11.85 -1.52 0.12 
0.22 11.85 -1.52 0.12 
0.45 11.84 -1.52 0.12 
0.67 11.83 -1.52 0.12 
0.90 11.82 -1.52 0.12 
1.12 11.80 -1.52 0.12 
1.34 11.77 -1.52 0.12 
1.57 11.75 -1.52 0.12 
1.79 11.71 -1.52 0.12 
2.01 11.68 -1.52 0.12 
2.23 11.64 -1.52 0.12 
2.45 11.59 -1.52 0.12 
2.67 11.55 -1.52 0.12 
2.89 11.49 -1.52 0.12 
3.10 11.44 -1.52 0.12 
3.32 11.38 -1.52 0.12 
3.54 11.34 -1.53 0.74 
3.77 11.32 -1.53 0.92 
4.01 11.30 -1.54 0.92 
4.24 11.28 -1.55 0.91 
4.48 11.27 -1.56 0.91 
4.72 11.24 -1.57 0.91 
4.96 11.22 -1.58 0.90 
5.21 11.20 -1.59 0.89 
5.46 11.17 -1.60 0.89 
5.71 11.15 -1.61 0.88 
5.96 11.12 -1.62 0.88 
6.22 11.09 -1.63 0.88 
6.48 11.06 -1.65 0.87 
6.74 11.02 -1.66 0.86 
6.98 10.94 -1.67 0.14 
7.19 10.82 -1.67 0.14 
7.40 10.69 -1.67 0.14 
7.61 10.56 -1.67 0.14 
7.82 10.43 -1.68 0.12 
8.02 10.28 -1.68 0.12 
8.21 10.12 -1.68 0.12 
8.40 9.97 -1.68 0.12 
8.59 9.81 -1.68 0.12 
8.77 9.64 -1.68 0.12 
8.95 9.48 -1.68 0.12 
9.13 9.31 -1.68 0.12 
9.31 9.13 -1.68 0.12 
9.48 8.95 -1.68 0.12 
9.64 8.77 -1.68 0.12 
9.81 8.59 -1.68 0.12 
9.97 8.40 -1.68 0.12 
10.13 8.21 -1.68 0.12 
10.28 8.02 -1.68 0.12 
10.43 7.82 -1.68 0.12 
10.58 7.62 -1.68 0.12 
10.72 7.42 -1.68 0.12 
10.86 7.22 -1.68 0.12 
11.00 7.01 -1.68 0.12 
11.13 6.80 -1.68 0.12 
11.25 6.59 -1.68 0.12 
11.38 6.38 -1.68 0.12 
11.50 6.16 -1.68 0.12 
11.61 5.94 -1.68 0.12 
11.72 5.72 -1.68 0.12 
11.83 5.50 -1.68 0.12 
11.93 5.28 -1.68 0.12 
12.03 5.05 -1.68 0.12 
12.12 4.82 -1.68 0.12 
12.21 4.59 -1.68 0.12 
12.30 4.36 -1.68 0.12 
12.38 4.13 -1.68 0.12 
12.46 3.89 -1.68 0.12 
12.53 3.66 -1.68 0.12 
12.60 3.42 -1.68 0.12 
12.66 3.18 -1.68 0.12 
12.72 2.94 -1.68 0.12 
12.77 2.70 -1.68 0.12 
12.82 2.46 -1.68 0.12 
12.87 2.21 -1.68 0.12 
12.91 1.97 -1.68 0.12 
12.94 1.72 -1.68 0.12 
12.97 1.48 -1.68 0.12 
13.00 1.23 -1.68 0.12 
13.02 0.99 -1.68 0.12 
13.04 0.74 -1.68 0.12 
13.05 0.49 -1.68 0.12 
13.06 0.25 -1.68 0.12 
13.06 -0.00 -1.68 0.12 
13.06 -0.25 -1.68 0.12 
13.05 -0.49 -1.68 0.12 
13.04 -0.74 -1.68 0.12 
13.03 -0.99 -1.68 0.12 
13.01 -1.23 -1.68 0.12 
12.98 -1.48 -1.68 0.12 
12.95 -1.73 -1.68 0.12 
12.92 -1.97 -1.68 0.12 
12.88 -2.21 -1.68 0.12 
12.83 -2.46 -1.68 0.12 
12.79 -2.70 -1.68 0.12 
12.73 -2.94 -1.68 0.12 
12.68 -3.18 -1.68 0.12 
12.61 -3.42 -1.68 0.12 
12.55 -3.66 -1.68 0.12 
12.48 -3.90 -1.68 0.12 
12.40 -4.13 -1.68 0.12 
12.32 -4.37 -1.68 0.12 
12.24 -4.60 -1.68 0.12 
12.15 -4.83 -1.68 0.12 
12.06 -5.06 -1.68 0.12 
11.96 -5.29 -1.68 0.12 
11.86 -5.51 -1.68 0.12 
11.75 -5.74 -1.68 0.12 
6.60 -3.38 -0.95 0.31 
6.24 -3.35 -0.91 0.37 
5.94 -3.33 -0.88 0.41 
5.66 -3.31 -0.84 0.48 
5.42 -3.32 -0.82 0.57 
5.23 -3.33 -0.80 0.61 
5.07 -3.37 -0.78 0.85 
4.99 -3.46 -0.78 0.94 
4.94 -3.56 -0.78 0.87 
4.90 -3.67 -0.79 0.80 
4.86 -3.79 -0.79 0.77 
4.86 -3.94 -0.80 0.70 
4.87 -4.10 -0.82 0.59 
9.82 -8.60 -1.68 0.13 
9.58 -8.72 -1.67 0.44 
9.10 -8.60 -1.61 0.49 
8.67 -8.51 -1.56 0.51 
8.34 -8.50 -1.53 0.12 
8.18 -8.65 -1.53 0.12 
8.01 -8.81 -1.53 0.12 
7.84 -8.96 -1.53 0.12 
7.67 -9.10 -1.53 0.12 
7.50 -9.25 -1.53 0.12 
7.32 -9.39 -1.53 0.12 
7.14 -9.53 -1.53 0.12 
6.96 -9.66 -1.53 0.12 
6.78 -9.79 -1.53 0.12 
6.59 -9.92 -1.53 0.12 
6.40 -10.04 -1.53 0.12 
6.21 -10.16 -1.53 0.12 
6.02 -10.28 -1.53 0.12 
5.82 -10.39 -1.53 0.12 
5.63 -10.50 -1.53 0.12 
5.43 -10.60 -1.53 0.12 
5.23 -10.70 -1.53 0.12 
3.82 -8.22 -1.17 0.91 
3.68 -8.31 -1.17 0.30 
4.61 -10.98 -1.53 0.12 
4.40 -11.07 -1.53 0.12 
4.19 -11.15 -1.53 0.12 
3.98 -11.23 -1.53 0.12 
3.77 -11.30 -1.53 0.12 
3.55 -11.37 -1.53 0.12 
3.34 -11.44 -1.53 0.12 
3.12 -11.50 -1.53 0.12 
2.90 -11.56 -1.53 0.12 
2.68 -11.61 -1.53 0.12 
2.46 -11.66 -1.53 0.12 
2.24 -11.70 -1.53 0.12 
2.02 -11.75 -1.53 0.12 
1.80 -11.78 -1.53 0.12 
1.57 -11.81 -1.53 0.12 
1.35 -11.84 -1.53 0.12 
1.13 -11.87 -1.53 0.12 
0.90 -11.88 -1.53 0.12 
0.68 -11.90 -1.53 0.12 
0.45 -11.91 -1.53 0.12 
0.23 -11.92 -1.53 0.12 
-0.00 -11.92 -1.53 0.12 
-0.23 -11.92 -1.53 0.12 
-0.45 -11.91 -1.53 0.12 
-0.68 -11.90 -1.53 0.12 
-0.90 -11.89 -1.53 0.12 
-1.13 -11.87 -1.53 0.12 
-1.35 -11.84 -1.53 0.12 
-1.57 -11.82 -1.53 0.12 
-1.80 -11.78 -1.53 0.12 
-2.02 -11.75 -1.53 0.12 
-2.24 -11.71 -1.53 0.12 
-2.46 -11.66 -1.53 0.12 
-2.68 -11.61 -1.53 0.12 
-2.90 -11.56 -1.53 0.12 
-3.12 -11.50 -1.53 0.12 
-3.34 -11.44 -1.53 0.12 
-3.55 -11.38 -1.53 0.12 
-3.77 -11.31 -1.53 0.12 
-3.98 -11.24 -1.53 0.12 
-4.19 -11.16 -1.53 0.12 
-4.41 -11.08 -1.53 0.12 
-4.61 -10.99 -1.53 0.12 
-4.82 -10.90 -1.53 0.12 
-5.03 -10.81 -1.53 0.12 
-5.23 -10.71 -1.53 0.12 
-5.43 -10.61 -1.53 0.12 
-5.63 -10.51 -1.53 0.12 
-5.83 -10.40 -1.53 0.12 
-6.02 -10.28 -1.53 0.12 
-6.22 -10.17 -1.53 0.12 
-6.41 -10.05 -1.53 0.12 
-6.60 -9.93 -1.53 0.12 
-6.78 -9.80 -1.53 0.12 
-6.97 -9.67 -1.53 0.12 
-7.15 -9.53 -1.53 0.12 
-7.33 -9.40 -1.53 0.12 
-7.51 -9.26 -1.53 0.12 
-7.68 -9.11 -1.53 0.12 
-7.85 -8.97 -1.53 0.12 
-8.02 -8.82 -1.53 0.12 
-8.18 -8.66 -1.53 0.12 
-8.35 -8.51 -1.53 0.12 
-8.51 -8.35 -1.53 0.12 
-8.68 -8.20 -1.53 0.50 
-9.04 -8.22 -1.57 0.58 
-9.42 -8.25 -1.61 0.56 
-9.82 -8.28 -1.65 0.55 
-10.14 -8.22 -1.68 0.13 
-10.31 -8.04 -1.68 0.13 
-10.48 -7.86 -1.68 0.12 
-10.63 -7.66 -1.68 0.12 
-10.77 -7.46 -1.68 0.12 
-10.91 -7.25 -1.68 0.12 
-11.04 -7.04 -1.68 0.12 
-11.17 -6.83 -1.68 0.12 
-11.30 -6.62 -1.68 0.12 
-11.42 -6.40 -1.68 0.12 
-11.54 -6.19 -1.68 0.12 
-11.66 -5.97 -1.68 0.12 
-11.77 -5.75 -1.68 0.12 
-11.87 -5.52 -1.68 0.12 
-11.98 -5.30 -1.68 0.12 
-12.07 -5.07 -1.68 0.12 
-12.17 -4.84 -1.68 0.12 
-12.26 -4.61 -1.68 0.12 
-12.34 -4.37 -1.68 0.12 
-12.42 -4.14 -1.68 0.12 
-12.50 -3.90 -1.68 0.12 
-12.57 -3.67 -1.68 0.12 
-12.63 -3.43 -1.68 0.12 
-12.69 -3.19 -1.68 0.12 
-12.75 -2.95 -1.68 0.12 
-12.80 -2.70 -1.68 0.12 
-12.85 -2.46 -1.68 0.12 
-12.90 -2.22 -1.68 0.12 
-10.53 -1.61 -1.37 0.91 
-10.55 -1.41 -1.37 0.91 
-13.00 -1.48 -1.68 0.12 
-13.02 -1.24 -1.68 0.12 
-13.05 -0.99 -1.68 0.12 
-13.06 -0.74 -1.68 0.12 
-13.07 -0.50 -1.68 0.12 
-13.08 -0.25 -1.68 0.12 
-12.96 -0.00 -1.68 0.12 
-10.71 0.20 -1.39 0.90 
-10.73 0.41 -1.39 0.90 
-12.93 0.74 -1.68 0.12 
-12.92 0.98 -1.68 0.12 
-12.90 1.22 -1.68 0.12 
-12.87 1.47 -1.68 0.12 
-12.84 1.71 -1.68 0.12 
-12.80 1.95 -1.68 0.12 
-12.76 2.20 -1.68 0.12 
-11.98 2.29 -1.58 0.26 
-12.67 2.68 -1.68 0.12 
-12.62 2.92 -1.68 0.12 
-12.05 3.03 -1.61 0.31 
-12.50 3.39 -1.68 0.12 
-12.43 3.63 -1.68 0.12 
-12.36 3.86 -1.68 0.12 
-12.28 4.09 -1.68 0.12 
-12.20 4.32 -1.68 0.12 
-12.12 4.55 -1.68 0.12 
-12.03 4.78 -1.68 0.12 
-11.93 5.01 -1.68 0.12 
-11.84 5.23 -1.68 0.12 
-11.73 5.46 -1.68 0.12 
-11.63 5.68 -1.68 0.12 
-11.52 5.90 -1.68 0.12 
-11.40 6.11 -1.68 0.12 
-11.29 6.33 -1.68 0.12 
-11.16 6.54 -1.68 0.12 
-11.04 6.75 -1.68 0.12 
-8.68 5.53 -1.34 0.58 
-8.37 5.56 -1.30 0.60 
-8.07 5.59 -1.27 0.61 
-7.81 5.63 -1.25 0.64 
-7.54 5.66 -1.22 0.66 
-7.29 5.69 -1.20 0.68 
-7.05 5.72 -1.18 0.70 
-6.82 5.75 -1.16 0.71 
-6.60 5.78 -1.14 0.72 
-6.38 5.80 -1.12 0.72 
-6.17 5.83 -1.10 0.75 
-5.96 5.85 -1.08 0.74 
-5.76 5.87 -1.07 0.70 
-5.50 5.82 -1.04 0.75 
-5.31 5.84 -1.02 0.77 
-5.13 5.86 -1.01 0.78 
-4.95 5.87 -1.00 0.79 
-4.79 5.91 -0.99 0.86 
-4.63 5.94 -0.98 0.88 
-4.52 6.03 -0.98 0.96 
-4.42 6.13 -0.98 0.96 
-4.35 6.28 -0.99 0.75 
-4.30 6.46 -1.01 0.61 
-4.29 6.72 -1.03 0.54 
-4.30 7.03 -1.07 0.39 
-4.37 7.46 -1.12 0.32 
-6.20 11.05 -1.65 0.87 
-5.94 11.08 -1.63 0.88 
-5.69 11.11 -1.62 0.88 
-5.44 11.13 -1.61 0.89 
-5.19 11.16 -1.60 0.90 
-4.95 11.18 -1.59 0.90 
-4.70 11.20 -1.58 0.91 
-4.46 11.23 -1.57 0.91 
-4.23 11.25 -1.56 0.92 
-3.99 11.27 -1.55 0.92 
-3.76 11.29 -1.54 0.92 
-3.53 11.30 -1.54 0.93 
-3.30 11.32 -1.53 0.74 
-3.08 11.34 -1.53 0.74 
-2.86 11.39 -1.52 0.12 
-2.64 11.44 -1.52 0.12 
-2.43 11.49 -1.52 0.12 
-2.21 11.53 -1.52 0.12 
-1.99 11.57 -1.52 0.12 
-1.77 11.61 -1.52 0.12 
-1.55 11.64 -1.52 0.12 
-1.33 11.67 -1.52 0.12 
-1.11 11.69 -1.52 0.12 
-0.89 11.71 -1.52 0.12 
-0.67 11.72 -1.52 0.12 
-0.44 11.73 -1.52 0.12 
-0.22 11.74 -1.52 0.12 
0.00 11.74 -1.52 0.12 
0.22 11.74 -1.52 0.12 
0.44 11.73 -1.52 0.12 
0.67 11.72 -1.52 0.12 
0.89 11.71 -1.52 0.12 
1.11 11.69 -1.52 0.12 
1.33 11.66 -1.52 0.12 
1.55 11.64 -1.52 0.12 
1.77 11.61 -1.52 0.12 
1.99 11.57 -1.52 0.12 
2.21 11.53 -1.52 0.12 
2.43 11.49 -1.52 0.12 
2.64 11.44 -1.52 0.12 
2.86 11.39 -1.52 0.12 
3.08 11.36 -1.53 0.74 
3.31 11.35 -1.53 0.93 
3.54 11.33 -1.54 0.93 
3.77 11.32 -1.55 0.92 
4.00 11.30 -1.56 0.92 
4.24 11.28 -1.56 0.91 
4.48 11.26 -1.57 0.91 
4.72 11.24 -1.58 0.91 
4.96 11.22 -1.59 0.90 
5.21 11.19 -1.60 0.89 
5.45 11.17 -1.61 0.89 
5.71 11.15 -1.63 0.88 
5.96 11.12 -1.64 0.88 
6.21 11.09 -1.65 0.88 
6.48 11.05 -1.66 0.87 
6.71 10.97 -1.67 0.14 
6.92 10.85 -1.67 0.14 
7.13 10.73 -1.67 0.14 
7.34 10.60 -1.67 0.14 
7.55 10.47 -1.68 0.14 
7.75 10.33 -1.68 0.12 
7.94 10.18 -1.68 0.12 
8.13 10.03 -1.68 0.12 
8.32 9.87 -1.68 0.12 
8.51 9.72 -1.68 0.12 
8.69 9.55 -1.68 0.12 
8.87 9.39 -1.68 0.12 
9.05 9.22 -1.68 0.12 
9.22 9.05 -1.68 0.12 
9.39 8.87 -1.68 0.12 
9.55 8.69 -1.68 0.12 
9.72 8.51 -1.68 0.12 
9.88 8.32 -1.68 0.12 
10.03 8.14 -1.68 0.12 
10.19 7.94 -1.68 0.12 
10.33 7.75 -1.68 0.12 
10.48 7.55 -1.68 0.12 
10.62 7.35 -1.68 0.12 
10.76 7.15 -1.68 0.12 
10.89 6.95 -1.68 0.12 
11.02 6.74 -1.68 0.12 
11.15 6.53 -1.68 0.12 
11.27 6.32 -1.68 0.12 
11.39 6.10 -1.68 0.12 
11.50 5.89 -1.68 0.12 
11.61 5.67 -1.68 0.12 
11.72 5.45 -1.68 0.12 
11.82 5.23 -1.68 0.12 
11.92 5.00 -1.68 0.12 
12.01 4.78 -1.68 0.12 
12.10 4.55 -1.68 0.12 
12.18 4.32 -1.68 0.12 
12.26 4.09 -1.68 0.12 
12.34 3.86 -1.68 0.12 
12.41 3.62 -1.68 0.12 
12.48 3.39 -1.68 0.12 
12.54 3.15 -1.68 0.12 
12.60 2.91 -1.68 0.12 
12.65 2.67 -1.68 0.12 
12.70 2.43 -1.68 0.12 
12.75 2.19 -1.68 0.12 
12.79 1.95 -1.68 0.12 
12.82 1.71 -1.68 0.12 
12.85 1.47 -1.68 0.12 
12.88 1.22 -1.68 0.12 
12.90 0.98 -1.68 0.12 
12.92 0.73 -1.68 0.12 
12.93 0.49 -1.68 0.12 
12.94 0.24 -1.68 0.12 
12.94 -0.00 -1.68 0.12 
12.94 -0.24 -1.68 0.12 
12.93 -0.49 -1.68 0.12 
12.92 -0.73 -1.68 0.12 
12.90 -0.98 -1.68 0.12 
12.88 -1.22 -1.68 0.12 
12.86 -1.47 -1.68 0.12 
12.83 -1.71 -1.68 0.12 
12.80 -1.95 -1.68 0.12 
12.76 -2.19 -1.68 0.12 
12.71 -2.44 -1.68 0.12 
12.67 -2.68 -1.68 0.12 
12.61 -2.92 -1.68 0.12 
12.56 -3.15 -1.68 0.12 
12.50 -3.39 -1.68 0.12 
12.43 -3.63 -1.68 0.12 
12.36 -3.86 -1.68 0.12 
12.29 -4.10 -1.68 0.12 
12.21 -4.33 -1.68 0.12 
12.12 -4.56 -1.68 0.12 
12.04 -4.79 -1.68 0.12 
11.94 -5.01 -1.68 0.12 
11.85 -5.24 -1.68 0.12 
11.75 -5.46 -1.68 0.12 
11.64 -5.68 -1.68 0.12 
6.60 -3.38 -0.96 0.31 
6.24 -3.35 -0.92 0.37 
5.94 -3.33 -0.88 0.41 
5.66 -3.31 -0.85 0.48 
5.42 -3.32 -0.83 0.57 
5.23 -3.33 -0.80 0.61 
5.07 -3.37 -0.79 0.85 
4.99 -3.46 -0.79 0.94 
4.93 -3.56 -0.79 0.87 
4.90 -3.67 -0.79 0.80 
4.86 -3.79 -0.80 0.77 
4.86 -3.94 -0.81 0.70 
4.86 -4.10 -0.83 0.59 
9.73 -8.52 -1.68 0.13 
9.55 -8.69 -1.68 0.13 
9.10 -8.60 -1.63 0.49 
8.67 -8.51 -1.58 0.51 
8.27 -8.43 -1.53 0.45 
8.10 -8.57 -1.53 0.12 
7.94 -8.72 -1.53 0.12 
7.77 -8.87 -1.53 0.12 
7.60 -9.02 -1.53 0.12 
7.43 -9.16 -1.53 0.12 
7.25 -9.30 -1.53 0.12 
7.08 -9.44 -1.53 0.12 
6.90 -9.57 -1.53 0.12 
6.72 -9.70 -1.53 0.12 
6.53 -9.82 -1.53 0.12 
6.34 -9.95 -1.53 0.12 
6.16 -10.07 -1.53 0.12 
5.96 -10.18 -1.53 0.12 
5.77 -10.29 -1.53 0.12 
5.57 -10.40 -1.53 0.12 
5.38 -10.50 -1.53 0.12 
5.18 -10.60 -1.53 0.12 
3.82 -8.22 -1.18 0.91 
3.67 -8.31 -1.18 0.30 
4.57 -10.88 -1.53 0.12 
4.36 -10.97 -1.53 0.12 
4.15 -11.05 -1.53 0.12 
3.94 -11.12 -1.53 0.12 
3.73 -11.20 -1.53 0.12 
3.52 -11.27 -1.53 0.12 
3.31 -11.33 -1.53 0.12 
3.09 -11.39 -1.53 0.12 
2.88 -11.45 -1.53 0.12 
2.66 -11.50 -1.53 0.12 
2.44 -11.55 -1.53 0.12 
2.22 -11.59 -1.53 0.12 
2.00 -11.64 -1.53 0.12 
1.78 -11.67 -1.53 0.12 
1.56 -11.70 -1.53 0.12 
1.34 -11.73 -1.53 0.12 
1.12 -11.75 -1.53 0.12 
0.89 -11.77 -1.53 0.12 
0.67 -11.79 -1.53 0.12 
0.45 -11.80 -1.53 0.12 
0.22 -11.81 -1.53 0.12 
0.00 -11.81 -1.53 0.12 
-0.22 -11.81 -1.53 0.12 
-0.45 -11.80 -1.53 0.12 
-0.67 -11.79 -1.53 0.12 
-0.89 -11.77 -1.53 0.12 
-1.12 -11.76 -1.53 0.12 
-1.34 -11.73 -1.53 0.12 
-1.56 -11.71 -1.53 0.12 
-1.78 -11.67 -1.53 0.12 
-2.00 -11.64 -1.53 0.12 
-2.22 -11.60 -1.53 0.12 
-2.44 -11.55 -1.53 0.12 
-2.66 -11.51 -1.53 0.12 
-2.88 -11.45 -1.53 0.12 
-3.09 -11.40 -1.53 0.12 
-3.31 -11.34 -1.53 0.12 
-3.52 -11.27 -1.53 0.12 
-3.73 -11.20 -1.53 0.12 
-3.95 -11.13 -1.53 0.12 
-4.16 -11.05 -1.53 0.12 
-4.36 -10.97 -1.53 0.12 
-4.57 -10.89 -1.53 0.12 
-4.78 -10.80 -1.53 0.12 
-4.98 -10.71 -1.53 0.12 
-5.18 -10.61 -1.53 0.12 
-5.38 -10.51 -1.53 0.12 
-5.58 -10.41 -1.53 0.12 
-5.77 -10.30 -1.53 0.12 
-5.97 -10.19 -1.53 0.12 
-6.16 -10.07 -1.53 0.12 
-6.35 -9.95 -1.53 0.12 
-6.54 -9.83 -1.53 0.12 
-6.72 -9.71 -1.53 0.12 
-6.90 -9.58 -1.53 0.12 
-7.08 -9.45 -1.53 0.12 
-7.26 -9.31 -1.53 0.12 
-7.44 -9.17 -1.53 0.12 
-7.61 -9.03 -1.53 0.12 
-7.78 -8.88 -1.53 0.12 
-7.94 -8.73 -1.53 0.12 
-8.11 -8.58 -1.53 0.12 
-8.27 -8.43 -1.53 0.12 
-8.43 -8.27 -1.53 0.12 
-8.67 -8.19 -1.55 0.59 
-9.03 -8.22 -1.59 0.58 
-9.42 -8.24 -1.62 0.57 
-9.82 -8.27 -1.67 0.55 
-10.05 -8.15 -1.68 0.13 
-10.22 -7.97 -1.68 0.13 
-10.38 -7.79 -1.68 0.12 
-10.53 -7.59 -1.68 0.12 
-10.67 -7.39 -1.68 0.12 
-10.81 -7.18 -1.68 0.12 
-10.94 -6.98 -1.68 0.12 
-11.07 -6.77 -1.68 0.12 
-11.20 -6.56 -1.68 0.12 
-11.32 -6.34 -1.68 0.12 
-11.43 -6.13 -1.68 0.12 
-11.55 -5.91 -1.68 0.12 
-11.66 -5.69 -1.68 0.12 
-11.76 -5.47 -1.68 0.12 
-11.86 -5.25 -1.68 0.12 
-11.96 -5.02 -1.68 0.12 
-12.05 -4.79 -1.68 0.12 
-12.14 -4.56 -1.68 0.12 
-12.22 -4.33 -1.68 0.12 
-12.30 -4.10 -1.68 0.12 
-12.38 -3.87 -1.68 0.12 
-12.45 -3.63 -1.68 0.12 
-12.51 -3.40 -1.68 0.12 
-12.58 -3.16 -1.68 0.12 
-12.63 -2.92 -1.68 0.12 
-12.68 -2.68 -1.68 0.12 
-12.73 -2.44 -1.68 0.12 
-12.78 -2.20 -1.68 0.12 
-10.54 -1.61 -1.38 0.91 
-10.56 -1.41 -1.38 0.91 
-12.88 -1.47 -1.68 0.12 
-12.90 -1.22 -1.68 0.12 
-12.92 -0.98 -1.68 0.12 
-12.94 -0.74 -1.68 0.12 
-12.95 -0.49 -1.68 0.12 
-12.96 -0.25 -1.68 0.12 
-12.84 -0.00 -1.68 0.12 
-10.71 0.20 -1.40 0.72 
-10.73 0.41 -1.41 0.71 
-12.81 0.73 -1.68 0.12 
-12.80 0.97 -1.68 0.12 
-12.78 1.21 -1.68 0.12 
-12.75 1.45 -1.68 0.12 
-12.72 1.70 -1.68 0.12 
-12.68 1.94 -1.68 0.12 
-12.65 2.17 -1.68 0.12 
-11.98 2.29 -1.60 0.26 
-12.55 2.65 -1.68 0.12 
-12.50 2.89 -1.68 0.12 
-12.05 3.03 -1.63 0.31 
-12.38 3.36 -1.68 0.12 
-12.31 3.59 -1.68 0.12 
-12.24 3.82 -1.68 0.12 
-12.17 4.06 -1.68 0.12 
-12.09 4.28 -1.68 0.12 
-12.00 4.51 -1.68 0.12 
-11.92 4.74 -1.68 0.12 
-11.82 4.96 -1.68 0.12 
-11.73 5.19 -1.68 0.12 
-11.63 5.41 -1.68 0.12 
-11.52 5.62 -1.68 0.12 
-11.41 5.84 -1.68 0.12 
-11.30 6.06 -1.68 0.12 
-11.18 6.27 -1.68 0.12 
-11.06 6.48 -1.68 0.12 
-10.93 6.69 -1.68 0.12 
-8.68 5.53 -1.35 0.58 
-8.37 5.56 -1.32 0.60 
-8.07 5.59 -1.29 0.61 
-7.81 5.63 -1.26 0.64 
-7.54 5.66 -1.24 0.66 
-7.29 5.69 -1.21 0.68 
-7.05 5.72 -1.19 0.70 
-6.82 5.75 -1.17 0.71 
-6.60 5.78 -1.15 0.72 
-6.38 5.80 -1.13 0.72 
-6.17 5.83 -1.11 0.75 
-5.96 5.85 -1.09 0.74 
-5.76 5.87 -1.08 0.70 
-5.50 5.82 -1.05 0.75 
-5.31 5.84 -1.03 0.77 
-5.13 5.86 -1.02 0.78 
-4.95 5.87 -1.01 0.79 
-4.79 5.91 -1.00 0.86 
-4.63 5.94 -0.99 0.88 
-4.52 6.03 -0.99 0.96 
-4.42 6.13 -0.99 0.96 
-4.35 6.28 -1.00 0.75 
-4.30 6.46 -1.02 0.61 
-4.29 6.72 -1.04 0.54 
-4.30 7.03 -1.08 0.39 
-4.37 7.46 -1.13 0.32 
-6.20 11.05 -1.66 0.87 
-5.94 11.08 -1.65 0.88 
-5.68 11.10 -1.63 0.88 
-5.43 11.13 -1.62 0.89 
-5.19 11.16 -1.61 0.90 
-4.94 11.18 -1.60 0.90 
-4.70 11.20 -1.59 0.91 
-4.46 11.22 -1.58 0.91 
-4.23 11.24 -1.57 0.92 
-3.99 11.27 -1.57 0.92 
-3.76 11.29 -1.56 0.92 
-3.53 11.30 -1.55 0.93 
-3.30 11.32 -1.54 0.93 
-3.07 11.33 -1.54 0.93 
-2.85 11.35 -1.53 0.94 
-2.63 11.36 -1.53 0.75 
-2.40 11.38 -1.52 0.12 
-2.19 11.43 -1.52 0.12 
-1.97 11.47 -1.52 0.12 
-1.75 11.50 -1.52 0.12 
-1.54 11.53 -1.52 0.12 
-1.32 11.56 -1.52 0.12 
-1.10 11.58 -1.52 0.12 
-0.88 11.60 -1.52 0.12 
-0.66 11.61 -1.52 0.12 
-0.44 11.62 -1.52 0.12 
-0.22 11.63 -1.52 0.12 
0.00 11.63 -1.52 0.12 
0.22 11.63 -1.52 0.12 
0.44 11.62 -1.52 0.12 
0.66 11.61 -1.52 0.12 
0.88 11.60 -1.52 0.12 
1.10 11.58 -1.52 0.12 
1.32 11.56 -1.52 0.12 
1.54 11.53 -1.52 0.12 
1.75 11.50 -1.52 0.12 
1.97 11.46 -1.52 0.12 
2.19 11.42 -1.52 0.12 
2.41 11.40 -1.53 0.75 
2.63 11.38 -1.53 0.75 
2.85 11.37 -1.54 0.93 
3.08 11.36 -1.54 0.93 
3.31 11.35 -1.55 0.93 
3.54 11.33 -1.56 0.93 
3.77 11.31 -1.56 0.92 
4.00 11.30 -1.57 0.92 
4.24 11.28 -1.58 0.91 
4.48 11.26 -1.59 0.91 
4.72 11.24 -1.60 0.91 
4.96 11.22 -1.61 0.90 
5.20 11.19 -1.62 0.90 
5.45 11.17 -1.63 0.89 
5.70 11.14 -1.64 0.88 
5.96 11.11 -1.65 0.88 
6.21 11.08 -1.66 0.88 
6.44 10.99 -1.67 0.14 
6.65 10.88 -1.67 0.14 
6.86 10.76 -1.67 0.14 
7.07 10.64 -1.67 0.14 
7.28 10.52 -1.68 0.14 
7.48 10.38 -1.68 0.12 
7.68 10.23 -1.68 0.12 
7.87 10.09 -1.68 0.12 
8.06 9.94 -1.68 0.12 
8.24 9.78 -1.68 0.12 
8.43 9.63 -1.68 0.12 
8.61 9.47 -1.68 0.12 
8.79 9.30 -1.68 0.12 
8.96 9.13 -1.68 0.12 
9.13 8.96 -1.68 0.12 
9.30 8.79 -1.68 0.12 
9.47 8.61 -1.68 0.12 
9.63 8.43 -1.68 0.12 
9.79 8.25 -1.68 0.12 
9.94 8.06 -1.68 0.12 
10.09 7.87 -1.68 0.12 
10.24 7.68 -1.68 0.12 
10.38 7.48 -1.68 0.12 
10.52 7.29 -1.68 0.12 
10.66 7.09 -1.68 0.12 
10.79 6.88 -1.68 0.12 
10.92 6.68 -1.68 0.12 
11.05 6.47 -1.68 0.12 
11.17 6.26 -1.68 0.12 
11.28 6.05 -1.68 0.12 
11.40 5.83 -1.68 0.12 
11.51 5.62 -1.68 0.12 
11.61 5.40 -1.68 0.12 
11.71 5.18 -1.68 0.12 
11.81 4.96 -1.68 0.12 
11.90 4.73 -1.68 0.12 
11.99 4.51 -1.68 0.12 
12.07 4.28 -1.68 0.12 
12.15 4.05 -1.68 0.12 
12.23 3.82 -1.68 0.12 
12.30 3.59 -1.68 0.12 
12.36 3.35 -1.68 0.12 
12.42 3.12 -1.68 0.12 
12.48 2.88 -1.68 0.12 
12.53 2.65 -1.68 0.12 
12.58 2.41 -1.68 0.12 
12.63 2.17 -1.68 0.12 
12.67 1.93 -1.68 0.12 
12.70 1.69 -1.68 0.12 
12.73 1.45 -1.68 0.12 
12.76 1.21 -1.68 0.12 
12.78 0.97 -1.68 0.12 
12.80 0.73 -1.68 0.12 
12.81 0.49 -1.68 0.12 
12.82 0.24 -1.68 0.12 
12.82 -0.00 -1.68 0.12 
12.82 -0.24 -1.68 0.12 
12.81 -0.49 -1.68 0.12 
12.80 -0.73 -1.68 0.12 
12.78 -0.97 -1.68 0.12 
12.76 -1.21 -1.68 0.12 
12.74 -1.45 -1.68 0.12 
12.71 -1.69 -1.68 0.12 
12.68 -1.93 -1.68 0.12 
12.64 -2.17 -1.68 0.12 
12.60 -2.41 -1.68 0.12 
12.55 -2.65 -1.68 0.12 
12.50 -2.89 -1.68 0.12 
12.44 -3.12 -1.68 0.12 
12.38 -3.36 -1.68 0.12 
12.32 -3.59 -1.68 0.12 
12.25 -3.83 -1.68 0.12 
12.17 -4.06 -1.68 0.12 
12.09 -4.29 -1.68 0.12 
12.01 -4.52 -1.68 0.12 
11.92 -4.74 -1.68 0.12 
11.83 -4.97 -1.68 0.12 
11.74 -5.19 -1.68 0.12 
11.64 -5.41 -1.68 0.12 
11.53 -5.63 -1.68 0.12 
6.59 -3.37 -0.97 0.31 
6.24 -3.34 -0.93 0.37 
5.94 -3.33 -0.89 0.41 
5.66 -3.31 -0.86 0.48 
5.42 -3.32 -0.83 0.57 
5.23 -3.33 -0.81 0.61 
5.07 -3.37 -0.80 0.85 
4.99 -3.45 -0.80 0.94 
4.93 -3.55 -0.80 0.87 
4.89 -3.67 -0.80 0.80 
4.86 -3.79 -0.81 0.77 
4.85 -3.93 -0.82 0.70 
4.86 -4.09 -0.83 0.59 
9.65 -8.45 -1.68 0.13 
9.47 -8.61 -1.68 0.13 
9.10 -8.59 -1.64 0.49 
8.67 -8.50 -1.59 0.51 
8.26 -8.42 -1.55 0.52 
8.02 -8.49 -1.53 0.12 
7.86 -8.64 -1.53 0.12 
7.70 -8.79 -1.53 0.12 
7.53 -8.94 -1.53 0.12 
7.36 -9.08 -1.53 0.12 
7.19 -9.21 -1.53 0.12 
7.01 -9.35 -1.53 0.12 
6.83 -9.48 -1.53 0.12 
6.65 -9.61 -1.53 0.12 
6.47 -9.73 -1.53 0.12 
6.29 -9.85 -1.53 0.12 
6.10 -9.97 -1.53 0.12 
5.91 -10.09 -1.53 0.12 
5.72 -10.20 -1.53 0.12 
5.52 -10.30 -1.53 0.12 
5.33 -10.41 -1.53 0.12 
5.13 -10.51 -1.53 0.12 
3.82 -8.22 -1.19 0.91 
3.67 -8.31 -1.19 0.30 
4.53 -10.78 -1.53 0.12 
4.32 -10.86 -1.53 0.12 
4.11 -10.94 -1.53 0.12 
3.91 -11.02 -1.53 0.12 
3.70 -11.09 -1.53 0.12 
3.49 -11.16 -1.53 0.12 
3.28 -11.23 -1.53 0.12 
3.06 -11.29 -1.53 0.12 
2.85 -11.34 -1.53 0.12 
2.63 -11.39 -1.53 0.12 
2.42 -11.44 -1.53 0.12 
2.20 -11.49 -1.53 0.12 
1.98 -11.53 -1.53 0.12 
1.76 -11.56 -1.53 0.12 
1.54 -11.59 -1.53 0.12 
1.33 -11.62 -1.53 0.12 
1.11 -11.64 -1.53 0.12 
0.88 -11.66 -1.53 0.12 
0.66 -11.68 -1.53 0.12 
0.44 -11.69 -1.53 0.12 
0.22 -11.70 -1.53 0.12 
0.00 -11.70 -1.53 0.12 
-0.22 -11.70 -1.53 0.12 
-0.44 -11.69 -1.53 0.12 
-0.66 -11.68 -1.53 0.12 
-0.88 -11.66 -1.53 0.12 
-1.11 -11.65 -1.53 0.12 
-1.33 -11.62 -1.53 0.12 
-1.55 -11.60 -1.53 0.12 
-1.76 -11.56 -1.53 0.12 
-1.98 -11.53 -1.53 0.12 
-2.20 -11.49 -1.53 0.12 
-2.42 -11.45 -1.53 0.12 
-2.63 -11.40 -1.53 0.12 
-2.85 -11.35 -1.53 0.12 
-3.06 -11.29 -1.53 0.12 
-3.28 -11.23 -1.53 0.12 
-3.49 -11.17 -1.53 0.12 
-3.70 -11.10 -1.53 0.12 
-3.91 -11.03 -1.53 0.12 
-4.12 -10.95 -1.53 0.12 
-4.32 -10.87 -1.53 0.12 
-4.53 -10.79 -1.53 0.12 
-4.73 -10.70 -1.53 0.12 
-4.93 -10.61 -1.53 0.12 
-5.13 -10.51 -1.53 0.12 
-5.33 -10.41 -1.53 0.12 
-5.53 -10.31 -1.53 0.12 
-5.72 -10.20 -1.53 0.12 
-5.91 -10.09 -1.53 0.12 
-6.10 -9.98 -1.53 0.12 
-6.29 -9.86 -1.53 0.12 
-6.48 -9.74 -1.53 0.12 
-6.66 -9.62 -1.53 0.12 
-6.84 -9.49 -1.53 0.12 
-7.02 -9.36 -1.53 0.12 
-7.19 -9.22 -1.53 0.12 
-7.37 -9.08 -1.53 0.12 
-7.54 -8.94 -1.53 0.12 
-7.70 -8.80 -1.53 0.12 
-7.87 -8.65 -1.53 0.12 
-8.03 -8.50 -1.53 0.12 
-8.19 -8.35 -1.53 0.12 
-8.35 -8.19 -1.53 0.12 
-8.66 -8.19 -1.56 0.59 
-9.03 -8.21 -1.60 0.58 
-9.41 -8.24 -1.64 0.57 
-9.79 -8.25 -1.68 0.13 
-9.96 -8.08 -1.68 0.13 
-10.13 -7.90 -1.68 0.13 
-10.29 -7.71 -1.68 0.12 
-10.43 -7.52 -1.68 0.12 
-10.57 -7.32 -1.68 0.12 
-10.71 -7.12 -1.68 0.12 
-10.84 -6.91 -1.68 0.12 
-10.97 -6.71 -1.68 0.12 
-11.09 -6.50 -1.68 0.12 
-11.21 -6.29 -1.68 0.12 
-11.33 -6.07 -1.68 0.12 
-11.44 -5.86 -1.68 0.12 
-11.55 -5.64 -1.68 0.12 
-11.65 -5.42 -1.68 0.12 
-11.75 -5.20 -1.68 0.12 
-11.85 -4.97 -1.68 0.12 
-11.94 -4.75 -1.68 0.12 
-12.03 -4.52 -1.68 0.12 
-12.11 -4.29 -1.68 0.12 
-12.19 -4.06 -1.68 0.12 
-12.26 -3.83 -1.68 0.12 
-12.33 -3.60 -1.68 0.12 
-12.40 -3.36 -1.68 0.12 
-12.46 -3.13 -1.68 0.12 
-12.52 -2.89 -1.68 0.12 
-12.57 -2.65 -1.68 0.12 
-12.61 -2.42 -1.68 0.12 
-12.66 -2.18 -1.68 0.12 
-10.54 -1.61 -1.40 0.91 
-10.56 -1.41 -1.40 0.91 
-12.76 -1.46 -1.68 0.12 
-12.78 -1.21 -1.68 0.12 
-12.80 -0.97 -1.68 0.12 
-12.82 -0.73 -1.68 0.12 
-12.83 -0.49 -1.68 0.12 
-12.84 -0.24 -1.68 0.12 
-12.72 -0.00 -1.68 0.12 
-10.72 0.20 -1.42 0.71 
-10.74 0.41 -1.42 0.71 
-12.70 0.72 -1.68 0.12 
-12.68 0.96 -1.68 0.12 
-12.66 1.20 -1.68 0.12 
-12.63 1.44 -1.68 0.12 
-12.60 1.68 -1.68 0.12 
-12.57 1.92 -1.68 0.12 
-12.53 2.15 -1.68 0.12 
-11.98 2.29 -1.61 0.26 
-12.44 2.63 -1.68 0.12 
-12.38 2.86 -1.68 0.12 
-12.08 3.03 -1.65 0.38 
-12.27 3.33 -1.68 0.12 
-12.20 3.56 -1.68 0.12 
-12.13 3.79 -1.68 0.12 
-12.06 4.02 -1.68 0.12 
-11.98 4.25 -1.68 0.12 
-11.89 4.47 -1.68 0.12 
-11.81 4.69 -1.68 0.12 
-11.71 4.92 -1.68 0.12 
-11.62 5.14 -1.68 0.12 
-11.52 5.36 -1.68 0.12 
-11.41 5.57 -1.68 0.12 
-11.31 5.79 -1.68 0.12 
-11.19 6.00 -1.68 0.12 
-11.08 6.21 -1.68 0.12 
-10.96 6.42 -1.68 0.12 
-10.83 6.62 -1.68 0.12 
-8.68 5.53 -1.36 0.58 
-8.37 5.56 -1.33 0.60 
-8.07 5.59 -1.30 0.61 
-7.81 5.63 -1.27 0.64 
-7.54 5.66 -1.25 0.66 
-7.29 5.69 -1.22 0.68 
-7.05 5.72 -1.20 0.70 
-6.82 5.75 -1.18 0.71 
-6.60 5.78 -1.16 0.72 
-6.38 5.80 -1.14 0.72 
-6.17 5.83 -1.12 0.75 
-5.96 5.85 -1.11 0.74 
-5.76 5.87 -1.09 0.70 
-5.50 5.82 -1.06 0.75 
-5.31 5.84 -1.04 0.77 
-5.13 5.86 -1.03 0.78 
-4.95 5.87 -1.02 0.79 
-4.79 5.90 -1.01 0.86 
-4.63 5.94 -1.00 0.88 
-4.52 6.03 -1.00 0.96 
-4.42 6.13 -1.00 0.96 
-4.35 6.28 -1.01 0.75 
-4.29 6.46 -1.03 0.61 
-4.29 6.72 -1.05 0.54 
-4.30 7.03 -1.09 0.39 
-4.37 7.45 -1.14 0.32 
-6.18 11.02 -1.67 0.14 
-5.94 11.08 -1.66 0.88 
-5.68 11.10 -1.65 0.88 
-5.43 11.13 -1.64 0.89 
-5.19 11.15 -1.63 0.90 
-4.94 11.18 -1.62 0.90 
-4.70 11.20 -1.61 0.91 
-4.46 11.22 -1.60 0.91 
-4.23 11.24 -1.59 0.92 
-3.99 11.26 -1.58 0.92 
-3.76 11.28 -1.57 0.92 
-3.53 11.30 -1.57 0.93 
-3.30 11.31 -1.56 0.93 
-3.07 11.33 -1.55 0.93 
-2.85 11.34 -1.55 0.94 
-2.62 11.36 -1.54 0.94 
-2.40 11.37 -1.54 0.94 
-2.18 11.38 -1.53 0.94 
-1.96 11.39 -1.53 0.75 
-1.74 11.40 -1.53 0.75 
-1.52 11.43 -1.52 0.13 
-1.31 11.45 -1.52 0.13 
-1.09 11.47 -1.52 0.13 
-0.87 11.49 -1.52 0.13 
-0.65 11.51 -1.52 0.13 
-0.44 11.52 -1.52 0.13 
-0.22 11.52 -1.52 0.13 
0.00 11.53 -1.52 0.13 
0.22 11.52 -1.52 0.13 
0.44 11.52 -1.52 0.13 
0.65 11.51 -1.52 0.13 
0.87 11.49 -1.52 0.13 
1.09 11.47 -1.52 0.13 
1.31 11.45 -1.52 0.13 
1.52 11.42 -1.52 0.75 
1.74 11.42 -1.53 0.75 
1.96 11.41 -1.53 0.75 
2.18 11.40 -1.54 0.94 
2.41 11.39 -1.54 0.94 
2.63 11.38 -1.54 0.94 
2.85 11.37 -1.55 0.93 
3.08 11.35 -1.56 0.93 
3.31 11.34 -1.56 0.93 
3.54 11.33 -1.57 0.93 
3.77 11.31 -1.58 0.92 
4.00 11.29 -1.58 0.92 
4.24 11.28 -1.59 0.91 
4.48 11.26 -1.60 0.91 
4.72 11.24 -1.61 0.91 
4.96 11.21 -1.62 0.90 
5.20 11.19 -1.63 0.90 
5.45 11.16 -1.64 0.89 
5.70 11.14 -1.66 0.88 
5.96 11.11 -1.67 0.88 
6.17 11.01 -1.67 0.14 
6.39 10.90 -1.67 0.14 
6.60 10.79 -1.67 0.14 
6.81 10.67 -1.67 0.14 
7.02 10.55 -1.68 0.14 
7.22 10.42 -1.68 0.12 
7.41 10.28 -1.68 0.12 
7.61 10.14 -1.68 0.12 
7.80 10.00 -1.68 0.12 
7.98 9.85 -1.68 0.12 
8.17 9.69 -1.68 0.12 
8.35 9.54 -1.68 0.12 
8.53 9.38 -1.68 0.12 
8.71 9.22 -1.68 0.12 
8.88 9.05 -1.68 0.12 
9.05 8.88 -1.68 0.12 
9.22 8.71 -1.68 0.12 
9.38 8.53 -1.68 0.12 
9.54 8.35 -1.68 0.12 
9.70 8.17 -1.68 0.12 
9.85 7.99 -1.68 0.12 
10.00 7.80 -1.68 0.12 
10.15 7.61 -1.68 0.12 
10.29 7.42 -1.68 0.12 
10.43 7.22 -1.68 0.12 
10.56 7.02 -1.68 0.12 
10.69 6.82 -1.68 0.12 
10.82 6.62 -1.68 0.12 
10.94 6.41 -1.68 0.12 
11.06 6.20 -1.68 0.12 
11.18 5.99 -1.68 0.12 
11.29 5.78 -1.68 0.12 
11.40 5.57 -1.68 0.12 
11.50 5.35 -1.68 0.12 
11.60 5.13 -1.68 0.12 
11.70 4.91 -1.68 0.12 
11.79 4.69 -1.68 0.12 
11.88 4.46 -1.68 0.12 
11.96 4.24 -1.68 0.12 
12.04 4.01 -1.68 0.12 
12.11 3.78 -1.68 0.12 
12.18 3.55 -1.68 0.12 
12.25 3.32 -1.68 0.12 
12.31 3.09 -1.68 0.12 
12.37 2.86 -1.68 0.12 
12.42 2.62 -1.68 0.12 
12.47 2.39 -1.68 0.12 
12.51 2.15 -1.68 0.12 
12.55 1.91 -1.68 0.12 
12.58 1.68 -1.68 0.12 
12.61 1.44 -1.68 0.12 
12.64 1.20 -1.68 0.12 
12.66 0.96 -1.68 0.12 
12.68 0.72 -1.68 0.12 
12.69 0.48 -1.68 0.12 
12.70 0.24 -1.68 0.12 
12.70 -0.00 -1.68 0.12 
12.70 -0.24 -1.68 0.12 
12.69 -0.48 -1.68 0.12 
12.68 -0.72 -1.68 0.12 
12.67 -0.96 -1.68 0.12 
12.65 -1.20 -1.68 0.12 
12.62 -1.44 -1.68 0.12 
12.59 -1.68 -1.68 0.12 
12.56 -1.92 -1.68 0.12 
12.52 -2.15 -1.68 0.12 
12.48 -2.39 -1.68 0.12 
12.43 -2.63 -1.68 0.12 
12.38 -2.86 -1.68 0.12 
12.33 -3.10 -1.68 0.12 
12.27 -3.33 -1.68 0.12 
12.20 -3.56 -1.68 0.12 
12.13 -3.79 -1.68 0.12 
12.06 -4.02 -1.68 0.12 
11.98 -4.25 -1.68 0.12 
11.90 -4.47 -1.68 0.12 
11.81 -4.70 -1.68 0.12 
11.72 -4.92 -1.68 0.12 
11.63 -5.14 -1.68 0.12 
11.53 -5.36 -1.68 0.12 
11.43 -5.58 -1.68 0.12 
6.58 -3.37 -0.98 0.31 
6.23 -3.34 -0.94 0.37 
5.93 -3.33 -0.90 0.41 
5.65 -3.31 -0.87 0.48 
5.42 -3.31 -0.84 0.57 
5.22 -3.33 -0.82 0.61 
5.07 -3.37 -0.80 0.85 
4.99 -3.45 -0.80 0.94 
4.93 -3.55 -0.80 0.87 
4.89 -3.67 -0.81 0.80 
4.85 -3.79 -0.81 0.77 
4.85 -3.93 -0.83 0.71 
4.85 -4.09 -0.84 0.59 
9.56 -8.37 -1.68 0.13 
9.38 -8.54 -1.68 0.13 
9.09 -8.59 -1.65 0.49 
8.66 -8.50 -1.61 0.51 
8.26 -8.41 -1.56 0.52 
7.95 -8.41 -1.53 0.12 
7.79 -8.56 -1.53 0.12 
7.63 -8.71 -1.53 0.12 
7.46 -8.85 -1.53 0.12 
7.29 -8.99 -1.53 0.12 
7.12 -9.13 -1.53 0.12 
6.95 -9.26 -1.53 0.12 
6.77 -9.39 -1.53 0.12 
6.59 -9.52 -1.53 0.12 
6.41 -9.64 -1.53 0.12 
6.23 -9.76 -1.53 0.12 
6.04 -9.88 -1.53 0.12 
5.85 -9.99 -1.53 0.12 
5.66 -10.10 -1.53 0.12 
5.47 -10.21 -1.53 0.12 
5.28 -10.31 -1.53 0.12 
5.08 -10.41 -1.53 0.12 
3.82 -8.22 -1.20 0.91 
3.67 -8.31 -1.20 0.30 
4.48 -10.68 -1.53 0.12 
4.28 -10.76 -1.53 0.12 
4.08 -10.84 -1.53 0.12 
3.87 -10.92 -1.53 0.12 
3.66 -10.99 -1.53 0.12 
3.45 -11.06 -1.53 0.12 
3.25 -11.12 -1.53 0.12 
3.03 -11.18 -1.53 0.12 
2.82 -11.24 -1.53 0.12 
2.61 -11.29 -1.53 0.12 
2.39 -11.34 -1.53 0.12 
2.18 -11.38 -1.53 0.12 
1.96 -11.42 -1.53 0.12 
1.75 -11.46 -1.53 0.12 
1.53 -11.49 -1.53 0.12 
1.31 -11.51 -1.53 0.12 
1.10 -11.54 -1.53 0.12 
0.88 -11.56 -1.53 0.12 
0.66 -11.57 -1.53 0.12 
0.44 -11.58 -1.53 0.12 
0.22 -11.59 -1.53 0.12 
-0.00 -11.59 -1.53 0.12 
-0.22 -11.59 -1.53 0.12 
-0.44 -11.58 -1.53 0.12 
-0.66 -11.57 -1.53 0.12 
-0.88 -11.56 -1.53 0.12 
-1.10 -11.54 -1.53 0.12 
-1.31 -11.52 -1.53 0.12 
-1.53 -11.49 -1.53 0.12 
-1.75 -11.46 -1.53 0.12 
-1.96 -11.42 -1.53 0.12 
-2.18 -11.38 -1.53 0.12 
-2.40 -11.34 -1.53 0.12 
-2.61 -11.29 -1.53 0.12 
-2.82 -11.24 -1.53 0.12 
-3.04 -11.19 -1.53 0.12 
-3.25 -11.13 -1.53 0.12 
-3.46 -11.06 -1.53 0.12 
-3.67 -11.00 -1.53 0.12 
-3.87 -10.92 -1.53 0.12 
-4.08 -10.85 -1.53 0.12 
-4.28 -10.77 -1.53 0.12 
-4.49 -10.69 -1.53 0.12 
-4.69 -10.60 -1.53 0.12 
-4.89 -10.51 -1.53 0.12 
-5.09 -10.42 -1.53 0.12 
-5.28 -10.32 -1.53 0.12 
-5.48 -10.22 -1.53 0.12 
-5.67 -10.11 -1.53 0.12 
-5.86 -10.00 -1.53 0.12 
-6.05 -9.89 -1.53 0.12 
-6.23 -9.77 -1.53 0.12 
-6.42 -9.65 -1.53 0.12 
-6.60 -9.53 -1.53 0.12 
-6.78 -9.40 -1.53 0.12 
-6.95 -9.27 -1.53 0.12 
-7.13 -9.14 -1.53 0.12 
-7.30 -9.00 -1.53 0.12 
-7.47 -8.86 -1.53 0.12 
-7.63 -8.72 -1.53 0.12 
-7.80 -8.57 -1.53 0.12 
-7.96 -8.42 -1.53 0.12 
-8.11 -8.27 -1.53 0.12 
-8.31 -8.16 -1.54 0.61 
-8.66 -8.18 -1.58 0.59 
-9.03 -8.21 -1.61 0.58 
-9.41 -8.24 -1.65 0.57 
-9.71 -8.18 -1.68 0.13 
-9.88 -8.01 -1.68 0.13 
-10.05 -7.83 -1.68 0.12 
-10.19 -7.64 -1.68 0.12 
-10.33 -7.45 -1.68 0.12 
-10.47 -7.25 -1.68 0.12 
-10.61 -7.05 -1.68 0.12 
-10.74 -6.85 -1.68 0.12 
-10.87 -6.64 -1.68 0.12 
-10.99 -6.44 -1.68 0.12 
-11.11 -6.23 -1.68 0.12 
-11.22 -6.02 -1.68 0.12 
-11.34 -5.80 -1.68 0.12 
-11.44 -5.59 -1.68 0.12 
-11.55 -5.37 -1.68 0.12 
-11.64 -5.15 -1.68 0.12 
-11.74 -4.93 -1.68 0.12 
-11.83 -4.70 -1.68 0.12 
-11.92 -4.48 -1.68 0.12 
-12.00 -4.25 -1.68 0.12 
-12.08 -4.03 -1.68 0.12 
-12.15 -3.80 -1.68 0.12 
-12.22 -3.57 -1.68 0.12 
-12.28 -3.33 -1.68 0.12 
-12.34 -3.10 -1.68 0.12 
-12.40 -2.87 -1.68 0.12 
-12.45 -2.63 -1.68 0.12 
-12.50 -2.39 -1.68 0.12 
-12.54 -2.16 -1.68 0.12 
-10.55 -1.61 -1.41 0.72 
-10.57 -1.41 -1.41 0.72 
-12.64 -1.44 -1.68 0.12 
-12.67 -1.20 -1.68 0.12 
-12.69 -0.96 -1.68 0.12 
-12.70 -0.72 -1.68 0.12 
-12.71 -0.48 -1.68 0.12 
-12.72 -0.24 -1.68 0.12 
-12.60 -0.00 -1.68 0.13 
-10.73 0.20 -1.43 0.71 
-10.75 0.41 -1.44 0.71 
-12.58 0.71 -1.68 0.13 
-12.56 0.95 -1.68 0.13 
-12.54 1.19 -1.68 0.13 
-12.52 1.43 -1.68 0.13 
-12.49 1.66 -1.68 0.13 
-12.45 1.90 -1.68 0.13 
-12.41 2.14 -1.68 0.13 
-11.99 2.30 -1.63 0.39 
-12.32 2.60 -1.68 0.13 
-12.27 2.84 -1.68 0.13 
-12.11 3.04 -1.67 0.38 
-12.15 3.30 -1.68 0.13 
-12.09 3.53 -1.68 0.13 
-12.02 3.75 -1.68 0.13 
-11.95 3.98 -1.68 0.13 
-11.87 4.21 -1.68 0.13 
-11.78 4.43 -1.68 0.13 
-11.70 4.65 -1.68 0.13 
-11.61 4.87 -1.68 0.13 
-11.51 5.09 -1.68 0.13 
-11.41 5.31 -1.68 0.13 
-11.31 5.52 -1.68 0.13 
-11.20 5.74 -1.68 0.13 
-11.09 5.95 -1.68 0.13 
-10.98 6.15 -1.68 0.13 
-10.86 6.36 -1.68 0.13 
-10.74 6.56 -1.68 0.13 
-8.68 5.53 -1.37 0.58 
-8.37 5.56 -1.34 0.60 
-8.07 5.59 -1.31 0.61 
-7.80 5.63 -1.28 0.64 
-7.54 5.66 -1.26 0.66 
-7.29 5.69 -1.23 0.68 
-7.05 5.72 -1.21 0.70 
-6.82 5.75 -1.19 0.71 
-6.60 5.78 -1.17 0.72 
-6.38 5.80 -1.15 0.73 
-6.17 5.83 -1.13 0.75 
-5.96 5.85 -1.12 0.74 
-5.76 5.87 -1.10 0.70 
-5.50 5.82 -1.07 0.75 
-5.31 5.84 -1.05 0.77 
-5.13 5.86 -1.04 0.78 
-4.95 5.87 -1.02 0.79 
-4.79 5.90 -1.01 0.86 
-4.63 5.94 -1.01 0.88 
-4.52 6.03 -1.01 0.96 
-4.41 6.12 -1.01 0.96 
-4.35 6.28 -1.02 0.75 
-4.29 6.46 -1.04 0.61 
-4.28 6.72 -1.06 0.55 
-4.30 7.03 -1.10 0.39 
-4.36 7.45 -1.15 0.32 
-6.13 10.93 -1.67 0.14 
-5.91 11.03 -1.67 0.14 
-5.68 11.10 -1.66 0.88 
-5.43 11.12 -1.65 0.89 
-5.19 11.15 -1.64 0.90 
-4.94 11.17 -1.63 0.90 
-4.70 11.20 -1.62 0.91 
-4.46 11.22 -1.61 0.91 
-4.23 11.24 -1.60 0.92 
-3.99 11.26 -1.59 0.92 
-3.76 11.28 -1.59 0.92 
-3.53 11.30 -1.58 0.93 
-3.30 11.31 -1.57 0.93 
-3.07 11.33 -1.57 0.93 
-2.85 11.34 -1.56 0.94 
-2.62 11.36 -1.56 0.94 
-2.40 11.37 -1.55 0.94 
-2.18 11.38 -1.55 0.94 
-1.96 11.39 -1.54 0.95 
-1.74 11.40 -1.54 0.95 
-1.52 11.41 -1.54 0.95 
-1.30 11.41 -1.53 0.95 
-1.08 11.42 -1.53 0.76 
-0.87 11.42 -1.53 0.76 
-0.65 11.43 -1.53 0.76 
-0.43 11.43 -1.53 0.76 
-0.22 11.44 -1.53 0.76 
0.00 11.44 -1.53 0.76 
0.22 11.44 -1.53 0.76 
0.43 11.44 -1.53 0.76 
0.65 11.43 -1.53 0.76 
0.87 11.43 -1.53 0.76 
1.08 11.43 -1.53 0.95 
1.30 11.42 -1.53 0.95 
1.52 11.42 -1.54 0.95 
1.74 11.41 -1.54 0.95 
1.96 11.40 -1.54 0.94 
2.18 11.40 -1.55 0.94 
2.41 11.39 -1.55 0.94 
2.63 11.37 -1.56 0.94 
2.85 11.36 -1.56 0.93 
3.08 11.35 -1.57 0.93 
3.31 11.34 -1.58 0.93 
3.54 11.32 -1.58 0.93 
3.77 11.31 -1.59 0.92 
4.00 11.29 -1.60 0.92 
4.24 11.27 -1.61 0.91 
4.48 11.26 -1.62 0.91 
4.72 11.23 -1.63 0.91 
4.96 11.21 -1.64 0.90 
5.20 11.19 -1.65 0.90 
5.45 11.16 -1.66 0.89 
5.70 11.13 -1.67 0.14 
5.91 11.03 -1.67 0.14 
6.12 10.92 -1.67 0.14 
6.34 10.82 -1.67 0.14 
6.55 10.70 -1.67 0.14 
6.75 10.59 -1.68 0.14 
6.95 10.46 -1.68 0.13 
7.15 10.33 -1.68 0.13 
7.34 10.19 -1.68 0.13 
7.54 10.05 -1.68 0.13 
7.72 9.90 -1.68 0.13 
7.91 9.76 -1.68 0.13 
8.09 9.61 -1.68 0.13 
8.28 9.45 -1.68 0.13 
8.45 9.29 -1.68 0.13 
8.63 9.13 -1.68 0.13 
8.80 8.97 -1.68 0.13 
8.97 8.80 -1.68 0.13 
9.13 8.63 -1.68 0.13 
9.29 8.45 -1.68 0.13 
9.45 8.28 -1.68 0.13 
9.61 8.10 -1.68 0.13 
9.76 7.91 -1.68 0.13 
9.91 7.73 -1.68 0.13 
10.05 7.54 -1.68 0.13 
10.19 7.35 -1.68 0.13 
10.33 7.15 -1.68 0.13 
10.47 6.96 -1.68 0.13 
10.60 6.76 -1.68 0.13 
10.72 6.56 -1.68 0.13 
10.84 6.35 -1.68 0.13 
10.96 6.15 -1.68 0.13 
11.08 5.94 -1.68 0.13 
11.19 5.73 -1.68 0.13 
11.30 5.52 -1.68 0.13 
11.40 5.30 -1.68 0.13 
11.50 5.08 -1.68 0.13 
11.59 4.87 -1.68 0.13 
11.68 4.65 -1.68 0.13 
11.77 4.42 -1.68 0.13 
11.85 4.20 -1.68 0.13 
11.93 3.98 -1.68 0.13 
12.00 3.75 -1.68 0.13 
12.07 3.52 -1.68 0.13 
12.14 3.29 -1.68 0.13 
12.20 3.06 -1.68 0.13 
12.25 2.83 -1.68 0.13 
12.31 2.60 -1.68 0.13 
12.35 2.37 -1.68 0.13 
12.40 2.13 -1.68 0.13 
12.44 1.90 -1.68 0.13 
12.47 1.66 -1.68 0.13 
12.50 1.43 -1.68 0.13 
12.53 1.19 -1.68 0.13 
12.55 0.95 -1.68 0.13 
12.56 0.71 -1.68 0.13 
12.57 0.48 -1.68 0.13 
12.58 0.24 -1.68 0.13 
12.59 -0.00 -1.68 0.13 
12.58 -0.24 -1.68 0.13 
12.58 -0.48 -1.68 0.13 
12.57 -0.71 -1.68 0.13 
12.55 -0.95 -1.68 0.13 
12.53 -1.19 -1.68 0.13 
12.51 -1.43 -1.68 0.13 
12.48 -1.66 -1.68 0.13 
12.45 -1.90 -1.68 0.13 
12.41 -2.13 -1.68 0.13 
12.37 -2.37 -1.68 0.13 
12.32 -2.60 -1.68 0.13 
12.27 -2.84 -1.68 0.13 
12.21 -3.07 -1.68 0.13 
12.15 -3.30 -1.68 0.13 
12.09 -3.53 -1.68 0.13 
12.02 -3.76 -1.68 0.13 
11.95 -3.98 -1.68 0.13 
11.87 -4.21 -1.68 0.13 
11.79 -4.43 -1.68 0.13 
11.71 -4.66 -1.68 0.13 
11.62 -4.88 -1.68 0.13 
11.52 -5.10 -1.68 0.13 
11.43 -5.31 -1.68 0.13 
11.32 -5.53 -1.68 0.13 
6.57 -3.37 -0.99 0.31 
6.23 -3.34 -0.94 0.37 
5.93 -3.33 -0.91 0.41 
5.65 -3.31 -0.87 0.48 
5.42 -3.31 -0.85 0.57 
5.22 -3.33 -0.83 0.61 
5.07 -3.37 -0.81 0.85 
4.98 -3.45 -0.81 0.94 
4.92 -3.55 -0.81 0.87 
4.88 -3.66 -0.81 0.80 
4.85 -3.78 -0.82 0.77 
4.84 -3.93 -0.83 0.71 
4.85 -4.09 -0.85 0.60 
9.48 -8.30 -1.68 0.13 
9.30 -8.46 -1.68 0.13 
9.09 -8.59 -1.67 0.49 
8.66 -8.50 -1.62 0.51 
8.25 -8.41 -1.57 0.52 
7.88 -8.34 -1.53 0.13 
7.72 -8.49 -1.53 0.13 
7.56 -8.63 -1.53 0.13 
7.39 -8.77 -1.53 0.13 
7.23 -8.91 -1.53 0.13 
7.06 -9.05 -1.53 0.13 
6.88 -9.18 -1.53 0.13 
6.71 -9.31 -1.53 0.13 
6.53 -9.43 -1.53 0.13 
6.35 -9.56 -1.53 0.13 
6.17 -9.67 -1.53 0.13 
5.99 -9.79 -1.53 0.13 
5.80 -9.90 -1.53 0.13 
5.61 -10.01 -1.53 0.13 
5.42 -10.11 -1.53 0.13 
5.23 -10.22 -1.53 0.13 
5.04 -10.31 -1.53 0.13 
3.82 -8.22 -1.21 0.91 
3.67 -8.31 -1.21 0.30 
4.44 -10.58 -1.53 0.13 
4.24 -10.67 -1.53 0.13 
4.04 -10.75 -1.53 0.13 
3.84 -10.82 -1.53 0.13 
3.63 -10.89 -1.53 0.13 
3.42 -10.96 -1.53 0.13 
3.22 -11.02 -1.53 0.13 
3.01 -11.08 -1.53 0.13 
2.80 -11.14 -1.53 0.13 
2.59 -11.19 -1.53 0.13 
2.37 -11.23 -1.53 0.13 
2.16 -11.28 -1.53 0.13 
1.95 -11.32 -1.53 0.13 
1.73 -11.35 -1.53 0.13 
1.52 -11.38 -1.53 0.13 
1.30 -11.41 -1.53 0.13 
1.09 -11.43 -1.53 0.13 
0.87 -11.45 -1.53 0.13 
0.65 -11.47 -1.53 0.13 
0.43 -11.48 -1.53 0.13 
0.22 -11.48 -1.53 0.13 
0.00 -11.48 -1.53 0.13 
-0.22 -11.48 -1.53 0.13 
-0.43 -11.48 -1.53 0.13 
-0.65 -11.47 -1.53 0.13 
-0.87 -11.45 -1.53 0.13 
-1.09 -11.43 -1.53 0.13 
-1.30 -11.41 -1.53 0.13 
-1.52 -11.38 -1.53 0.13 
-1.73 -11.35 -1.53 0.13 
-1.95 -11.32 -1.53 0.13 
-2.16 -11.28 -1.53 0.13 
-2.37 -11.24 -1.53 0.13 
-2.59 -11.19 -1.53 0.13 
-2.80 -11.14 -1.53 0.13 
-3.01 -11.08 -1.53 0.13 
-3.22 -11.03 -1.53 0.13 
-3.42 -10.96 -1.53 0.13 
-3.63 -10.90 -1.53 0.13 
-3.84 -10.82 -1.53 0.13 
-4.04 -10.75 -1.53 0.13 
-4.24 -10.67 -1.53 0.13 
-4.45 -10.59 -1.53 0.13 
-4.64 -10.50 -1.53 0.13 
-4.84 -10.41 -1.53 0.13 
-5.04 -10.32 -1.53 0.13 
-5.23 -10.22 -1.53 0.13 
-5.43 -10.12 -1.53 0.13 
-5.62 -10.02 -1.53 0.13 
-5.80 -9.91 -1.53 0.13 
-5.99 -9.80 -1.53 0.13 
-6.18 -9.68 -1.53 0.13 
-6.36 -9.56 -1.53 0.13 
-6.54 -9.44 -1.53 0.13 
-6.71 -9.32 -1.53 0.13 
-6.89 -9.19 -1.53 0.13 
-7.06 -9.05 -1.53 0.13 
-7.23 -8.92 -1.53 0.13 
-7.40 -8.78 -1.53 0.13 
-7.56 -8.64 -1.53 0.13 
-7.73 -8.49 -1.53 0.13 
-7.88 -8.35 -1.53 0.13 
-8.04 -8.19 -1.53 0.13 
-8.31 -8.15 -1.55 0.61 
-8.66 -8.18 -1.59 0.59 
-9.02 -8.21 -1.63 0.58 
-9.41 -8.24 -1.67 0.57 
-9.62 -8.11 -1.68 0.13 
-9.79 -7.94 -1.68 0.13 
-9.95 -7.76 -1.68 0.13 
-10.10 -7.57 -1.68 0.13 
-10.24 -7.38 -1.68 0.13 
-10.38 -7.18 -1.68 0.13 
-10.51 -6.99 -1.68 0.13 
-10.64 -6.79 -1.68 0.13 
-10.77 -6.58 -1.68 0.13 
-10.89 -6.38 -1.68 0.13 
-11.01 -6.17 -1.68 0.13 
-11.12 -5.96 -1.68 0.13 
-11.23 -5.75 -1.68 0.13 
-11.34 -5.54 -1.68 0.13 
-11.44 -5.32 -1.68 0.13 
-11.54 -5.10 -1.68 0.13 
-11.63 -4.88 -1.68 0.13 
-11.72 -4.66 -1.68 0.13 
-11.81 -4.44 -1.68 0.13 
-11.89 -4.21 -1.68 0.13 
-11.97 -3.99 -1.68 0.13 
-12.04 -3.76 -1.68 0.13 
-12.11 -3.53 -1.68 0.13 
-12.17 -3.30 -1.68 0.13 
-12.23 -3.07 -1.68 0.13 
-12.29 -2.84 -1.68 0.13 
-12.34 -2.61 -1.68 0.13 
-12.38 -2.37 -1.68 0.13 
-12.43 -2.14 -1.68 0.13 
-10.56 -1.61 -1.43 0.72 
-10.58 -1.41 -1.42 0.72 
-12.53 -1.43 -1.68 0.13 
-12.55 -1.19 -1.68 0.13 
-12.57 -0.95 -1.68 0.13 
-12.58 -0.72 -1.68 0.13 
-12.60 -0.48 -1.68 0.13 
-12.60 -0.24 -1.68 0.13 
-12.49 -0.00 -1.68 0.13 
-10.74 0.20 -1.45 0.71 
-10.76 0.41 -1.45 0.71 
-12.47 0.71 -1.68 0.13 
-12.45 0.94 -1.68 0.13 
-12.43 1.18 -1.68 0.13 
-12.40 1.41 -1.68 0.13 
-12.37 1.65 -1.68 0.13 
-12.34 1.88 -1.68 0.13 
-12.30 2.12 -1.68 0.13 
-12.02 2.30 -1.65 0.39 
-12.21 2.58 -1.68 0.13 
-12.16 2.81 -1.68 0.13 
-12.10 3.04 -1.68 0.13 
-12.04 3.27 -1.68 0.13 
-11.98 3.50 -1.68 0.13 
-11.91 3.72 -1.68 0.13 
-11.84 3.95 -1.68 0.13 
-11.76 4.17 -1.68 0.13 
-11.68 4.39 -1.68 0.13 
-11.59 4.61 -1.68 0.13 
-11.50 4.83 -1.68 0.13 
-11.41 5.05 -1.68 0.13 
-11.31 5.26 -1.68 0.13 
-11.21 5.47 -1.68 0.13 
-11.10 5.68 -1.68 0.13 
-10.99 5.89 -1.68 0.13 
-10.88 6.10 -1.68 0.13 
-10.76 6.30 -1.68 0.13 
-10.64 6.51 -1.68 0.13 
-8.68 5.53 -1.39 0.58 
-8.37 5.56 -1.35 0.60 
-8.07 5.59 -1.32 0.61 
-7.80 5.62 -1.30 0.64 
-7.54 5.65 -1.27 0.66 
-7.29 5.68 -1.25 0.68 
-7.05 5.72 -1.22 0.70 
-6.82 5.75 -1.20 0.71 
-6.59 5.77 -1.18 0.72 
-6.38 5.80 -1.16 0.73 
-6.17 5.83 -1.14 0.75 
-5.96 5.85 -1.13 0.74 
-5.76 5.87 -1.11 0.70 
-5.50 5.82 -1.08 0.75 
-5.31 5.84 -1.06 0.77 
-5.13 5.86 -1.05 0.78 
-4.95 5.87 -1.03 0.79 
-4.79 5.90 -1.02 0.86 
-4.63 5.94 -1.01 0.88 
-4.52 6.02 -1.01 0.96 
-4.41 6.12 -1.02 0.96 
-4.35 6.28 -1.03 0.75 
-4.29 6.46 -1.04 0.74 
-4.28 6.72 -1.07 0.55 
-4.30 7.03 -1.11 0.39 
-4.36 7.45 -1.16 0.32 
-6.08 10.84 -1.67 0.14 
-5.87 10.94 -1.67 0.14 
-5.65 11.04 -1.67 0.14 
-5.43 11.12 -1.67 0.89 
-5.18 11.15 -1.66 0.90 
-4.94 11.17 -1.65 0.90 
-4.70 11.19 -1.64 0.91 
-4.46 11.22 -1.63 0.91 
-4.22 11.24 -1.62 0.92 
-3.99 11.26 -1.61 0.92 
-3.76 11.28 -1.60 0.92 
-3.53 11.29 -1.59 0.93 
-3.30 11.31 -1.59 0.93 
-3.07 11.32 -1.58 0.93 
-2.85 11.34 -1.57 0.94 
-2.62 11.35 -1.57 0.94 
-2.40 11.36 -1.56 0.94 
-2.18 11.37 -1.56 0.94 
-1.96 11.38 -1.56 0.95 
-1.74 11.39 -1.55 0.95 
-1.52 11.40 -1.55 0.95 
-1.30 11.41 -1.55 0.95 
-1.08 11.41 -1.54 0.95 
-0.87 11.42 -1.54 0.95 
-0.65 11.42 -1.54 0.95 
-0.43 11.43 -1.54 0.95 
-0.22 11.43 -1.54 0.95 
0.00 11.43 -1.54 0.95 
0.22 11.43 -1.54 0.95 
0.43 11.43 -1.54 0.95 
0.65 11.43 -1.54 0.95 
0.87 11.43 -1.54 0.95 
1.08 11.42 -1.55 0.95 
1.30 11.42 -1.55 0.95 
1.52 11.41 -1.55 0.95 
1.74 11.41 -1.55 0.95 
1.96 11.40 -1.56 0.94 
2.18 11.39 -1.56 0.94 
2.40 11.38 -1.57 0.94 
2.63 11.37 -1.57 0.94 
2.85 11.36 -1.58 0.93 
3.08 11.35 -1.58 0.93 
3.31 11.34 -1.59 0.93 
3.54 11.32 -1.60 0.93 
3.77 11.31 -1.61 0.92 
4.00 11.29 -1.61 0.92 
4.24 11.27 -1.62 0.91 
4.47 11.25 -1.63 0.91 
4.71 11.23 -1.64 0.91 
4.96 11.21 -1.65 0.90 
5.20 11.18 -1.66 0.90 
5.44 11.14 -1.67 0.14 
5.65 11.04 -1.67 0.14 
5.86 10.94 -1.67 0.14 
6.07 10.84 -1.67 0.14 
6.28 10.73 -1.67 0.14 
6.49 10.62 -1.68 0.14 
6.69 10.49 -1.68 0.13 
6.89 10.37 -1.68 0.13 
7.09 10.23 -1.68 0.13 
7.28 10.10 -1.68 0.13 
7.47 9.96 -1.68 0.13 
7.66 9.82 -1.68 0.13 
7.84 9.67 -1.68 0.13 
8.02 9.52 -1.68 0.13 
8.20 9.37 -1.68 0.13 
8.38 9.21 -1.68 0.13 
8.55 9.05 -1.68 0.13 
8.72 8.89 -1.68 0.13 
8.89 8.72 -1.68 0.13 
9.05 8.55 -1.68 0.13 
9.21 8.38 -1.68 0.13 
9.37 8.20 -1.68 0.13 
9.52 8.02 -1.68 0.13 
9.67 7.84 -1.68 0.13 
9.82 7.66 -1.68 0.13 
9.96 7.47 -1.68 0.13 
10.10 7.28 -1.68 0.13 
10.24 7.09 -1.68 0.13 
10.37 6.89 -1.68 0.13 
10.50 6.70 -1.68 0.13 
10.63 6.50 -1.68 0.13 
10.75 6.30 -1.68 0.13 
10.86 6.09 -1.68 0.13 
10.98 5.88 -1.68 0.13 
11.09 5.68 -1.68 0.13 
11.19 5.47 -1.68 0.13 
11.30 5.25 -1.68 0.13 
11.39 5.04 -1.68 0.13 
11.49 4.82 -1.68 0.13 
11.58 4.60 -1.68 0.13 
11.66 4.38 -1.68 0.13 
11.74 4.16 -1.68 0.13 
11.82 3.94 -1.68 0.13 
11.89 3.72 -1.68 0.13 
11.96 3.49 -1.68 0.13 
12.03 3.26 -1.68 0.13 
12.09 3.04 -1.68 0.13 
12.14 2.81 -1.68 0.13 
12.20 2.58 -1.68 0.13 
12.24 2.35 -1.68 0.13 
12.29 2.11 -1.68 0.13 
12.32 1.88 -1.68 0.13 
12.36 1.65 -1.68 0.13 
12.39 1.41 -1.68 0.13 
12.41 1.18 -1.68 0.13 
12.43 0.94 -1.68 0.13 
12.45 0.71 -1.68 0.13 
12.46 0.47 -1.68 0.13 
12.47 0.24 -1.68 0.13 
12.47 -0.00 -1.68 0.13 
12.47 -0.24 -1.68 0.13 
12.46 -0.47 -1.68 0.13 
12.45 -0.71 -1.68 0.13 
12.44 -0.94 -1.68 0.13 
12.42 -1.18 -1.68 0.13 
12.40 -1.41 -1.68 0.13 
12.37 -1.65 -1.68 0.13 
12.33 -1.88 -1.68 0.13 
12.30 -2.12 -1.68 0.13 
12.26 -2.35 -1.68 0.13 
12.21 -2.58 -1.68 0.13 
12.16 -2.81 -1.68 0.13 
12.10 -3.04 -1.68 0.13 
12.05 -3.27 -1.68 0.13 
11.98 -3.50 -1.68 0.13 
11.91 -3.72 -1.68 0.13 
11.84 -3.95 -1.68 0.13 
11.77 -4.17 -1.68 0.13 
11.69 -4.39 -1.68 0.13 
11.60 -4.61 -1.68 0.13 
11.51 -4.83 -1.68 0.13 
11.42 -5.05 -1.68 0.13 
11.32 -5.27 -1.68 0.13 
11.22 -5.48 -1.68 0.13 
6.57 -3.36 -0.99 0.31 
6.23 -3.34 -0.95 0.37 
5.93 -3.32 -0.92 0.44 
5.65 -3.31 -0.88 0.48 
5.42 -3.31 -0.86 0.57 
5.22 -3.33 -0.83 0.61 
5.06 -3.37 -0.82 0.85 
4.98 -3.45 -0.82 0.94 
4.92 -3.55 -0.82 0.87 
4.88 -3.66 -0.82 0.80 
4.85 -3.78 -0.83 0.77 
4.84 -3.92 -0.84 0.71 
4.84 -4.08 -0.85 0.60 
9.40 -8.23 -1.68 0.13 
9.22 -8.39 -1.68 0.13 
9.05 -8.55 -1.68 0.13 
8.65 -8.49 -1.63 0.51 
8.25 -8.41 -1.59 0.52 
7.87 -8.33 -1.54 0.54 
7.65 -8.41 -1.53 0.13 
7.49 -8.55 -1.53 0.13 
7.33 -8.69 -1.53 0.13 
7.16 -8.83 -1.53 0.13 
6.99 -8.96 -1.53 0.13 
6.82 -9.10 -1.53 0.13 
6.65 -9.22 -1.53 0.13 
6.47 -9.35 -1.53 0.13 
6.29 -9.47 -1.53 0.13 
6.11 -9.59 -1.53 0.13 
5.93 -9.70 -1.53 0.13 
5.75 -9.81 -1.53 0.13 
5.56 -9.92 -1.53 0.13 
5.37 -10.02 -1.53 0.13 
5.18 -10.12 -1.53 0.13 
4.99 -10.22 -1.53 0.13 
3.82 -8.22 -1.22 0.91 
3.67 -8.30 -1.22 0.30 
4.40 -10.49 -1.53 0.13 
4.20 -10.57 -1.53 0.13 
4.00 -10.65 -1.53 0.13 
3.80 -10.72 -1.53 0.13 
3.60 -10.79 -1.53 0.13 
3.39 -10.86 -1.53 0.13 
3.19 -10.92 -1.53 0.13 
2.98 -10.98 -1.53 0.13 
2.77 -11.03 -1.53 0.13 
2.56 -11.09 -1.53 0.13 
2.35 -11.13 -1.53 0.13 
2.14 -11.17 -1.53 0.13 
1.93 -11.21 -1.53 0.13 
1.72 -11.25 -1.53 0.13 
1.50 -11.28 -1.53 0.13 
1.29 -11.31 -1.53 0.13 
1.08 -11.33 -1.53 0.13 
0.86 -11.35 -1.53 0.13 
0.65 -11.36 -1.53 0.13 
0.43 -11.37 -1.53 0.13 
0.22 -11.38 -1.53 0.13 
0.00 -11.38 -1.53 0.13 
-0.22 -11.38 -1.53 0.13 
-0.43 -11.37 -1.53 0.13 
-0.65 -11.36 -1.53 0.13 
-0.86 -11.35 -1.53 0.13 
-1.08 -11.33 -1.53 0.13 
-1.29 -11.31 -1.53 0.13 
-1.50 -11.28 -1.53 0.13 
-1.72 -11.25 -1.53 0.13 
-1.93 -11.22 -1.53 0.13 
-2.14 -11.18 -1.53 0.13 
-2.35 -11.14 -1.53 0.13 
-2.56 -11.09 -1.53 0.13 
-2.77 -11.04 -1.53 0.13 
-2.98 -10.98 -1.53 0.13 
-3.19 -10.93 -1.53 0.13 
-3.39 -10.86 -1.53 0.13 
-3.60 -10.80 -1.53 0.13 
-3.80 -10.73 -1.53 0.13 
-4.00 -10.65 -1.53 0.13 
-4.21 -10.58 -1.53 0.13 
-4.40 -10.49 -1.53 0.13 
-4.60 -10.41 -1.53 0.13 
-4.80 -10.32 -1.53 0.13 
-4.99 -10.23 -1.53 0.13 
-5.19 -10.13 -1.53 0.13 
-5.38 -10.03 -1.53 0.13 
-5.57 -9.93 -1.53 0.13 
-5.75 -9.82 -1.53 0.13 
-5.94 -9.71 -1.53 0.13 
-6.12 -9.59 -1.53 0.13 
-6.30 -9.48 -1.53 0.13 
-6.48 -9.36 -1.53 0.13 
-6.65 -9.23 -1.53 0.13 
-6.83 -9.10 -1.53 0.13 
-7.00 -8.97 -1.53 0.13 
-7.17 -8.84 -1.53 0.13 
-7.33 -8.70 -1.53 0.13 
-7.49 -8.56 -1.53 0.13 
-7.66 -8.42 -1.53 0.13 
-7.81 -8.27 -1.53 0.13 
-7.98 -8.13 -1.53 0.52 
-8.31 -8.15 -1.57 0.61 
-8.66 -8.18 -1.60 0.60 
-9.02 -8.20 -1.64 0.58 
-9.37 -8.21 -1.68 0.14 
-9.54 -8.04 -1.68 0.14 
-9.71 -7.87 -1.68 0.14 
-9.86 -7.69 -1.68 0.13 
-10.01 -7.50 -1.68 0.13 
-10.15 -7.31 -1.68 0.13 
-10.28 -7.12 -1.68 0.13 
-10.42 -6.92 -1.68 0.13 
-10.54 -6.73 -1.68 0.13 
-10.67 -6.52 -1.68 0.13 
-10.79 -6.32 -1.68 0.13 
-10.91 -6.12 -1.68 0.13 
-11.02 -5.91 -1.68 0.13 
-11.13 -5.70 -1.68 0.13 
-11.24 -5.49 -1.68 0.13 
-11.34 -5.27 -1.68 0.13 
-11.43 -5.06 -1.68 0.13 
-11.53 -4.84 -1.68 0.13 
-11.62 -4.62 -1.68 0.13 
-11.70 -4.40 -1.68 0.13 
-11.78 -4.18 -1.68 0.13 
-11.86 -3.95 -1.68 0.13 
-11.93 -3.73 -1.68 0.13 
-12.00 -3.50 -1.68 0.13 
-12.06 -3.27 -1.68 0.13 
-12.12 -3.04 -1.68 0.13 
-12.18 -2.81 -1.68 0.13 
-12.23 -2.58 -1.68 0.13 
-12.27 -2.35 -1.68 0.13 
-12.31 -2.12 -1.68 0.13 
-10.57 -1.61 -1.44 0.72 
-10.58 -1.41 -1.44 0.72 
-12.41 -1.42 -1.68 0.13 
-12.44 -1.18 -1.68 0.13 
-12.46 -0.94 -1.68 0.13 
-12.47 -0.71 -1.68 0.13 
-12.48 -0.47 -1.68 0.13 
-12.49 -0.24 -1.68 0.13 
-12.38 -0.00 -1.68 0.13 
-10.75 0.20 -1.46 0.71 
-10.77 0.41 -1.47 0.71 
-12.36 0.70 -1.68 0.13 
-12.34 0.94 -1.68 0.13 
-12.32 1.17 -1.68 0.13 
-12.29 1.40 -1.68 0.13 
