VERSION 0.7
FIELDS x y z intensity
SIZE 4 4 4 8
TYPE F F F F
COUNT 1 1 1 1
WIDTH 1921
HEIGHT 1
VIEWPOINT 0.0 0.0 0.0 1.0 0.0 0.0 0.0
POINTS 1921
DATA ascii
-26.69 31.68 5.43 0.27 
-20.42 28.33 4.58 0.41 
-19.14 27.64 4.41 0.47 
-8.33 13.06 2.03 0.92 
-8.08 13.22 2.03 0.92 
-8.87 19.07 2.76 0.47 
1.12 19.66 2.58 0.36 
3.21 11.82 1.60 0.94 
4.53 13.60 1.88 0.26 
4.74 13.38 1.86 0.91 
5.05 13.43 1.88 0.61 
20.65 11.07 3.07 0.68 
20.54 10.51 3.02 0.63 
20.26 9.42 2.93 0.39 
23.90 10.03 3.40 0.86 
37.02 3.51 4.87 0.16 
23.31 -22.02 4.20 0.84 
23.01 -22.57 4.22 0.60 
59.19 -65.07 11.53 0.61 
27.84 -38.62 6.24 0.39 
59.10 -88.91 13.99 0.34 
56.23 -88.15 13.70 0.52 
61.03 -108.85 16.35 0.49 
58.33 -108.83 16.18 0.39 
57.04 -111.43 16.41 0.59 
38.56 -102.57 14.36 0.61 
35.85 -101.14 14.06 0.11 
37.73 -120.78 16.58 0.50 
35.46 -121.53 16.59 0.41 
36.79 -146.49 19.79 0.43 
-31.60 -75.29 10.70 0.49 
-33.31 -75.32 10.79 0.30 
-33.48 -72.00 10.41 0.53 
-36.93 -75.63 11.03 0.21 
-71.88 -108.12 17.01 0.48 
-71.14 -94.86 15.54 0.48 
-72.69 -93.21 15.49 0.58 
-75.38 -92.97 15.69 0.51 
-64.36 -76.37 13.09 0.24 
-65.16 -74.42 12.96 0.61 
-67.62 -74.34 13.17 0.60 
-73.51 -77.81 14.03 0.54 
-77.77 -79.26 14.55 0.58 
-18.78 -9.17 2.74 0.66 
-130.84 2.48 16.99 0.49 
-114.10 6.49 14.84 0.42 
-114.02 8.65 14.85 0.20 
-124.97 11.86 16.30 0.44 
-123.51 14.08 16.14 0.25 
-122.91 16.38 16.10 0.20 
-125.86 29.09 16.77 0.51 
-48.24 12.11 6.46 0.77 
-105.37 28.59 14.17 0.56 
-105.57 30.80 14.28 0.64 
-102.96 34.32 14.09 0.58 
-84.66 33.67 11.83 0.62 
-16.75 11.13 2.61 0.78 
-14.30 11.15 2.35 0.62 
-14.10 11.43 2.36 0.87 
-13.97 11.77 2.37 0.54 
-26.69 31.68 5.38 0.27 
-20.42 28.33 4.53 0.41 
-19.14 27.64 4.36 0.47 
-8.33 13.06 2.01 0.92 
-8.08 13.22 2.01 0.93 
-8.87 19.07 2.73 0.47 
1.08 19.07 2.48 0.30 
3.21 11.82 1.59 0.94 
4.53 13.60 1.86 0.26 
4.74 13.38 1.84 0.91 
5.05 13.43 1.86 0.61 
20.64 11.07 3.04 0.68 
20.54 10.51 3.00 0.63 
23.90 10.03 3.37 0.87 
37.02 3.51 4.83 0.16 
23.30 -22.02 4.16 0.84 
23.01 -22.57 4.18 0.60 
59.22 -65.11 11.43 0.08 
27.84 -38.62 6.18 0.39 
59.10 -88.91 13.86 0.34 
56.13 -88.00 13.55 0.25 
61.20 -109.16 16.25 0.52 
58.31 -108.77 16.02 0.43 
57.05 -111.45 16.25 0.59 
38.55 -102.54 14.22 0.61 
36.47 -102.87 14.17 0.56 
37.61 -120.38 16.37 0.43 
35.51 -121.71 16.46 0.36 
36.82 -146.64 19.63 0.42 
-32.08 -76.43 10.76 0.54 
-32.90 -74.40 10.56 0.33 
-33.52 -72.09 10.32 0.52 
-37.74 -77.29 11.17 0.43 
-36.43 -71.16 10.38 0.55 
-72.21 -118.08 17.97 0.07 
-72.31 -108.78 16.96 0.07 
-70.87 -94.50 15.34 0.39 
-72.74 -93.26 15.35 0.58 
-73.95 -91.21 15.24 0.50 
-64.31 -76.31 12.96 0.63 
-65.12 -74.37 12.83 0.49 
-67.92 -74.67 13.10 0.44 
-73.58 -77.88 13.91 0.54 
-75.25 -76.69 13.95 0.64 
-18.78 -9.17 2.71 0.66 
-147.12 -11.16 19.16 0.42 
-131.36 -0.00 16.89 0.45 
-131.69 2.49 16.94 0.45 
-114.47 4.33 14.73 0.30 
-114.97 6.53 14.81 0.44 
-113.88 8.64 14.69 0.29 
-124.90 11.85 16.14 0.44 
-123.41 14.07 15.98 0.34 
-122.72 16.35 15.92 0.48 
-125.80 29.07 16.61 0.51 
-48.23 12.11 6.40 0.77 
-105.32 28.58 14.04 0.57 
-105.57 30.80 14.14 0.64 
-103.00 34.33 13.96 0.58 
-84.66 33.67 11.72 0.62 
-16.75 11.13 2.59 0.78 
-14.29 11.15 2.33 0.88 
-14.09 11.43 2.33 0.87 
-13.96 11.77 2.35 0.54 
-26.69 31.68 5.33 0.27 
-20.42 28.33 4.49 0.41 
-19.14 27.64 4.32 0.47 
-8.33 13.06 1.99 0.93 
-8.08 13.21 1.99 0.93 
-8.87 19.07 2.70 0.47 
1.08 19.04 2.45 0.30 
3.21 11.82 1.57 0.94 
4.53 13.59 1.84 0.26 
4.74 13.38 1.83 0.91 
5.05 13.43 1.85 0.61 
20.64 11.07 3.01 0.69 
20.49 10.49 2.96 0.59 
23.90 10.03 3.33 0.87 
37.02 3.51 4.78 0.17 
23.30 -22.02 4.12 0.84 
23.00 -22.57 4.15 0.60 
59.26 -65.15 11.33 0.08 
27.83 -38.61 6.12 0.39 
59.10 -88.91 13.73 0.34 
57.42 -90.02 13.73 0.58 
57.31 -93.73 14.13 0.51 
60.97 -108.75 16.04 0.45 
58.30 -108.77 15.87 0.43 
57.08 -111.50 16.11 0.58 
38.54 -102.52 14.09 0.61 
36.48 -102.91 14.04 0.56 
37.58 -120.29 16.21 0.35 
35.54 -121.83 16.32 0.34 
36.86 -146.78 19.46 0.42 
-51.76 -190.76 25.42 0.12 
-31.71 -79.74 11.04 0.57 
-32.12 -76.52 10.67 0.39 
-32.54 -73.58 10.35 0.51 
-33.96 -73.04 10.36 0.24 
-36.58 -74.92 10.72 0.47 
-36.46 -71.23 10.29 0.46 
-71.14 -94.86 15.25 0.48 
-72.80 -93.34 15.22 0.53 
-74.05 -91.32 15.12 0.40 
-64.31 -76.31 12.84 0.63 
-71.88 -82.09 14.03 0.30 
-67.93 -74.68 12.98 0.45 
-73.68 -77.98 13.80 0.54 
-75.28 -76.72 13.82 0.64 
-18.78 -9.17 2.69 0.66 
-147.34 -11.18 19.00 0.27 
-131.27 -0.00 16.72 0.45 
-131.77 2.49 16.79 0.39 
-114.33 4.33 14.58 0.51 
-115.23 6.55 14.70 0.62 
-113.79 8.63 14.54 0.29 
-124.83 11.85 15.97 0.44 
-93.51 10.66 11.99 0.62 
-122.62 16.34 15.76 0.48 
-48.23 12.11 6.34 0.77 
-105.27 28.56 13.90 0.57 
-105.57 30.80 14.01 0.64 
-84.66 33.67 11.61 0.62 
-16.75 11.13 2.56 0.78 
-14.29 11.14 2.31 0.88 
-14.09 11.42 2.31 0.87 
-13.96 11.76 2.33 0.54 
-26.69 31.68 5.28 0.27 
-20.42 28.33 4.45 0.41 
-19.14 27.64 4.28 0.47 
-8.33 13.06 1.97 0.93 
-8.08 13.21 1.97 0.93 
-8.87 19.07 2.68 0.47 
1.08 19.02 2.43 0.53 
3.21 11.82 1.56 0.94 
4.53 13.59 1.83 0.26 
4.74 13.38 1.81 0.91 
5.05 13.43 1.83 0.61 
20.64 11.06 2.98 0.69 
20.49 10.49 2.93 0.68 
23.90 10.03 3.30 0.87 
37.02 3.51 4.74 0.17 
23.30 -22.01 4.08 0.84 
23.00 -22.57 4.11 0.60 
59.28 -65.18 11.22 0.68 
27.83 -38.61 6.06 0.39 
59.11 -88.91 13.60 0.34 
57.41 -90.01 13.60 0.58 
57.32 -93.73 14.00 0.56 
61.75 -110.14 16.09 0.39 
57.64 -107.52 15.54 0.40 
38.53 -102.49 13.95 0.61 
36.49 -102.95 13.91 0.56 
37.55 -120.20 16.04 0.35 
35.56 -121.87 16.17 0.34 
36.90 -146.93 19.30 0.42 
-51.76 -190.77 25.18 0.12 
-31.73 -79.79 10.94 0.57 
-32.18 -76.67 10.59 0.39 
-32.74 -74.03 10.31 0.53 
-33.95 -73.01 10.26 0.24 
-36.63 -75.03 10.64 0.47 
-36.51 -71.33 10.21 0.46 
-73.18 -114.74 17.34 0.47 
-70.76 -94.35 15.03 0.08 
-72.87 -93.43 15.10 0.29 
-74.25 -91.58 15.02 0.37 
-64.32 -76.33 12.72 0.59 
-65.22 -74.49 12.61 0.66 
-67.94 -74.69 12.86 0.47 
-73.84 -78.16 13.70 0.59 
-75.31 -76.75 13.70 0.60 
-18.78 -9.17 2.66 0.66 
-147.57 -11.19 18.85 0.27 
-131.19 -0.00 16.55 0.46 
-131.77 2.49 16.63 0.47 
-114.28 4.33 14.43 0.59 
-115.51 6.57 14.60 0.57 
-115.05 8.73 14.56 0.23 
-124.76 11.84 15.81 0.44 
-123.25 14.06 15.65 0.42 
-122.53 16.33 15.60 0.48 
-48.23 12.11 6.28 0.77 
-105.20 28.54 13.75 0.44 
-105.19 30.69 13.83 0.55 
-84.66 33.67 11.50 0.62 
-16.75 11.13 2.54 0.78 
-14.79 11.09 2.33 0.11 
-14.29 11.14 2.29 0.88 
-14.08 11.42 2.29 0.88 
-13.95 11.75 2.30 0.54 
-26.69 31.67 5.23 0.27 
-20.42 28.33 4.41 0.41 
-19.14 27.64 4.24 0.47 
-8.33 13.06 1.95 0.93 
-8.08 13.21 1.95 0.93 
-8.87 19.07 2.65 0.47 
1.08 19.00 2.40 0.53 
3.21 11.82 1.54 0.94 
4.53 13.59 1.81 0.26 
4.74 13.38 1.79 0.91 
5.05 13.43 1.81 0.61 
20.61 11.05 2.95 0.67 
23.90 10.03 3.27 0.87 
37.02 3.51 4.69 0.17 
23.30 -22.01 4.04 0.84 
23.00 -22.57 4.07 0.60 
59.30 -65.19 11.12 0.47 
27.82 -38.60 6.00 0.39 
59.11 -88.92 13.47 0.34 
57.40 -89.99 13.47 0.58 
57.34 -93.76 13.87 0.56 
60.80 -108.45 15.69 0.38 
57.57 -107.40 15.38 0.37 
38.52 -102.47 13.81 0.61 
36.51 -102.98 13.79 0.56 
40.99 -122.98 16.36 0.27 
38.30 -122.61 16.21 0.50 
35.57 -121.90 16.02 0.34 
32.84 -121.02 15.82 0.39 
-51.76 -190.78 24.94 0.12 
-31.50 -79.22 10.76 0.48 
-32.35 -77.06 10.55 0.13 
-32.65 -73.84 10.19 0.61 
-33.58 -72.21 10.05 0.32 
-34.99 -71.65 10.06 0.52 
-36.54 -71.38 10.12 0.46 
-71.65 -117.17 17.33 0.31 
-24.95 -37.53 5.69 0.34 
-67.33 -93.42 14.53 0.38 
-73.22 -93.88 15.02 0.57 
-74.33 -91.67 14.89 0.37 
-69.60 -82.59 13.63 0.30 
-65.59 -74.91 12.56 0.59 
-67.97 -74.72 12.75 0.47 
-73.87 -78.18 13.57 0.60 
-75.36 -76.80 13.58 0.60 
-18.78 -9.17 2.64 0.66 
-131.11 -0.00 16.39 0.47 
-131.68 2.49 16.46 0.47 
-114.24 4.33 14.29 0.59 
-115.47 6.56 14.45 0.58 
-115.02 8.72 14.41 0.23 
-125.44 11.91 15.75 0.60 
-123.18 14.05 15.49 0.41 
-122.44 16.32 15.44 0.48 
-48.23 12.11 6.21 0.77 
-105.48 28.62 13.66 0.44 
-105.15 30.68 13.69 0.55 
-84.67 33.67 11.39 0.62 
-16.75 11.13 2.51 0.78 
-14.71 11.03 2.30 0.65 
-14.28 11.14 2.26 0.88 
-14.08 11.42 2.27 0.88 
-13.98 11.78 2.29 0.60 
-14.05 12.30 2.33 0.53 
-26.69 31.67 5.18 0.27 
-20.42 28.33 4.36 0.41 
-19.14 27.64 4.20 0.47 
-8.33 13.06 1.94 0.93 
-8.08 13.21 1.94 0.93 
-8.87 19.07 2.63 0.47 
1.08 18.97 2.37 0.53 
3.21 11.82 1.53 0.94 
4.53 13.59 1.79 0.26 
4.74 13.38 1.77 0.91 
5.05 13.43 1.79 0.61 
20.64 11.06 2.93 0.37 
23.90 10.03 3.24 0.87 
37.02 3.51 4.65 0.17 
34.43 -23.84 5.23 0.32 
23.30 -22.01 4.01 0.84 
23.00 -22.57 4.03 0.60 
59.30 -65.19 11.01 0.47 
27.82 -38.60 5.95 0.39 
59.11 -88.92 13.34 0.35 
57.36 -89.94 13.33 0.35 
55.15 -90.19 13.21 0.58 
60.66 -108.20 15.50 0.39 
57.57 -107.39 15.23 0.37 
38.51 -102.44 13.68 0.61 
36.52 -103.02 13.66 0.56 
38.28 -122.53 16.04 0.49 
35.58 -121.94 15.87 0.34 
32.85 -121.08 15.68 0.37 
-51.77 -190.78 24.70 0.12 
-31.53 -79.29 10.66 0.48 
-31.04 -73.95 10.02 0.37 
-32.96 -74.52 10.18 0.64 
-33.59 -72.22 9.95 0.32 
-35.12 -71.93 10.00 0.60 
-36.71 -71.72 10.07 0.56 
-72.48 -118.53 17.36 0.47 
-24.93 -37.50 5.63 0.56 
-70.69 -94.27 14.72 0.08 
-55.86 -71.63 11.35 0.64 
-75.83 -93.52 15.05 0.42 
-62.84 -74.57 12.19 0.47 
-70.25 -80.23 13.33 0.52 
-71.71 -78.84 13.32 0.46 
-72.29 -76.52 13.16 0.45 
-75.40 -76.84 13.45 0.60 
-18.78 -9.17 2.61 0.66 
-129.54 -0.00 16.03 0.30 
-131.55 2.49 16.28 0.51 
-114.21 4.32 14.14 0.59 
-115.89 6.59 14.36 0.43 
-114.98 8.72 14.27 0.23 
-125.59 11.92 15.61 0.41 
-123.13 14.04 15.34 0.40 
-122.35 16.30 15.28 0.48 
-48.23 12.11 6.15 0.77 
-105.39 28.59 13.51 0.45 
-105.11 30.67 13.55 0.55 
-84.67 33.67 11.28 0.62 
-16.75 11.13 2.49 0.78 
-14.70 11.03 2.27 0.65 
-14.28 11.14 2.24 0.88 
-13.98 11.78 2.26 0.60 
-13.18 13.43 2.33 0.05 
-26.69 31.67 5.13 0.27 
-20.42 28.33 4.32 0.42 
-19.14 27.64 4.16 0.47 
-8.33 13.06 1.92 0.93 
-8.08 13.21 1.92 0.93 
-8.87 19.07 2.60 0.47 
1.08 18.94 2.35 0.42 
3.21 11.82 1.52 0.94 
4.53 13.58 1.77 0.26 
4.74 13.38 1.76 0.91 
5.05 13.43 1.78 0.61 
23.90 10.03 3.21 0.87 
37.03 3.51 4.60 0.17 
34.42 -23.83 5.18 0.64 
23.30 -22.01 3.97 0.84 
23.00 -22.57 3.99 0.60 
59.30 -65.19 10.91 0.47 
27.81 -38.59 5.89 0.39 
59.13 -88.95 13.22 0.35 
55.13 -90.16 13.08 0.48 
60.62 -108.12 15.34 0.39 
57.56 -107.38 15.08 0.37 
38.50 -102.42 13.54 0.61 
36.53 -103.06 13.53 0.56 
38.26 -122.46 15.88 0.56 
35.74 -122.50 15.79 0.38 
32.84 -121.04 15.52 0.37 
-51.77 -190.79 24.46 0.12 
-31.24 -78.56 10.46 0.25 
-30.92 -73.65 9.89 0.31 
-32.71 -73.97 10.01 0.37 
-33.61 -72.27 9.86 0.26 
-35.15 -71.99 9.91 0.60 
-36.75 -71.79 9.98 0.48 
-73.12 -119.57 17.35 0.47 
-70.46 -93.96 14.53 0.31 
-55.88 -71.65 11.24 0.30 
-74.53 -91.92 14.65 0.58 
-64.63 -76.70 12.41 0.41 
-65.39 -74.68 12.28 0.65 
-66.03 -72.60 12.14 0.54 
-72.33 -76.56 13.03 0.38 
-77.83 -79.31 13.75 0.57 
-18.78 -9.17 2.59 0.66 
-129.30 -0.00 15.85 0.30 
-131.48 2.49 16.11 0.51 
-134.26 5.08 16.46 0.42 
-115.82 6.58 14.22 0.46 
-114.95 8.72 14.13 0.23 
-123.08 14.04 15.18 0.40 
-122.19 16.28 15.11 0.27 
-126.72 19.33 15.71 0.50 
-147.88 28.32 18.45 0.18 
-142.13 30.02 17.80 0.07 
-48.23 12.11 6.09 0.77 
-105.33 28.58 13.37 0.57 
-105.08 30.66 13.41 0.55 
-84.67 33.67 11.17 0.62 
-16.75 11.13 2.46 0.78 
-14.70 11.02 2.25 0.65 
-14.27 11.13 2.22 0.88 
-13.98 11.78 2.24 0.60 
-13.02 13.27 2.28 0.16 
-26.69 31.67 5.08 0.27 
-20.42 28.33 4.28 0.42 
-19.14 27.64 4.12 0.47 
-8.33 13.06 1.90 0.93 
-8.08 13.21 1.90 0.93 
-8.87 19.07 2.58 0.47 
1.07 18.90 2.32 0.42 
3.21 11.82 1.50 0.94 
4.53 13.58 1.75 0.26 
4.74 13.38 1.74 0.91 
5.05 13.43 1.76 0.61 
23.90 10.03 3.18 0.87 
37.03 3.51 4.56 0.17 
23.29 -22.01 3.93 0.84 
23.00 -22.57 3.95 0.60 
59.30 -65.19 10.80 0.47 
27.81 -38.58 5.83 0.39 
59.19 -89.04 13.10 0.24 
55.09 -90.08 12.94 0.48 
62.49 -106.67 15.15 0.52 
60.58 -108.05 15.18 0.39 
57.56 -107.38 14.93 0.37 
60.15 -129.35 17.48 0.24 
38.49 -102.39 13.40 0.61 
36.54 -103.09 13.40 0.56 
38.25 -122.42 15.72 0.56 
39.86 -146.90 18.65 0.53 
-51.77 -190.79 24.23 0.12 
-33.63 -115.25 14.71 0.52 
-30.26 -76.08 10.03 0.64 
-30.99 -73.83 9.81 0.31 
-32.91 -74.43 9.97 0.35 
-33.63 -72.33 9.77 0.26 
-35.28 -72.26 9.85 0.55 
-36.80 -71.89 9.90 0.48 
-71.80 -122.57 17.41 0.47 
-71.89 -112.72 16.38 0.25 
-70.40 -93.88 14.38 0.48 
-56.05 -71.87 11.17 0.64 
-73.42 -90.54 14.28 0.40 
-63.11 -74.89 12.00 0.62 
-63.51 -72.54 11.81 0.48 
-66.06 -72.62 12.03 0.55 
-72.02 -76.23 12.85 0.58 
-18.78 -9.17 2.56 0.66 
-129.07 -0.00 15.66 0.30 
-129.32 2.45 15.69 0.44 
-143.27 5.43 17.40 0.31 
-115.75 6.58 14.07 0.48 
-114.91 8.72 13.98 0.23 
-138.34 13.13 16.86 0.53 
-123.02 14.03 15.02 0.40 
-121.98 16.25 14.93 0.27 
-126.71 19.33 15.55 0.50 
-143.12 27.41 17.68 0.28 
-142.95 30.20 17.73 0.34 
-126.01 29.12 15.69 0.35 
-48.22 12.11 6.03 0.77 
-105.29 28.57 13.24 0.57 
-105.04 30.65 13.28 0.55 
-84.67 33.67 11.06 0.62 
-16.75 11.13 2.44 0.78 
-14.70 11.02 2.23 0.65 
-13.98 11.78 2.22 0.60 
-13.22 12.97 2.25 0.12 
-12.94 13.19 2.24 0.18 
-12.87 13.62 2.27 0.07 
-26.69 31.67 5.02 0.27 
-20.42 28.33 4.24 0.42 
-19.14 27.64 4.08 0.47 
-8.33 13.06 1.88 0.93 
-8.08 13.21 1.88 0.93 
-8.87 19.07 2.55 0.47 
1.07 18.86 2.29 0.42 
3.21 11.82 1.49 0.94 
4.53 13.58 1.74 0.26 
4.74 13.38 1.72 0.91 
5.05 13.42 1.74 0.61 
23.90 10.03 3.15 0.87 
37.03 3.51 4.51 0.17 
23.29 -22.01 3.89 0.84 
23.00 -22.57 3.91 0.60 
59.72 -65.66 10.77 0.63 
27.81 -38.58 5.77 0.39 
59.24 -89.12 12.98 0.24 
62.45 -106.61 14.99 0.49 
60.54 -107.98 15.02 0.39 
57.56 -107.38 14.78 0.32 
60.30 -129.67 17.35 0.41 
38.48 -102.37 13.27 0.61 
36.56 -103.13 13.28 0.56 
38.23 -122.39 15.56 0.56 
35.87 -122.95 15.54 0.22 
33.75 -124.37 15.64 0.50 
-51.77 -190.80 23.99 0.12 
-33.64 -115.31 14.57 0.51 
-30.28 -76.13 9.94 0.64 
-31.26 -74.46 9.80 0.50 
-32.89 -74.37 9.87 0.58 
-33.70 -72.46 9.70 0.41 
-35.32 -72.35 9.77 0.55 
-36.98 -72.24 9.85 0.32 
-71.80 -122.57 17.23 0.47 
-71.89 -112.72 16.22 0.48 
-70.40 -93.88 14.24 0.48 
-56.06 -71.88 11.06 0.60 
-73.56 -90.72 14.17 0.27 
-63.15 -74.94 11.89 0.62 
-63.61 -72.65 11.72 0.38 
-66.10 -72.67 11.92 0.55 
-72.07 -76.28 12.73 0.58 
-74.90 -76.33 12.98 0.61 
-18.78 -9.17 2.54 0.66 
-148.64 -11.27 18.09 0.52 
-128.83 -0.00 15.47 0.30 
-129.27 2.45 15.53 0.44 
-143.10 5.42 17.20 0.31 
-116.46 6.62 14.01 0.52 
-114.88 8.71 13.84 0.23 
-138.31 13.13 16.69 0.53 
-124.11 14.15 15.00 0.58 
-121.80 16.23 14.76 0.43 
-126.72 19.33 15.40 0.54 
-143.37 27.46 17.53 0.29 
-143.12 30.23 17.57 0.33 
-125.84 29.08 15.51 0.27 
-48.22 12.11 5.97 0.77 
-105.24 28.55 13.10 0.58 
-105.00 30.64 13.14 0.55 
-84.68 33.67 10.95 0.62 
-16.75 11.13 2.42 0.78 
-14.69 11.02 2.21 0.65 
-13.98 11.78 2.20 0.60 
-13.16 12.91 2.21 0.24 
-12.88 13.12 2.21 0.22 
-12.74 13.48 2.23 0.19 
-26.69 31.67 4.97 0.27 
-20.42 28.33 4.20 0.42 
-19.14 27.65 4.04 0.47 
-8.33 13.06 1.86 0.93 
-8.08 13.21 1.86 0.93 
-8.87 19.07 2.53 0.47 
1.07 18.86 2.27 0.79 
3.21 11.82 1.47 0.94 
4.53 13.58 1.72 0.26 
4.74 13.37 1.70 0.91 
5.05 13.42 1.72 0.61 
23.90 10.03 3.11 0.87 
37.03 3.51 4.47 0.17 
23.29 -22.00 3.85 0.84 
23.00 -22.57 3.87 0.60 
59.72 -65.66 10.66 0.63 
27.80 -38.57 5.71 0.39 
59.29 -89.19 12.86 0.24 
62.41 -106.55 14.83 0.49 
60.50 -107.91 14.86 0.39 
57.59 -107.45 14.64 0.32 
62.90 -128.83 17.22 0.20 
60.36 -129.81 17.20 0.41 
62.63 -149.19 19.44 0.27 
38.47 -102.34 13.13 0.61 
36.03 -123.48 15.45 0.22 
33.74 -124.33 15.47 0.50 
37.39 -148.90 18.44 0.31 
-51.77 -190.80 23.75 0.12 
-33.67 -115.42 14.44 0.51 
-30.30 -76.20 9.85 0.40 
-31.20 -74.32 9.68 0.34 
-32.91 -74.41 9.77 0.58 
-33.76 -72.59 9.62 0.40 
-35.55 -72.81 9.73 0.59 
-37.82 -73.89 9.97 0.41 
-71.80 -122.57 17.06 0.47 
-71.89 -112.72 16.06 0.48 
-67.34 -93.42 13.83 0.38 
-70.40 -93.88 14.09 0.48 
-56.08 -71.91 10.95 0.58 
-73.83 -91.06 14.08 0.39 
-63.20 -74.99 11.78 0.51 
-63.79 -72.86 11.63 0.58 
-68.12 -74.89 12.16 0.48 
-72.12 -76.33 12.61 0.58 
-75.83 -77.28 13.01 0.46 
-18.78 -9.17 2.51 0.66 
-146.44 -13.90 17.67 0.25 
-148.57 -11.27 17.90 0.37 
-128.59 -0.00 15.29 0.30 
-129.22 2.45 15.37 0.44 
-115.91 4.39 13.79 0.42 
-139.69 7.94 16.64 0.21 
-114.84 8.71 13.69 0.23 
-138.28 13.12 16.52 0.53 
-124.11 14.15 14.85 0.58 
-124.49 16.59 14.93 0.52 
-126.76 19.34 15.25 0.54 
-144.69 27.72 17.52 0.41 
-143.33 30.28 17.42 0.21 
-125.77 29.06 15.35 0.35 
-48.22 12.11 5.91 0.77 
-123.76 33.58 15.25 0.59 
-104.96 30.62 13.00 0.55 
-37.27 11.64 4.64 0.80 
-84.68 33.67 10.84 0.62 
-16.75 11.13 2.39 0.78 
-14.67 11.00 2.18 0.67 
-13.98 11.78 2.17 0.60 
-13.11 12.86 2.18 0.26 
-12.82 13.06 2.18 0.25 
-12.67 13.41 2.19 0.19 
-26.68 31.66 4.92 0.27 
-20.42 28.33 4.15 0.42 
-19.09 27.57 3.99 0.33 
-8.33 13.06 1.84 0.93 
-8.08 13.21 1.84 0.93 
-8.87 19.07 2.50 0.47 
1.08 18.97 2.26 0.71 
3.21 11.82 1.46 0.94 
4.52 13.58 1.70 0.26 
4.74 13.37 1.69 0.91 
5.05 13.42 1.71 0.61 
23.90 10.03 3.08 0.87 
37.03 3.51 4.42 0.17 
23.29 -22.00 3.81 0.84 
23.00 -22.57 3.83 0.60 
59.71 -65.65 10.55 0.63 
27.80 -38.57 5.65 0.39 
60.14 -90.47 12.92 0.55 
62.38 -106.48 14.67 0.49 
60.46 -107.84 14.70 0.39 
59.32 -110.67 14.93 0.51 
63.05 -129.12 17.09 0.44 
60.43 -129.95 17.04 0.41 
62.66 -149.27 19.25 0.37 
35.85 -122.87 15.22 0.08 
33.73 -124.30 15.31 0.54 
37.34 -148.69 18.23 0.31 
-51.77 -190.81 23.51 0.12 
-33.46 -114.69 14.21 0.41 
-30.31 -76.22 9.75 0.65 
-31.36 -74.70 9.63 0.37 
-32.01 -72.38 9.41 0.70 
-33.79 -72.66 9.53 0.55 
-35.61 -72.93 9.65 0.33 
-38.26 -74.74 9.98 0.55 
-71.89 -112.72 15.90 0.48 
-67.87 -94.17 13.80 0.38 
-69.68 -92.92 13.81 0.48 
-56.08 -71.90 10.84 0.28 
-74.21 -91.52 14.01 0.24 
-63.27 -75.08 11.67 0.50 
-63.84 -72.91 11.52 0.15 
-65.43 -71.94 11.56 0.38 
-72.31 -76.54 12.52 0.15 
-75.93 -77.38 12.89 0.45 
-18.78 -9.17 2.48 0.66 
-48.17 -22.40 6.32 0.24 
-147.04 -13.96 17.56 0.46 
-148.46 -11.26 17.70 0.37 
-128.36 -0.00 15.11 0.30 
-129.17 2.44 15.21 0.45 
-116.30 4.40 13.70 0.62 
-139.57 7.93 16.45 0.21 
-114.81 8.71 13.55 0.23 
-138.25 13.12 16.34 0.53 
-124.11 14.15 14.70 0.58 
-124.41 16.58 14.77 0.34 
-126.81 19.35 15.10 0.54 
-144.56 27.69 17.32 0.44 
-143.60 30.33 17.27 0.21 
-125.70 29.05 15.18 0.35 
-48.22 12.11 5.85 0.77 
-123.75 33.58 15.09 0.59 
-104.93 30.61 12.86 0.55 
-37.27 11.64 4.60 0.80 
-84.68 33.68 10.73 0.62 
-16.75 11.13 2.37 0.78 
-14.67 11.00 2.16 0.67 
-13.98 11.78 2.15 0.60 
-13.06 12.81 2.15 0.26 
-12.77 13.01 2.15 0.25 
-12.61 13.34 2.16 0.23 
-26.68 31.66 4.87 0.27 
-20.42 28.33 4.11 0.42 
-19.10 27.58 3.95 0.40 
-8.33 13.06 1.82 0.93 
-8.08 13.21 1.82 0.93 
-8.70 18.72 2.43 0.39 
1.08 18.97 2.24 0.71 
3.21 11.82 1.44 0.94 
4.52 13.57 1.68 0.26 
4.74 13.37 1.67 0.91 
5.05 13.42 1.69 0.61 
23.90 10.03 3.05 0.87 
37.03 3.51 4.38 0.17 
23.29 -22.00 3.77 0.84 
23.00 -22.57 3.79 0.60 
59.71 -65.64 10.44 0.63 
27.79 -38.56 5.59 0.39 
60.15 -90.49 12.79 0.55 
62.34 -106.42 14.52 0.49 
60.42 -107.77 14.54 0.39 
59.33 -110.67 14.78 0.51 
63.11 -129.25 16.93 0.44 
60.46 -130.02 16.88 0.54 
62.68 -149.32 19.06 0.37 
37.71 -120.71 14.88 0.19 
35.61 -122.07 14.97 0.37 
33.72 -124.28 15.16 0.54 
37.29 -148.52 18.02 0.48 
-51.77 -190.81 23.27 0.12 
-33.51 -114.84 14.08 0.41 
-31.44 -74.91 9.56 0.22 
-32.02 -72.42 9.32 0.70 
-33.81 -72.70 9.44 0.56 
-35.66 -73.03 9.57 0.12 
-37.08 -72.44 9.58 0.29 
-72.64 -118.79 16.39 0.39 
-71.89 -112.72 15.73 0.48 
-68.27 -94.72 13.74 0.07 
-70.39 -93.87 13.81 0.07 
-55.98 -71.78 10.71 0.67 
-74.61 -92.01 13.94 0.39 
-63.35 -75.17 11.57 0.61 
-63.63 -72.67 11.37 0.45 
-65.47 -71.97 11.45 0.43 
-74.41 -78.76 12.75 0.53 
-76.01 -77.46 12.77 0.49 
-18.78 -9.17 2.46 0.66 
-147.17 -13.97 17.40 0.46 
-148.39 -11.25 17.51 0.46 
-128.12 -0.00 14.92 0.30 
-129.19 2.45 15.05 0.45 
-116.28 4.40 13.55 0.57 
-139.18 7.91 16.24 0.30 
-114.78 8.71 13.41 0.44 
-138.19 13.12 16.17 0.44 
-124.10 14.15 14.55 0.58 
-55.04 7.33 6.47 0.18 
-144.45 27.67 17.13 0.44 
-143.87 30.39 17.13 0.21 
-124.54 28.78 14.89 0.51 
-48.22 12.11 5.79 0.77 
-123.75 33.58 14.94 0.59 
-104.89 30.60 12.73 0.55 
-37.27 11.64 4.55 0.80 
-84.68 33.68 10.62 0.62 
-16.75 11.13 2.34 0.78 
-14.67 11.00 2.14 0.67 
-13.98 11.78 2.13 0.60 
-13.48 12.74 2.16 0.26 
-13.01 12.76 2.12 0.26 
-12.72 12.96 2.12 0.34 
-12.55 13.29 2.13 0.29 
-26.67 31.65 4.82 0.27 
-20.42 28.33 4.07 0.41 
-8.33 13.05 1.80 0.93 
-8.08 13.21 1.80 0.93 
-8.68 18.67 2.40 0.31 
1.08 18.97 2.21 0.71 
3.21 11.82 1.43 0.94 
4.52 13.57 1.67 0.26 
4.74 13.37 1.65 0.91 
5.04 13.42 1.67 0.61 
23.90 10.03 3.02 0.87 
37.03 3.52 4.33 0.17 
47.77 -13.94 5.80 0.16 
23.29 -22.00 3.73 0.84 
23.00 -22.57 3.75 0.60 
59.70 -65.64 10.34 0.63 
27.79 -38.56 5.54 0.39 
60.16 -90.50 12.66 0.55 
62.31 -106.37 14.36 0.54 
60.38 -107.70 14.38 0.39 
59.59 -111.17 14.69 0.56 
63.17 -129.38 16.77 0.44 
60.48 -130.06 16.71 0.54 
62.70 -149.37 18.87 0.37 
60.35 -151.76 19.02 0.23 
37.69 -120.64 14.72 0.19 
35.56 -121.89 14.79 0.35 
39.92 -147.13 17.76 0.53 
37.28 -148.46 17.83 0.48 
-51.78 -190.82 23.03 0.12 
-33.63 -115.27 13.99 0.47 
-31.13 -74.17 9.37 0.66 
-32.04 -72.46 9.23 0.40 
-33.87 -72.84 9.36 0.43 
-35.81 -73.33 9.51 0.45 
-37.21 -72.70 9.51 0.16 
-72.58 -118.69 16.21 0.39 
-71.89 -112.72 15.57 0.48 
-74.48 -103.33 14.84 0.56 
-55.64 -74.19 10.80 0.35 
-56.02 -71.83 10.61 0.26 
-57.10 -70.42 10.56 0.25 
-63.39 -75.23 11.46 0.57 
-64.02 -73.12 11.32 0.51 
-65.83 -72.37 11.40 0.52 
-72.80 -77.05 12.35 0.60 
-18.78 -9.17 2.43 0.66 
-147.31 -13.98 17.24 0.46 
-148.34 -11.25 17.33 0.46 
-131.45 -0.00 15.15 0.59 
-129.16 2.44 14.89 0.36 
-132.16 5.00 15.24 0.58 
-139.33 7.92 16.09 0.23 
-114.77 8.70 13.27 0.44 
-116.61 11.07 13.50 0.27 
-124.10 14.15 14.40 0.58 
-54.90 7.32 6.38 0.62 
-55.13 8.41 6.43 0.21 
-163.96 28.20 19.18 0.21 
-146.31 28.02 17.17 0.52 
-144.23 30.47 16.99 0.40 
-124.48 28.77 14.73 0.55 
-48.22 12.11 5.73 0.77 
-125.61 34.08 15.00 0.50 
-104.85 30.59 12.59 0.55 
-37.27 11.64 4.50 0.80 
-84.68 33.68 10.51 0.62 
-16.75 11.13 2.32 0.78 
-14.67 11.00 2.11 0.67 
-13.98 11.78 2.11 0.60 
-13.43 12.69 2.13 0.26 
-12.96 12.71 2.09 0.26 
-12.68 12.93 2.09 0.34 
-12.51 13.24 2.10 0.29 
-12.60 13.86 2.16 0.10 
-26.67 31.65 4.77 0.27 
-20.37 28.26 4.02 0.32 
-8.33 13.05 1.78 0.93 
-8.08 13.21 1.78 0.93 
-8.66 18.62 2.37 0.31 
1.08 18.97 2.19 0.71 
3.21 11.82 1.41 0.94 
4.52 13.57 1.65 0.26 
4.74 13.37 1.64 0.91 
5.04 13.42 1.65 0.61 
23.90 10.03 2.99 0.87 
37.04 3.52 4.29 0.17 
50.80 -9.73 5.96 0.57 
47.70 -13.92 5.73 0.64 
23.28 -22.00 3.69 0.84 
23.00 -22.57 3.71 0.60 
59.70 -65.63 10.23 0.63 
27.79 -38.55 5.48 0.39 
60.17 -90.52 12.53 0.55 
62.28 -106.33 14.20 0.55 
60.34 -107.63 14.22 0.39 
63.21 -129.46 16.61 0.55 
60.50 -130.10 16.54 0.54 
62.72 -149.42 18.68 0.37 
60.22 -151.43 18.78 0.23 
37.67 -120.57 14.56 0.19 
35.52 -121.75 14.62 0.35 
39.93 -147.17 17.58 0.53 
37.27 -148.40 17.64 0.48 
34.11 -147.61 17.46 0.36 
-51.78 -190.83 22.79 0.12 
-33.86 -116.06 13.94 0.46 
-35.53 -113.73 13.73 0.35 
-32.19 -80.96 10.04 0.25 
-31.07 -74.01 9.25 0.21 
-32.10 -72.59 9.15 0.38 
-32.84 -70.61 8.98 0.45 
-36.00 -73.73 9.46 0.37 
-37.84 -73.93 9.57 0.46 
-72.53 -118.61 16.03 0.47 
-71.89 -112.72 15.41 0.48 
-74.52 -103.38 14.69 0.56 
-72.20 -96.28 13.87 0.15 
-56.15 -71.99 10.52 0.67 
-57.16 -70.50 10.46 0.59 
-63.43 -75.27 11.35 0.54 
-63.74 -72.79 11.15 0.47 
-65.86 -72.40 11.28 0.56 
-72.49 -76.73 12.17 0.45 
-18.78 -9.17 2.41 0.66 
-147.44 -13.99 17.07 0.46 
-148.29 -11.25 17.14 0.47 
-131.45 -0.00 14.99 0.59 
-129.12 2.44 14.73 0.36 
-140.03 5.30 15.98 0.32 
-139.21 7.91 15.90 0.23 
-114.76 8.70 13.13 0.44 
-116.78 11.08 13.38 0.60 
-124.09 14.15 14.25 0.58 
-54.94 7.32 6.32 0.43 
-164.42 28.28 19.03 0.21 
-146.29 28.02 16.99 0.47 
-144.39 30.50 16.83 0.40 
-124.44 28.76 14.57 0.56 
-48.22 12.11 5.67 0.77 
-104.82 30.58 12.45 0.55 
-37.27 11.64 4.45 0.80 
-84.69 33.68 10.39 0.62 
-16.75 11.13 2.29 0.78 
-14.67 11.00 2.09 0.67 
-13.98 11.78 2.09 0.60 
-13.39 12.65 2.10 0.27 
-12.93 12.68 2.07 0.44 
-12.65 12.89 2.06 0.34 
-12.47 13.20 2.07 0.29 
-12.50 13.74 2.12 0.12 
-26.67 31.64 4.72 0.34 
-20.36 28.25 3.97 0.39 
-8.33 13.05 1.77 0.93 
-8.08 13.21 1.77 0.93 
-8.65 18.60 2.34 0.89 
1.08 18.97 2.17 0.71 
3.21 11.82 1.40 0.94 
4.52 13.57 1.63 0.26 
4.74 13.37 1.62 0.91 
5.04 13.42 1.63 0.61 
23.90 10.03 2.96 0.87 
37.04 3.52 4.24 0.17 
50.80 -9.73 5.90 0.57 
47.73 -13.92 5.67 0.46 
23.28 -22.00 3.65 0.84 
23.00 -22.57 3.67 0.60 
59.69 -65.63 10.12 0.64 
27.78 -38.54 5.42 0.39 
60.19 -90.54 12.40 0.55 
62.26 -106.28 14.05 0.55 
60.30 -107.56 14.06 0.39 
63.23 -129.50 16.44 0.55 
60.52 -130.14 16.37 0.54 
62.76 -149.51 18.49 0.29 
60.67 -152.57 18.73 0.15 
37.65 -120.52 14.40 0.46 
35.48 -121.59 14.45 0.18 
39.94 -147.22 17.40 0.53 
37.12 -147.83 17.38 0.37 
-51.78 -190.83 22.55 0.12 
-33.74 -115.64 13.74 0.30 
-35.49 -113.60 13.57 0.40 
-30.09 -75.68 9.29 0.25 
-31.15 -74.21 9.18 0.60 
-32.22 -72.85 9.09 0.08 
-32.89 -70.73 8.90 0.45 
-36.73 -75.24 9.55 0.62 
-37.84 -73.92 9.47 0.16 
-72.57 -118.67 15.86 0.31 
-71.89 -112.72 15.25 0.48 
-74.57 -103.46 14.55 0.53 
-72.31 -96.42 13.75 0.15 
-56.21 -72.07 10.42 0.68 
-57.21 -70.55 10.36 0.59 
-63.44 -75.29 11.23 0.54 
-63.82 -72.89 11.05 0.48 
-66.72 -73.35 11.31 0.40 
-72.63 -76.87 12.06 0.30 
-76.99 -78.46 12.54 0.29 
-18.78 -9.17 2.38 0.66 
-148.48 -14.09 17.01 0.39 
-148.24 -11.24 16.96 0.47 
-129.59 -2.45 14.78 0.52 
-131.47 -0.00 14.84 0.45 
-129.08 2.44 14.57 0.36 
-140.85 5.33 15.91 0.41 
-139.09 7.91 15.72 0.22 
-114.75 8.70 12.99 0.44 
-116.83 11.09 13.24 0.60 
-124.09 14.15 14.09 0.58 
-140.62 18.74 16.01 0.22 
-140.97 21.51 16.09 0.50 
-164.88 28.36 18.88 0.21 
-146.22 28.01 16.80 0.47 
-144.54 30.53 16.67 0.40 
-124.40 28.75 14.41 0.56 
-48.21 12.11 5.61 0.77 
-123.40 33.48 14.43 0.49 
-104.78 30.57 12.32 0.55 
-37.27 11.64 4.41 0.80 
-84.69 33.68 10.28 0.62 
-16.75 11.13 2.27 0.78 
-14.67 11.00 2.07 0.67 
-13.98 11.78 2.06 0.60 
-13.36 12.63 2.07 0.21 
-12.90 12.66 2.04 0.44 
-12.61 12.85 2.03 0.35 
-12.43 13.16 2.04 0.36 
-12.40 13.63 2.08 0.13 
-26.66 31.64 4.67 0.34 
-20.40 28.30 3.94 0.23 
-8.32 13.05 1.75 0.93 
-8.07 13.21 1.75 0.93 
-8.65 18.60 2.31 0.10 
1.08 18.98 2.15 0.71 
3.21 11.82 1.38 0.94 
4.52 13.56 1.61 0.26 
4.74 13.37 1.60 0.91 
5.04 13.42 1.62 0.61 
23.90 10.03 2.93 0.87 
37.04 3.52 4.20 0.17 
50.80 -9.73 5.84 0.57 
49.04 -13.31 5.73 0.55 
48.00 -14.00 5.64 0.58 
23.28 -22.00 3.61 0.84 
23.00 -22.56 3.64 0.60 
59.69 -65.62 10.01 0.64 
27.78 -38.54 5.36 0.39 
60.20 -90.55 12.27 0.55 
60.82 -108.48 14.03 0.36 
60.53 -130.17 16.20 0.54 
62.80 -149.61 18.31 0.29 
37.65 -120.50 14.25 0.46 
35.82 -122.78 14.43 0.58 
40.08 -147.73 17.27 0.46 
37.06 -147.58 17.17 0.44 
-13.22 -52.65 6.13 0.21 
-51.78 -190.84 22.31 0.12 
-33.94 -116.33 13.67 0.11 
-35.55 -113.80 13.45 0.31 
-38.17 -114.52 13.62 0.58 
-31.17 -74.25 9.09 0.60 
-33.22 -75.12 9.27 0.41 
-33.00 -70.97 8.83 0.56 
-36.47 -74.69 9.38 0.48 
-37.32 -72.90 9.24 0.58 
-72.57 -118.67 15.70 0.31 
-73.07 -105.53 14.48 0.41 
-74.64 -103.56 14.41 0.44 
-54.21 -72.29 10.20 0.57 
-56.22 -72.08 10.32 0.63 
-72.64 -89.58 13.01 0.51 
-64.21 -76.19 11.24 0.12 
-63.44 -72.45 10.87 0.53 
-65.98 -72.54 11.07 0.65 
-72.44 -76.67 11.90 0.21 
-73.98 -75.39 11.92 0.49 
-121.66 -110.66 18.56 0.34 
-18.78 -9.17 2.36 0.66 
-148.40 -14.08 16.82 0.53 
-149.00 -11.30 16.86 0.44 
-129.54 -2.45 14.62 0.52 
-131.52 -0.00 14.68 0.44 
-128.96 2.44 14.40 0.29 
-140.76 5.33 15.73 0.44 
-138.97 7.90 15.54 0.23 
-114.74 8.70 12.85 0.44 
-116.87 11.09 13.11 0.60 
-124.09 14.15 13.94 0.58 
-140.85 18.77 15.86 0.22 
-140.97 21.51 15.92 0.52 
-165.24 28.42 18.72 0.42 
-144.70 30.57 16.51 0.40 
-124.36 28.74 14.25 0.56 
-48.21 12.11 5.55 0.77 
-123.34 33.47 14.27 0.49 
-105.62 30.82 12.28 0.63 
-37.27 11.64 4.36 0.80 
-84.69 33.68 10.17 0.62 
-16.75 11.13 2.25 0.78 
-14.67 11.00 2.05 0.67 
-13.98 11.78 2.04 0.60 
-13.35 12.62 2.05 0.21 
-12.87 12.63 2.01 0.44 
-12.58 12.82 2.01 0.44 
-12.40 13.12 2.02 0.47 
-12.35 13.57 2.05 0.34 
-26.66 31.63 4.62 0.34 
-8.32 13.05 1.73 0.93 
-8.07 13.20 1.73 0.93 
-8.71 18.73 2.31 0.56 
-8.70 19.67 2.40 0.30 
1.08 18.99 2.12 0.71 
3.21 11.82 1.37 0.94 
4.52 13.56 1.60 0.26 
4.74 13.37 1.58 0.91 
5.04 13.42 1.60 0.61 
23.90 10.03 2.89 0.87 
37.04 3.52 4.15 0.17 
50.79 -9.73 5.77 0.57 
23.28 -21.99 3.58 0.84 
22.99 -22.56 3.60 0.60 
59.68 -65.62 9.90 0.64 
27.77 -38.53 5.30 0.81 
60.21 -90.57 12.14 0.55 
60.82 -108.49 13.88 0.36 
57.77 -112.85 14.15 0.55 
63.79 -130.65 16.23 0.42 
60.55 -130.21 16.03 0.54 
66.70 -150.83 18.41 0.04 
62.84 -149.70 18.12 0.29 
37.64 -120.47 14.09 0.46 
35.82 -122.78 14.28 0.58 
40.29 -148.50 17.18 0.31 
37.04 -147.52 16.98 0.44 
-13.21 -52.61 6.06 0.34 
-51.78 -190.84 22.08 0.12 
-33.89 -116.14 13.51 0.20 
-35.48 -113.58 13.28 0.09 
-33.47 -94.42 11.18 0.67 
-31.24 -74.43 9.01 0.31 
-33.28 -75.26 9.19 0.41 
-33.06 -71.08 8.75 0.45 
-36.48 -74.71 9.28 0.48 
-38.35 -74.92 9.40 0.61 
-39.86 -74.36 9.42 0.55 
-72.57 -118.67 15.53 0.31 
-74.82 -103.81 14.29 0.43 
-54.22 -72.30 10.09 0.57 
-56.15 -71.99 10.19 0.53 
-73.05 -90.10 12.95 0.60 
-71.10 -84.38 12.32 0.54 
-63.43 -72.44 10.75 0.53 
-65.97 -72.53 10.95 0.65 
-72.48 -76.72 11.78 0.21 
-74.06 -75.47 11.80 0.49 
-76.15 -74.72 11.91 0.47 
-121.66 -110.66 18.36 0.34 
-124.84 -109.30 18.52 0.31 
-18.78 -9.17 2.33 0.66 
-147.74 -14.02 16.57 0.42 
-149.42 -11.33 16.73 0.36 
-131.58 -0.00 14.53 0.44 
-129.31 2.45 14.28 0.37 
-140.68 5.33 15.55 0.44 
-139.95 7.95 15.48 0.28 
-114.73 8.70 12.71 0.44 
-138.07 13.10 15.31 0.31 
-124.08 14.15 13.79 0.58 
-141.06 18.80 15.71 0.21 
-126.10 19.24 14.09 0.16 
-165.31 28.43 18.52 0.41 
-144.94 30.62 16.36 0.16 
-48.21 12.11 5.49 0.77 
-123.23 33.44 14.10 0.52 
-105.63 30.82 12.15 0.63 
-37.27 11.64 4.31 0.80 
-84.69 33.68 10.06 0.62 
-16.75 11.13 2.22 0.78 
-14.67 11.00 2.02 0.67 
-13.98 11.78 2.02 0.60 
-13.34 12.60 2.03 0.21 
-12.85 12.61 1.99 0.49 
-12.56 12.80 1.98 0.44 
-12.38 13.10 1.99 0.47 
-12.31 13.54 2.02 0.34 
-26.66 31.63 4.57 0.35 
-8.32 13.05 1.71 0.93 
-8.07 13.20 1.71 0.93 
-8.71 18.73 2.28 0.56 
-8.67 19.61 2.37 0.30 
1.08 19.00 2.10 0.64 
3.21 11.82 1.35 0.94 
4.52 13.56 1.58 0.26 
4.74 13.37 1.57 0.91 
5.04 13.41 1.58 0.61 
23.91 10.03 2.86 0.87 
37.04 3.52 4.11 0.17 
50.79 -9.73 5.71 0.57 
23.28 -21.99 3.54 0.84 
22.99 -22.56 3.56 0.60 
59.68 -65.61 9.79 0.64 
27.77 -38.53 5.24 0.81 
60.22 -90.59 12.01 0.55 
60.82 -108.49 13.73 0.36 
63.73 -130.53 16.04 0.42 
60.57 -130.25 15.86 0.54 
62.88 -149.80 17.94 0.29 
59.77 -150.29 17.86 0.20 
37.63 -120.45 13.93 0.46 
35.82 -122.78 14.12 0.58 
39.97 -147.31 16.85 0.39 
37.03 -147.45 16.79 0.44 
-13.25 -52.76 6.01 0.26 
-34.25 -117.41 13.51 0.34 
-35.50 -113.62 13.14 0.15 
-39.01 -117.03 13.62 0.09 
-33.50 -94.51 11.07 0.64 
-31.31 -74.60 8.93 0.23 
-32.29 -73.01 8.82 0.55 
-33.11 -71.20 8.67 0.45 
-36.59 -74.93 9.21 0.29 
-38.34 -74.90 9.29 0.68 
-74.84 -103.83 14.13 0.19 
-54.30 -72.40 9.99 0.14 
-55.80 -71.55 10.02 0.67 
-57.62 -71.06 10.10 0.67 
-64.58 -76.63 11.07 0.39 
-63.65 -72.70 10.67 0.51 
-65.83 -72.37 10.80 0.46 
-72.33 -76.55 11.63 0.52 
-73.81 -75.22 11.64 0.37 
-77.57 -76.12 12.00 0.56 
-121.66 -110.66 18.16 0.34 
-124.83 -109.30 18.32 0.31 
-18.78 -9.17 2.31 0.66 
-147.63 -14.01 16.38 0.42 
-148.07 -11.23 16.40 0.47 
-131.64 -0.00 14.38 0.44 
-129.27 2.45 14.12 0.37 
-142.35 5.39 15.56 0.51 
-140.10 7.96 15.33 0.28 
-114.72 8.70 12.56 0.44 
-124.08 14.15 13.64 0.58 
-125.50 16.72 13.83 0.53 
-55.16 9.49 6.11 0.77 
-144.63 30.55 16.14 0.42 
-48.21 12.11 5.43 0.77 
-123.18 33.42 13.94 0.52 
-105.63 30.82 12.02 0.63 
-37.27 11.64 4.26 0.80 
-84.70 33.68 9.95 0.62 
-16.75 11.13 2.20 0.78 
-14.67 11.00 2.00 0.67 
-13.98 11.78 2.00 0.60 
-13.33 12.59 2.00 0.21 
-12.82 12.58 1.96 0.49 
-12.53 12.77 1.95 0.44 
-12.35 13.08 1.96 0.48 
-12.28 13.50 1.99 0.34 
-26.66 31.63 4.52 0.35 
-8.32 13.05 1.69 0.93 
-8.07 13.20 1.69 0.93 
-8.71 18.73 2.26 0.56 
-8.66 19.58 2.34 0.59 
1.08 19.02 2.08 0.64 
3.21 11.82 1.34 0.94 
4.52 13.56 1.56 0.26 
4.74 13.36 1.55 0.91 
5.04 13.41 1.57 0.61 
23.91 10.03 2.83 0.87 
37.04 3.52 4.06 0.17 
50.79 -9.73 5.65 0.57 
23.28 -21.99 3.50 0.84 
22.99 -22.56 3.52 0.60 
59.67 -65.61 9.69 0.64 
27.77 -38.53 5.19 0.81 
60.23 -90.60 11.88 0.55 
60.83 -108.49 13.58 0.36 
63.67 -130.41 15.85 0.42 
61.05 -131.27 15.81 0.52 
62.92 -149.90 17.76 0.51 
59.95 -150.75 17.72 0.47 
36.41 -102.71 11.90 0.21 
37.62 -120.42 13.78 0.46 
35.82 -122.77 13.97 0.58 
39.14 -144.24 16.32 0.28 
37.23 -148.26 16.69 0.54 
-35.57 -113.84 13.03 0.56 
-38.74 -116.23 13.38 0.05 
-33.57 -94.71 10.97 0.65 
-35.93 -95.58 11.15 0.26 
-32.51 -81.74 9.61 0.43 
-31.30 -74.58 8.83 0.39 
-32.31 -73.07 8.73 0.55 
-33.17 -71.32 8.59 0.32 
-34.71 -71.10 8.64 0.31 
-38.20 -74.63 9.16 0.30 
-40.03 -74.67 9.25 0.44 
-72.23 -118.13 15.12 0.48 
-74.92 -103.94 13.99 0.19 
-54.58 -72.78 9.94 0.38 
-55.82 -71.56 9.91 0.67 
-57.44 -70.84 9.96 0.51 
-64.58 -76.64 10.95 0.54 
-63.56 -72.59 10.54 0.42 
-65.57 -72.09 10.64 0.57 
-72.56 -76.80 11.54 0.20 
-74.90 -76.33 11.68 0.45 
-76.51 -75.07 11.71 0.53 
-121.66 -110.66 17.96 0.34 
-124.83 -109.30 18.12 0.31 
-18.78 -9.17 2.28 0.66 
-147.52 -14.00 16.18 0.42 
-147.13 -11.16 16.12 0.29 
-131.70 -0.00 14.22 0.44 
-129.08 2.44 13.94 0.32 
-142.27 5.39 15.38 0.46 
-118.86 6.76 12.86 0.23 
-114.71 8.70 12.42 0.44 
-124.07 14.15 13.49 0.58 
-37.08 4.94 4.04 0.84 
-165.43 28.45 18.13 0.41 
-167.51 32.09 18.42 0.25 
-144.44 30.51 15.94 0.10 
-144.83 33.47 16.06 0.39 
-48.21 12.11 5.37 0.77 
-123.06 33.39 13.77 0.17 
-105.64 30.82 11.89 0.63 
-37.27 11.64 4.22 0.80 
-84.70 33.68 9.84 0.62 
-16.75 11.13 2.17 0.78 
-14.67 11.00 1.98 0.67 
-15.50 12.09 2.12 0.73 
-15.22 12.34 2.12 0.74 
-13.98 11.78 1.98 0.60 
-13.32 12.58 1.98 0.21 
-12.80 12.56 1.94 0.49 
-12.51 12.75 1.93 0.48 
-12.33 13.05 1.94 0.48 
-12.25 13.47 1.97 0.36 
-26.65 31.63 4.47 0.35 
-8.32 13.05 1.67 0.93 
-8.07 13.20 1.67 0.93 
-8.71 18.73 2.23 0.57 
-8.67 19.61 2.32 0.10 
1.08 19.06 2.06 0.33 
3.21 11.82 1.32 0.94 
4.52 13.56 1.54 0.26 
4.74 13.36 1.53 0.91 
5.04 13.41 1.55 0.61 
23.91 10.03 2.80 0.87 
37.05 3.52 4.02 0.17 
50.78 -9.73 5.58 0.57 
23.28 -21.99 3.46 0.84 
22.99 -22.56 3.48 0.60 
59.67 -65.60 9.58 0.64 
27.77 -38.53 5.13 0.82 
60.24 -90.62 11.75 0.55 
60.83 -108.49 13.43 0.36 
63.63 -130.33 15.66 0.48 
60.98 -131.13 15.62 0.48 
57.73 -130.55 15.42 0.36 
62.93 -149.93 17.56 0.51 
59.99 -150.84 17.53 0.48 
36.40 -102.70 11.77 0.21 
38.97 -124.74 14.11 0.29 
35.82 -122.77 13.81 0.58 
33.34 -122.89 13.75 0.56 
36.82 -146.63 16.33 0.37 
6.50 -48.76 5.31 0.72 
-35.58 -113.90 12.89 0.56 
-32.09 -96.29 10.96 0.34 
-35.00 -93.11 10.74 0.39 
-32.56 -81.88 9.52 0.42 
-31.53 -75.12 8.80 0.69 
-32.34 -73.14 8.64 0.45 
-34.25 -73.65 8.77 0.11 
-34.83 -71.34 8.57 0.38 
-38.23 -74.68 9.06 0.54 
-41.69 -77.78 9.53 0.59 
-73.18 -114.74 14.70 0.47 
-74.99 -104.04 13.85 0.58 
-54.56 -72.76 9.82 0.66 
-55.61 -71.30 9.77 0.44 
-57.50 -70.91 9.86 0.11 
-63.36 -75.19 10.62 0.43 
-63.65 -72.69 10.44 0.46 
-65.21 -71.69 10.47 0.42 
-72.60 -76.84 11.42 0.20 
-75.06 -76.49 11.57 0.41 
-76.72 -75.28 11.61 0.42 
-121.66 -110.66 17.76 0.34 
-124.83 -109.30 17.92 0.31 
-18.78 -9.17 2.26 0.66 
-147.43 -13.99 16.00 0.51 
-146.93 -11.14 15.91 0.29 
-147.46 -8.38 15.95 0.53 
-132.66 -0.00 14.17 0.35 
-128.87 2.44 13.77 0.32 
-141.84 8.06 15.17 0.55 
-114.70 8.70 12.28 0.44 
-124.07 14.15 13.34 0.58 
-37.08 4.94 3.99 0.84 
-165.50 28.46 17.93 0.41 
-145.03 30.64 15.83 0.16 
-141.36 32.67 15.49 0.43 
-48.21 12.11 5.31 0.77 
-105.64 30.82 11.75 0.63 
-37.27 11.64 4.17 0.80 
-84.70 33.68 9.73 0.62 
-16.75 11.13 2.15 0.78 
-14.67 11.00 1.96 0.67 
-15.49 12.08 2.10 0.73 
-15.21 12.33 2.09 0.74 
-13.98 11.78 1.95 0.60 
-13.31 12.57 1.96 0.21 
-12.78 12.54 1.91 0.49 
-12.48 12.72 1.90 0.53 
-12.31 13.03 1.91 0.48 
-12.22 13.44 1.94 0.37 
-26.65 31.63 4.42 0.35 
-8.32 13.05 1.65 0.93 
-8.07 13.20 1.65 0.93 
-8.72 18.75 2.21 0.19 
-8.77 19.84 2.32 0.31 
1.11 19.51 2.09 0.53 
3.21 11.82 1.31 0.94 
4.52 13.55 1.53 0.26 
4.74 13.36 1.51 0.91 
5.04 13.41 1.53 0.61 
23.91 10.03 2.77 0.87 
37.05 3.52 3.97 0.17 
50.78 -9.73 5.52 0.57 
23.27 -21.99 3.42 0.84 
22.99 -22.56 3.44 0.60 
59.66 -65.59 9.47 0.64 
27.77 -38.52 5.07 0.82 
60.25 -90.64 11.62 0.55 
60.83 -108.50 13.28 0.36 
63.60 -130.25 15.48 0.48 
60.96 -131.08 15.44 0.48 
57.86 -130.85 15.28 0.46 
62.95 -149.95 17.37 0.51 
60.02 -150.93 17.35 0.48 
36.40 -102.68 11.63 0.21 
38.95 -124.68 13.95 0.29 
35.82 -122.77 13.66 0.58 
33.33 -122.85 13.59 0.56 
36.80 -146.54 16.14 0.37 
6.50 -48.76 5.25 0.72 
-33.72 -115.58 12.86 0.24 
-35.61 -113.97 12.75 0.56 
-32.15 -96.46 10.86 0.36 
-33.65 -94.94 10.76 0.44 
-35.04 -93.21 10.63 0.39 
-32.64 -82.08 9.43 0.47 
-31.53 -75.12 8.70 0.69 
-32.32 -73.08 8.53 0.63 
-33.34 -71.69 8.44 0.39 
-34.39 -70.44 8.37 0.61 
-38.27 -74.76 8.97 0.54 
-40.91 -76.31 9.25 0.20 
-73.08 -105.54 13.71 0.42 
-75.07 -104.15 13.71 0.49 
-54.56 -72.76 9.71 0.66 
-55.90 -71.67 9.71 0.62 
-57.70 -71.17 9.78 0.60 
-62.82 -74.55 10.41 0.44 
-63.54 -72.57 10.30 0.61 
-65.60 -72.13 10.41 0.67 
-72.70 -76.95 11.31 0.58 
-74.65 -76.08 11.38 0.46 
-76.83 -75.39 11.50 0.42 
-89.48 -81.39 12.92 0.55 
-124.83 -109.30 17.72 0.31 
-18.78 -9.17 2.23 0.66 
-130.91 -38.19 14.56 0.56 
-159.22 -30.50 17.31 0.41 
-59.81 -6.82 6.43 0.59 
-148.13 -14.06 15.89 0.54 
-146.82 -11.14 15.72 0.24 
-147.46 -8.38 15.77 0.52 
-132.67 -0.00 14.01 0.35 
-128.66 2.44 13.59 0.33 
-140.65 7.99 14.88 0.30 
-114.69 8.70 12.14 0.44 
-124.07 14.15 13.18 0.58 
-37.08 4.94 3.95 0.84 
-123.36 18.82 13.18 0.38 
-165.56 28.48 17.74 0.41 
-143.87 30.39 15.53 0.21 
-143.53 33.17 15.55 0.54 
-48.20 12.10 5.25 0.77 
-105.64 30.82 11.62 0.63 
-37.27 11.64 4.12 0.80 
-84.70 33.69 9.62 0.62 
-16.75 11.13 2.12 0.78 
-14.67 11.00 1.94 0.67 
-15.48 12.07 2.07 0.74 
-15.20 12.32 2.07 0.75 
-13.98 11.78 1.93 0.60 
-13.30 12.56 1.93 0.21 
-12.76 12.52 1.89 0.49 
-12.47 12.70 1.88 0.53 
-12.29 13.01 1.89 0.53 
-12.19 13.40 1.91 0.37 
-26.65 31.63 4.37 0.35 
-8.32 13.05 1.63 0.93 
-8.07 13.20 1.63 0.93 
-8.73 18.78 2.19 0.19 
1.11 19.51 2.06 0.53 
3.21 11.82 1.29 0.94 
4.52 13.55 1.51 0.26 
4.74 13.36 1.50 0.91 
5.04 13.41 1.51 0.61 
23.91 10.04 2.74 0.87 
37.05 3.52 3.93 0.17 
50.78 -9.73 5.46 0.57 
23.27 -21.99 3.38 0.84 
22.99 -22.56 3.40 0.60 
59.66 -65.59 9.36 0.64 
27.76 -38.52 5.01 0.82 
60.26 -90.66 11.49 0.55 
60.83 -108.50 13.13 0.36 
60.75 -130.63 15.21 0.35 
57.90 -130.94 15.12 0.42 
63.40 -151.03 17.30 0.12 
36.39 -102.67 11.50 0.21 
38.93 -124.61 13.78 0.29 
35.82 -122.77 13.50 0.58 
33.33 -122.82 13.44 0.60 
36.79 -146.49 15.95 0.36 
6.50 -48.76 5.19 0.72 
-13.48 -49.67 5.43 0.31 
-33.23 -113.90 12.53 0.37 
-35.92 -114.98 12.72 0.46 
-38.04 -114.12 12.70 0.57 
-33.56 -94.67 10.61 0.63 
-35.05 -93.25 10.52 0.60 
-31.44 -74.91 8.58 0.23 
-32.34 -73.13 8.44 0.63 
-33.42 -71.88 8.37 0.25 
-34.42 -70.49 8.28 0.61 
-38.32 -74.86 8.88 0.38 
-40.73 -75.99 9.10 0.64 
-72.81 -105.16 13.51 0.36 
-75.15 -104.27 13.57 0.55 
-54.56 -72.75 9.60 0.57 
-55.94 -71.72 9.60 0.62 
-57.78 -71.25 9.69 0.47 
-62.96 -74.71 10.32 0.26 
-63.56 -72.59 10.19 0.61 
-65.70 -72.23 10.31 0.49 
-72.73 -76.98 11.18 0.58 
-75.06 -76.50 11.32 0.58 
-89.46 -81.37 12.77 0.55 
-124.83 -109.30 17.52 0.31 
-18.78 -9.17 2.21 0.66 
-130.95 -38.21 14.40 0.56 
-159.30 -30.51 17.13 0.51 
-59.88 -7.98 6.38 0.68 
-146.81 -11.13 15.55 0.24 
-147.53 -8.39 15.60 0.52 
-132.69 -0.00 13.85 0.35 
-141.30 8.03 14.77 0.56 
-114.68 8.70 12.00 0.44 
-124.06 14.15 13.03 0.58 
-37.08 4.94 3.90 0.84 
-123.52 18.85 13.04 0.43 
-165.62 28.49 17.54 0.41 
-143.70 30.35 15.33 0.21 
-143.53 33.17 15.38 0.54 
-48.20 12.10 5.19 0.77 
-105.65 30.82 11.49 0.63 
-37.27 11.64 4.08 0.80 
-84.71 33.69 9.52 0.62 
-16.75 11.13 2.10 0.78 
-14.67 11.00 1.91 0.67 
-15.47 12.06 2.05 0.74 
-15.19 12.31 2.04 0.75 
-13.98 11.78 1.91 0.60 
-13.15 12.43 1.89 0.51 
-12.74 12.50 1.86 0.73 
-12.45 12.68 1.85 0.53 
-12.27 12.99 1.86 0.53 
-12.16 13.37 1.89 0.37 
-26.65 31.63 4.32 0.35 
-8.32 13.05 1.62 0.93 
-8.07 13.20 1.62 0.93 
-8.87 19.07 2.19 0.47 
1.11 19.51 2.04 0.53 
3.21 11.81 1.28 0.94 
4.52 13.55 1.49 0.26 
4.74 13.36 1.48 0.91 
5.04 13.41 1.50 0.61 
11.12 19.84 2.37 0.68 
23.91 10.04 2.71 0.87 
37.05 3.52 3.88 0.17 
50.77 -9.73 5.40 0.57 
23.27 -21.99 3.34 0.84 
22.99 -22.56 3.36 0.60 
38.45 -39.18 5.73 0.54 
59.65 -65.58 9.25 0.64 
27.76 -38.52 4.96 0.82 
59.98 -90.23 11.31 0.43 
60.83 -108.50 12.98 0.36 
64.43 -131.96 15.33 0.24 
60.68 -130.49 15.02 0.35 
63.11 -150.34 17.02 0.34 
36.39 -102.66 11.37 0.21 
38.91 -124.55 13.62 0.29 
35.82 -122.76 13.35 0.58 
33.33 -122.83 13.28 0.60 
36.77 -146.41 15.76 0.36 
6.50 -48.76 5.13 0.72 
-32.93 -112.86 12.27 0.28 
-35.15 -112.50 12.30 0.60 
-31.92 -95.78 10.54 0.11 
-33.57 -94.69 10.49 0.61 
-35.58 -94.64 10.55 0.61 
-31.54 -75.13 8.51 0.23 
-32.37 -73.21 8.35 0.54 
-33.61 -72.27 8.32 0.25 
-34.47 -70.60 8.20 0.45 
-38.39 -75.00 8.79 0.38 
-40.73 -75.99 9.00 0.64 
-73.20 -119.70 14.65 0.06 
-73.71 -106.45 13.51 0.31 
-75.43 -104.65 13.46 0.54 
-54.58 -72.78 9.50 0.57 
-55.73 -71.46 9.46 0.69 
-57.60 -71.04 9.55 0.53 
-63.26 -75.07 10.25 0.25 
-63.60 -72.64 10.08 0.60 
-65.71 -72.24 10.19 0.49 
-71.88 -76.08 10.92 0.39 
-75.18 -76.62 11.20 0.28 
-89.46 -81.37 12.62 0.57 
-124.83 -109.30 17.32 0.31 
-18.78 -9.17 2.18 0.66 
-130.90 -40.89 14.31 0.40 
-130.99 -38.22 14.24 0.56 
-159.35 -30.52 16.94 0.51 
-38.11 -6.55 4.04 0.84 
-146.80 -11.13 15.37 0.24 
-132.70 -0.00 13.69 0.35 
-140.94 8.01 14.56 0.26 
-114.67 8.70 11.86 0.44 
-124.06 14.15 12.88 0.58 
-37.08 4.94 3.86 0.84 
-122.13 18.63 12.75 0.28 
-165.69 28.50 17.34 0.41 
-166.42 31.88 17.48 0.40 
-143.51 30.31 15.13 0.25 
-143.52 33.17 15.20 0.54 
-48.20 12.10 5.13 0.77 
-37.27 11.64 4.03 0.80 
-84.71 33.69 9.41 0.62 
-16.75 11.13 2.08 0.78 
-14.67 11.00 1.89 0.67 
-15.46 12.05 2.02 0.74 
-15.18 12.30 2.02 0.75 
-13.98 11.78 1.89 0.60 
-13.15 12.43 1.87 0.51 
-12.74 12.50 1.84 0.79 
-12.43 12.66 1.83 0.53 
-12.25 12.97 1.84 0.53 
-12.13 13.34 1.86 0.37 
-26.65 31.62 4.27 0.35 
-8.32 13.05 1.60 0.93 
-8.07 13.20 1.60 0.93 
-8.87 19.07 2.17 0.47 
1.11 19.51 2.02 0.53 
3.21 11.81 1.26 0.94 
4.51 13.55 1.47 0.26 
4.74 13.36 1.46 0.91 
5.04 13.41 1.48 0.61 
11.12 19.83 2.35 0.78 
23.91 10.04 2.67 0.87 
37.05 3.52 3.84 0.17 
50.77 -9.72 5.33 0.57 
23.27 -21.98 3.30 0.84 
22.99 -22.56 3.32 0.60 
59.65 -65.58 9.15 0.64 
27.76 -38.52 4.90 0.82 
60.01 -90.27 11.18 0.43 
60.83 -108.51 12.83 0.36 
63.36 -129.77 14.90 0.42 
60.63 -130.38 14.84 0.42 
65.66 -148.48 16.75 0.33 
36.38 -102.64 11.24 0.21 
39.12 -125.20 13.53 0.27 
35.82 -122.76 13.19 0.58 
33.32 -122.82 13.13 0.57 
36.75 -146.34 15.57 0.36 
6.50 -48.76 5.07 0.72 
-33.19 -113.76 12.23 0.23 
-35.15 -112.52 12.16 0.60 
-31.84 -95.54 10.39 0.58 
-33.61 -94.82 10.38 0.66 
-35.20 -93.63 10.32 0.60 
-31.59 -75.25 8.42 0.16 
-32.39 -73.24 8.26 0.34 
-33.66 -72.38 8.24 0.33 
-35.00 -71.69 8.23 0.57 
-36.54 -71.39 8.27 0.68 
-40.73 -75.99 8.89 0.64 
-71.94 -117.64 14.23 0.48 
-72.26 -104.35 13.10 0.49 
-75.45 -104.68 13.31 0.52 
-54.61 -72.82 9.39 0.46 
-55.76 -71.49 9.35 0.65 
-56.96 -70.25 9.33 0.63 
-64.95 -77.08 10.40 0.09 
-63.68 -72.73 9.97 0.55 
-65.73 -72.27 10.08 0.48 
-71.91 -76.11 10.80 0.39 
-89.48 -81.39 12.48 0.23 
-124.83 -109.30 17.12 0.31 
-18.78 -9.17 2.16 0.66 
-130.78 -40.86 14.14 0.40 
-131.02 -38.23 14.08 0.56 
-159.40 -30.53 16.74 0.51 
-38.11 -6.55 3.99 0.84 
-147.83 -14.03 15.32 0.33 
-148.18 -11.24 15.33 0.45 
-132.72 -0.00 13.53 0.35 
-140.98 8.01 14.40 0.35 
-141.09 10.70 14.43 0.42 
-124.06 14.15 12.73 0.58 
-37.08 4.94 3.81 0.84 
-120.77 18.43 12.46 0.30 
-168.52 28.98 17.43 0.21 
-55.18 10.57 5.73 0.78 
-143.35 30.28 14.94 0.21 
-143.51 33.16 15.02 0.54 
-48.20 12.10 5.07 0.77 
-37.27 11.64 3.98 0.80 
-84.71 33.69 9.30 0.62 
-16.75 11.13 2.05 0.78 
-14.67 11.00 1.87 0.67 
-15.17 12.30 1.99 0.91 
-13.99 11.79 1.86 0.60 
-13.15 12.43 1.84 0.51 
-12.74 12.50 1.82 0.79 
-12.41 12.64 1.81 0.54 
-12.23 12.95 1.82 0.53 
-12.11 13.31 1.83 0.37 
-26.65 31.63 4.22 0.35 
-8.32 13.05 1.58 0.93 
-8.07 13.20 1.58 0.93 
-8.87 19.07 2.14 0.47 
1.11 19.50 1.99 0.53 
3.21 11.81 1.25 0.94 
4.51 13.54 1.46 0.26 
4.74 13.36 1.45 0.91 
5.04 13.41 1.46 0.61 
11.13 19.85 2.32 0.78 
23.91 10.04 2.64 0.87 
37.05 3.52 3.79 0.17 
50.77 -9.72 5.27 0.57 
23.27 -21.98 3.26 0.84 
22.99 -22.56 3.28 0.60 
59.64 -65.57 9.04 0.64 
27.76 -38.51 4.84 0.82 
60.04 -90.31 11.06 0.43 
60.84 -108.51 12.68 0.36 
63.30 -129.65 14.71 0.42 
60.37 -129.82 14.60 0.33 
65.57 -148.29 16.53 0.38 
62.08 -147.90 16.35 0.07 
36.38 -102.63 11.10 0.21 
39.08 -125.10 13.36 0.27 
35.82 -122.76 13.04 0.58 
33.32 -122.79 12.97 0.57 
36.59 -145.73 15.32 0.32 
6.50 -48.76 5.02 0.72 
-33.08 -113.40 12.04 0.60 
-35.17 -112.58 12.03 0.58 
-31.85 -95.55 10.27 0.58 
-33.63 -94.87 10.26 0.60 
-35.12 -93.43 10.18 0.42 
-31.79 -79.94 8.77 0.19 
-32.01 -76.26 8.43 0.42 
-32.47 -73.42 8.19 0.69 
-34.18 -73.50 8.26 0.65 
-35.09 -71.86 8.15 0.58 
-36.56 -71.42 8.18 0.68 
-40.74 -75.99 8.79 0.64 
-73.18 -114.74 13.88 0.47 
-72.32 -104.45 12.95 0.34 
-75.26 -104.42 13.12 0.45 
-54.66 -72.89 9.29 0.50 
-56.15 -71.99 9.31 0.47 
-56.99 -70.29 9.23 0.63 
-63.58 -75.45 10.06 0.16 
-63.85 -72.93 9.88 0.46 
-65.89 -72.43 9.98 0.52 
-67.71 -71.67 10.05 0.58 
-72.79 -74.18 10.60 0.30 
-89.61 -81.50 12.35 0.25 
-124.83 -109.30 16.92 0.31 
-100.68 -72.57 12.65 0.57 
-18.78 -9.17 2.13 0.66 
-130.67 -40.82 13.96 0.48 
-131.06 -38.24 13.92 0.56 
-159.45 -30.54 16.55 0.51 
-38.11 -6.55 3.94 0.84 
-147.63 -14.01 15.12 0.36 
-148.34 -11.25 15.17 0.51 
-140.90 8.01 14.22 0.56 
-140.96 10.69 14.24 0.42 
-121.12 13.81 12.28 0.22 
-37.08 4.94 3.77 0.84 
-185.26 28.26 18.88 0.23 
-166.35 28.61 17.01 0.48 
-55.18 10.57 5.66 0.78 
-143.18 30.24 14.74 0.21 
-143.50 33.16 14.84 0.54 
-48.20 12.10 5.01 0.77 
-37.27 11.64 3.93 0.80 
-84.71 33.69 9.19 0.62 
-16.75 11.13 2.03 0.78 
-14.67 11.00 1.85 0.67 
-15.17 12.30 1.97 0.91 
-13.99 11.79 1.84 0.60 
-13.15 12.43 1.82 0.51 
-12.74 12.50 1.80 0.79 
-12.39 12.63 1.78 0.83 
-12.21 12.93 1.79 0.53 
-12.09 13.29 1.81 0.47 
-26.65 31.63 4.17 0.35 
-8.32 13.04 1.56 0.93 
-8.07 13.20 1.56 0.93 
1.11 19.50 1.97 0.53 
3.21 11.81 1.23 0.94 
4.51 13.54 1.44 0.26 
4.74 13.36 1.43 0.91 
5.04 13.40 1.44 0.61 
11.13 19.85 2.29 0.78 
23.91 10.04 2.61 0.87 
37.05 3.52 3.75 0.17 
50.76 -9.72 5.21 0.57 
50.33 -12.64 5.23 0.62 
23.27 -21.98 3.22 0.84 
22.99 -22.56 3.25 0.60 
59.64 -65.57 8.93 0.64 
27.76 -38.51 4.78 0.82 
60.06 -90.35 10.93 0.43 
60.84 -108.51 12.53 0.36 
62.02 -127.02 14.24 0.31 
60.33 -129.74 14.42 0.32 
65.76 -148.70 16.38 0.51 
61.90 -147.47 16.11 0.31 
36.37 -102.62 10.97 0.21 
35.82 -122.76 12.88 0.58 
33.31 -122.76 12.82 0.57 
36.59 -145.71 15.14 0.32 
6.50 -48.76 4.96 0.72 
-33.10 -113.44 11.91 0.60 
-35.20 -112.68 11.89 0.61 
-31.82 -95.46 10.14 0.46 
-33.64 -94.89 10.14 0.52 
-35.22 -93.69 10.08 0.56 
-32.32 -77.00 8.41 0.69 
-32.48 -73.45 8.09 0.69 
-34.26 -73.67 8.19 0.20 
-35.08 -71.85 8.06 0.68 
-36.58 -71.46 8.09 0.68 
-40.75 -76.02 8.69 0.64 
-71.71 -117.27 13.85 0.06 
-73.28 -105.83 12.97 0.51 
-54.22 -75.22 9.34 0.37 
-54.76 -73.02 9.20 0.21 
-55.59 -71.27 9.11 0.44 
-57.02 -70.32 9.12 0.59 
-64.35 -76.36 10.06 0.59 
-63.92 -73.00 9.78 0.18 
-65.42 -71.92 9.80 0.63 
-67.71 -71.66 9.93 0.01 
-72.60 -73.99 10.44 0.33 
-46.37 -42.18 6.32 0.59 
-124.83 -109.30 16.72 0.31 
-100.15 -72.19 12.44 0.41 
-18.78 -9.17 2.11 0.66 
-127.39 -42.46 13.53 0.24 
-130.60 -40.80 13.79 0.48 
-131.10 -38.25 13.76 0.56 
-159.50 -30.55 16.36 0.51 
-38.11 -6.55 3.90 0.84 
-146.58 -13.91 14.84 0.44 
-144.91 -10.99 14.64 0.40 
-140.91 8.01 14.05 0.56 
-141.58 10.74 14.13 0.50 
-124.05 14.15 12.43 0.58 
-37.08 4.94 3.72 0.84 
-185.31 28.27 18.66 0.23 
-167.80 28.86 16.95 0.16 
-55.19 10.57 5.59 0.78 
-143.00 30.21 14.55 0.21 
-143.54 33.17 14.67 0.52 
-48.20 12.10 4.95 0.77 
-84.72 33.69 9.08 0.62 
-16.75 11.13 2.00 0.78 
-14.67 11.00 1.83 0.67 
-15.17 12.30 1.94 0.91 
-13.99 11.79 1.82 0.60 
-14.97 13.11 1.98 0.28 
-13.15 12.43 1.80 0.51 
-12.74 12.51 1.78 0.79 
-12.39 12.63 1.76 0.90 
-12.21 12.92 1.77 0.90 
-12.09 13.30 1.79 0.47 
-26.65 31.63 4.12 0.35 
-8.32 13.04 1.54 0.93 
-8.07 13.20 1.54 0.93 
1.11 19.50 1.94 0.53 
3.21 11.81 1.22 0.94 
4.51 13.54 1.42 0.26 
4.73 13.36 1.41 0.91 
5.04 13.40 1.43 0.61 
10.92 19.47 2.22 0.21 
11.27 19.24 2.22 0.34 
