VERSION 0.7
FIELDS x y z intensity
SIZE 4 4 4 8
TYPE F F F F
COUNT 1 1 1 1
WIDTH 2020
HEIGHT 1
VIEWPOINT 0.0 0.0 0.0 1.0 0.0 0.0 0.0
POINTS 2020
DATA ascii
5.71 3.96 -0.73 0.81 
5.56 3.70 -0.71 0.58 
5.54 3.54 -0.69 0.58 
5.54 3.39 -0.69 0.64 
5.55 3.25 -0.68 0.70 
5.57 3.12 -0.67 0.73 
5.60 3.00 -0.67 0.79 
5.64 2.89 -0.67 0.71 
5.78 2.82 -0.68 0.48 
5.74 2.67 -0.67 0.86 
6.33 2.80 -0.73 0.39 
6.71 2.82 -0.77 0.28 
14.80 5.88 -1.68 0.10 
14.91 5.60 -1.68 0.10 
15.01 5.32 -1.68 0.10 
15.11 5.04 -1.68 0.10 
15.20 4.75 -1.68 0.10 
15.29 4.46 -1.68 0.10 
15.37 4.17 -1.68 0.10 
15.45 3.88 -1.68 0.10 
15.52 3.59 -1.68 0.10 
15.59 3.29 -1.68 0.10 
15.65 3.00 -1.68 0.10 
15.70 2.70 -1.68 0.10 
15.75 2.40 -1.68 0.10 
15.79 2.10 -1.68 0.10 
15.83 1.81 -1.68 0.10 
15.86 1.51 -1.68 0.10 
15.89 1.20 -1.68 0.10 
15.91 0.90 -1.68 0.10 
15.92 0.60 -1.68 0.10 
15.93 0.30 -1.68 0.10 
15.93 -0.00 -1.68 0.10 
15.93 -0.30 -1.68 0.10 
15.92 -0.60 -1.68 0.10 
15.91 -0.90 -1.68 0.10 
15.89 -1.21 -1.68 0.10 
15.86 -1.51 -1.68 0.10 
15.83 -1.81 -1.68 0.10 
15.80 -2.11 -1.68 0.10 
15.76 -2.40 -1.68 0.10 
15.71 -2.70 -1.68 0.10 
15.65 -3.00 -1.68 0.10 
15.59 -3.29 -1.68 0.10 
15.53 -3.59 -1.68 0.10 
15.46 -3.88 -1.68 0.10 
15.38 -4.17 -1.68 0.10 
15.30 -4.46 -1.68 0.10 
15.22 -4.75 -1.68 0.10 
15.12 -5.04 -1.68 0.10 
15.02 -5.33 -1.68 0.10 
14.92 -5.61 -1.68 0.10 
14.81 -5.89 -1.68 0.10 
14.70 -6.17 -1.68 0.10 
14.58 -6.45 -1.68 0.10 
14.46 -6.72 -1.68 0.10 
14.33 -6.99 -1.68 0.10 
14.19 -7.26 -1.68 0.10 
14.05 -7.53 -1.68 0.10 
13.91 -7.80 -1.68 0.10 
13.76 -8.06 -1.68 0.10 
13.60 -8.32 -1.68 0.10 
13.41 -8.56 -1.68 0.10 
13.15 -8.74 -1.67 0.33 
12.41 -8.59 -1.59 0.39 
11.77 -8.48 -1.53 0.35 
11.60 -8.70 -1.53 0.10 
11.43 -8.92 -1.53 0.10 
11.26 -9.13 -1.53 0.10 
11.09 -9.34 -1.53 0.10 
10.91 -9.55 -1.53 0.10 
10.73 -9.76 -1.53 0.10 
10.54 -9.96 -1.53 0.10 
10.35 -10.16 -1.53 0.10 
10.16 -10.35 -1.53 0.10 
9.96 -10.54 -1.53 0.10 
9.76 -10.73 -1.53 0.10 
9.55 -10.91 -1.53 0.10 
9.34 -11.09 -1.53 0.10 
9.13 -11.26 -1.53 0.10 
7.25 -9.30 -1.25 0.75 
6.79 -9.05 -1.19 0.22 
8.48 -11.76 -1.53 0.10 
8.25 -11.92 -1.53 0.10 
8.03 -12.08 -1.53 0.10 
7.80 -12.23 -1.53 0.10 
7.56 -12.37 -1.53 0.10 
7.33 -12.51 -1.53 0.10 
7.09 -12.65 -1.53 0.10 
6.85 -12.78 -1.53 0.10 
6.61 -12.91 -1.53 0.10 
6.36 -13.03 -1.53 0.10 
6.11 -13.15 -1.53 0.10 
5.86 -13.26 -1.53 0.10 
5.61 -13.37 -1.53 0.10 
5.36 -13.47 -1.53 0.10 
5.10 -13.57 -1.53 0.10 
4.84 -13.67 -1.53 0.10 
4.59 -13.76 -1.53 0.10 
4.32 -13.84 -1.53 0.10 
4.06 -13.92 -1.53 0.10 
3.80 -13.99 -1.53 0.10 
3.53 -14.06 -1.53 0.10 
3.26 -14.13 -1.53 0.10 
3.00 -14.19 -1.53 0.10 
2.73 -14.24 -1.53 0.10 
2.46 -14.29 -1.53 0.10 
2.19 -14.33 -1.53 0.10 
1.91 -14.37 -1.53 0.10 
1.64 -14.40 -1.53 0.10 
1.37 -14.43 -1.53 0.10 
0.92 -12.14 -1.29 0.84 
0.82 -14.47 -1.53 0.10 
0.55 -14.49 -1.53 0.10 
0.27 -14.49 -1.53 0.10 
-0.00 -14.50 -1.53 0.10 
-0.27 -14.49 -1.53 0.10 
-0.55 -14.49 -1.53 0.10 
-0.82 -14.47 -1.53 0.10 
-1.10 -14.45 -1.53 0.10 
-1.37 -14.43 -1.53 0.10 
-1.64 -14.40 -1.53 0.10 
-1.91 -14.37 -1.53 0.10 
-2.19 -14.33 -1.53 0.10 
-2.46 -14.28 -1.53 0.10 
-2.73 -14.23 -1.53 0.10 
-3.00 -14.18 -1.53 0.10 
-3.26 -14.12 -1.53 0.10 
-3.53 -14.06 -1.53 0.10 
-3.79 -13.99 -1.53 0.10 
-4.06 -13.91 -1.53 0.10 
-4.32 -13.83 -1.53 0.10 
-4.58 -13.75 -1.53 0.10 
-4.84 -13.66 -1.53 0.10 
-5.10 -13.56 -1.53 0.10 
-5.35 -13.46 -1.53 0.10 
-5.61 -13.36 -1.53 0.10 
-5.86 -13.25 -1.53 0.10 
-6.11 -13.14 -1.53 0.10 
-6.36 -13.02 -1.53 0.10 
-6.60 -12.90 -1.53 0.10 
-6.84 -12.77 -1.53 0.10 
-2.09 -3.73 -0.45 0.25 
-2.09 -3.57 -0.44 0.41 
-2.11 -3.45 -0.43 0.35 
-2.12 -3.33 -0.42 0.51 
-2.15 -3.24 -0.41 0.51 
-2.19 -3.16 -0.41 0.72 
-2.24 -3.10 -0.40 0.72 
-2.31 -3.08 -0.41 0.70 
-2.40 -3.08 -0.41 0.69 
-2.50 -3.08 -0.42 0.72 
-2.60 -3.08 -0.43 0.71 
-2.70 -3.08 -0.43 0.68 
-2.81 -3.09 -0.44 0.67 
-2.92 -3.09 -0.45 0.63 
-3.08 -3.14 -0.46 0.32 
-10.34 -10.14 -1.53 0.10 
-10.52 -9.94 -1.53 0.10 
-10.71 -9.74 -1.53 0.10 
-10.89 -9.54 -1.53 0.10 
-11.07 -9.33 -1.53 0.10 
-11.25 -9.12 -1.53 0.10 
-11.42 -8.90 -1.53 0.10 
-11.58 -8.69 -1.53 0.10 
-11.74 -8.46 -1.53 0.10 
-11.90 -8.24 -1.53 0.10 
-12.05 -8.01 -1.53 0.10 
-12.27 -7.82 -1.54 0.51 
-12.78 -7.82 -1.58 0.50 
-13.33 -7.81 -1.63 0.48 
-13.83 -7.75 -1.67 0.11 
-14.01 -7.51 -1.68 0.11 
-14.17 -7.25 -1.68 0.10 
-14.30 -6.98 -1.68 0.10 
-14.43 -6.71 -1.68 0.10 
-14.55 -6.44 -1.68 0.10 
-14.67 -6.16 -1.68 0.10 
-14.79 -5.88 -1.68 0.10 
-14.89 -5.60 -1.68 0.10 
-15.00 -5.32 -1.68 0.10 
-15.09 -5.03 -1.68 0.10 
-15.19 -4.74 -1.68 0.10 
-15.27 -4.46 -1.68 0.10 
-15.35 -4.17 -1.68 0.10 
-14.02 -3.52 -1.53 0.23 
-15.46 -3.57 -1.68 0.43 
-15.56 -3.29 -1.68 0.10 
-15.62 -2.99 -1.68 0.10 
-15.68 -2.70 -1.68 0.10 
-15.72 -2.40 -1.68 0.10 
-15.77 -2.10 -1.68 0.10 
-9.73 -1.11 -1.03 0.09 
-9.56 -0.91 -1.01 0.90 
-9.52 -0.72 -1.01 0.91 
-9.47 -0.54 -1.00 0.95 
-9.45 -0.36 -1.00 0.95 
-9.44 -0.18 -1.00 0.95 
-9.44 -0.00 -1.01 0.95 
-9.46 0.18 -1.01 0.95 
-9.48 0.36 -1.01 0.95 
-9.52 0.54 -1.02 0.92 
-9.57 0.73 -1.02 0.91 
-9.87 0.94 -1.06 0.10 
-15.62 1.78 -1.68 0.10 
-15.58 2.08 -1.68 0.10 
-15.54 2.37 -1.68 0.10 
-15.49 2.66 -1.68 0.10 
-15.44 2.96 -1.68 0.10 
-15.38 3.25 -1.68 0.10 
-15.31 3.54 -1.68 0.10 
-15.24 3.83 -1.68 0.10 
-8.98 2.44 -0.99 0.07 
-8.34 2.43 -0.93 0.33 
-7.82 2.44 -0.87 0.29 
-7.36 2.45 -0.83 0.32 
-6.97 2.47 -0.79 0.33 
-6.62 2.49 -0.76 0.33 
-6.30 2.50 -0.72 0.35 
-5.99 2.52 -0.69 0.36 
-5.71 2.53 -0.67 0.34 
-5.53 2.57 -0.65 0.65 
-5.39 2.63 -0.64 0.67 
-5.25 2.69 -0.63 0.67 
-5.20 2.79 -0.63 0.78 
-5.19 2.91 -0.63 0.78 
-5.17 3.03 -0.64 0.77 
-5.16 3.15 -0.65 0.76 
-5.14 3.28 -0.65 0.76 
-5.13 3.41 -0.66 0.73 
-5.13 3.55 -0.67 0.67 
-5.13 3.70 -0.68 0.66 
-5.14 3.85 -0.69 0.74 
-5.15 4.02 -0.70 0.72 
-5.16 4.18 -0.71 0.74 
-12.01 10.12 -1.68 0.10 
-11.82 10.35 -1.68 0.10 
-11.62 10.57 -1.68 0.10 
-11.41 10.78 -1.68 0.11 
-11.18 10.97 -1.67 0.11 
-10.89 11.10 -1.66 0.67 
-10.49 11.11 -1.63 0.69 
-10.11 11.11 -1.60 0.70 
-5.54 6.32 -0.90 0.09 
-5.08 6.03 -0.84 0.55 
-4.87 6.01 -0.83 0.72 
-4.69 6.01 -0.81 0.73 
-4.52 6.03 -0.80 0.84 
-4.35 6.04 -0.79 0.77 
-4.18 6.04 -0.78 0.84 
-4.02 6.04 -0.77 0.81 
-3.85 6.04 -0.76 0.81 
-3.69 6.04 -0.76 0.82 
-3.54 6.04 -0.75 0.83 
-3.38 6.04 -0.74 0.84 
-3.24 6.04 -0.73 0.86 
-3.09 6.04 -0.72 0.86 
-2.95 6.04 -0.72 0.87 
-2.81 6.04 -0.71 0.89 
-2.67 6.04 -0.71 0.90 
-2.54 6.04 -0.70 0.90 
-2.40 6.04 -0.69 0.91 
-2.27 6.05 -0.69 0.92 
-2.15 6.05 -0.69 0.92 
-2.02 6.06 -0.68 0.93 
-1.89 6.06 -0.68 0.92 
-1.77 6.08 -0.68 0.93 
-1.65 6.10 -0.67 0.95 
-1.54 6.13 -0.67 0.97 
-1.42 6.15 -0.67 0.97 
-1.31 6.20 -0.68 0.91 
-1.20 6.27 -0.68 0.91 
-1.09 6.34 -0.69 0.88 
-1.00 6.57 -0.71 0.46 
-0.97 7.28 -0.78 0.04 
-1.62 14.20 -1.53 0.10 
-1.35 14.23 -1.53 0.10 
-1.02 13.50 -1.45 0.86 
-0.81 14.27 -1.53 0.10 
-0.49 12.97 -1.39 0.41 
-0.27 14.29 -1.53 0.10 
0.00 14.29 -1.53 0.10 
0.27 14.29 -1.53 0.10 
0.54 14.28 -1.53 0.10 
0.81 14.27 -1.53 0.10 
1.08 14.25 -1.53 0.10 
1.35 14.23 -1.53 0.10 
1.62 14.20 -1.53 0.10 
1.89 14.17 -1.53 0.10 
2.16 14.13 -1.53 0.10 
2.42 14.09 -1.53 0.10 
2.69 14.04 -1.53 0.10 
2.95 13.99 -1.53 0.10 
3.22 13.93 -1.53 0.10 
3.48 13.86 -1.53 0.10 
3.74 13.80 -1.53 0.10 
4.00 13.72 -1.53 0.10 
4.26 13.65 -1.53 0.10 
4.52 13.56 -1.53 0.10 
4.21 11.88 -1.35 0.33 
4.36 11.61 -1.32 0.89 
5.28 13.29 -1.53 0.10 
5.53 13.18 -1.53 0.10 
5.78 13.08 -1.53 0.10 
6.03 12.97 -1.53 0.10 
6.27 12.85 -1.53 0.10 
6.52 12.73 -1.53 0.10 
6.76 12.60 -1.53 0.10 
6.99 12.47 -1.53 0.10 
7.23 12.34 -1.53 0.10 
7.46 12.20 -1.53 0.10 
7.69 12.06 -1.53 0.10 
7.92 11.91 -1.53 0.10 
8.14 11.76 -1.53 0.10 
8.36 11.60 -1.53 0.10 
8.58 11.44 -1.53 0.10 
8.80 11.28 -1.53 0.10 
9.01 11.11 -1.53 0.10 
6.22 7.38 -1.03 0.38 
6.17 7.04 -1.00 0.54 
6.17 6.78 -0.98 0.63 
6.20 6.56 -0.96 0.70 
6.25 6.37 -0.95 0.81 
6.29 6.17 -0.94 0.78 
6.34 5.99 -0.93 0.92 
6.45 5.87 -0.93 0.80 
6.64 5.81 -0.94 0.63 
6.90 5.81 -0.96 0.62 
7.20 5.84 -0.99 0.60 
7.49 5.84 -1.01 0.57 
7.80 5.85 -1.04 0.57 
8.12 5.85 -1.07 0.54 
5.71 3.95 -0.74 0.82 
5.55 3.69 -0.71 0.58 
5.54 3.53 -0.70 0.58 
5.53 3.38 -0.69 0.64 
5.55 3.25 -0.69 0.70 
5.56 3.12 -0.68 0.74 
5.59 3.00 -0.68 0.79 
5.64 2.88 -0.68 0.71 
5.77 2.82 -0.69 0.48 
5.73 2.67 -0.68 0.86 
6.33 2.80 -0.74 0.39 
6.70 2.81 -0.78 0.28 
14.63 5.82 -1.68 0.10 
14.74 5.54 -1.68 0.10 
14.84 5.26 -1.68 0.10 
14.94 4.98 -1.68 0.10 
15.03 4.70 -1.68 0.10 
15.12 4.41 -1.68 0.10 
15.20 4.12 -1.68 0.10 
15.27 3.84 -1.68 0.10 
15.34 3.55 -1.68 0.10 
15.41 3.25 -1.68 0.10 
15.47 2.96 -1.68 0.10 
15.52 2.67 -1.68 0.10 
15.57 2.38 -1.68 0.10 
15.61 2.08 -1.68 0.10 
15.65 1.78 -1.68 0.10 
15.68 1.49 -1.68 0.10 
15.71 1.19 -1.68 0.10 
15.73 0.89 -1.68 0.10 
15.74 0.60 -1.68 0.10 
15.75 0.30 -1.68 0.10 
15.75 0.00 -1.68 0.10 
15.75 -0.30 -1.68 0.10 
15.74 -0.60 -1.68 0.10 
15.73 -0.89 -1.68 0.10 
15.71 -1.19 -1.68 0.10 
15.69 -1.49 -1.68 0.10 
15.65 -1.79 -1.68 0.10 
15.62 -2.08 -1.68 0.10 
15.58 -2.38 -1.68 0.10 
15.53 -2.67 -1.68 0.10 
15.48 -2.96 -1.68 0.10 
15.42 -3.26 -1.68 0.10 
15.35 -3.55 -1.68 0.10 
15.28 -3.84 -1.68 0.10 
15.21 -4.13 -1.68 0.10 
15.13 -4.41 -1.68 0.10 
15.04 -4.70 -1.68 0.10 
14.95 -4.98 -1.68 0.10 
14.85 -5.27 -1.68 0.10 
14.75 -5.55 -1.68 0.10 
14.65 -5.82 -1.68 0.10 
14.53 -6.10 -1.68 0.10 
14.41 -6.37 -1.68 0.10 
14.29 -6.65 -1.68 0.10 
14.16 -6.92 -1.68 0.10 
14.03 -7.18 -1.68 0.10 
13.89 -7.45 -1.68 0.10 
13.75 -7.71 -1.68 0.10 
13.60 -7.97 -1.68 0.10 
13.45 -8.22 -1.68 0.10 
13.27 -8.46 -1.68 0.10 
13.07 -8.69 -1.68 0.10 
12.40 -8.59 -1.61 0.39 
11.76 -8.47 -1.55 0.40 
11.47 -8.60 -1.53 0.10 
11.30 -8.82 -1.53 0.10 
11.13 -9.03 -1.53 0.10 
10.96 -9.24 -1.53 0.10 
10.79 -9.44 -1.53 0.10 
10.60 -9.65 -1.53 0.10 
10.42 -9.85 -1.53 0.10 
10.23 -10.04 -1.53 0.10 
10.04 -10.23 -1.53 0.10 
9.85 -10.42 -1.53 0.10 
9.65 -10.61 -1.53 0.10 
9.44 -10.79 -1.53 0.10 
9.24 -10.96 -1.53 0.10 
9.03 -11.14 -1.53 0.10 
7.26 -9.31 -1.26 0.74 
6.78 -9.04 -1.21 0.20 
8.38 -11.63 -1.53 0.10 
8.16 -11.79 -1.53 0.10 
7.94 -11.94 -1.53 0.10 
7.71 -12.09 -1.53 0.10 
7.48 -12.23 -1.53 0.10 
7.25 -12.37 -1.53 0.10 
7.01 -12.51 -1.53 0.10 
6.77 -12.64 -1.53 0.10 
6.53 -12.76 -1.53 0.10 
6.29 -12.88 -1.53 0.10 
6.05 -13.00 -1.53 0.10 
5.80 -13.11 -1.53 0.10 
5.55 -13.22 -1.53 0.10 
5.30 -13.32 -1.53 0.10 
5.04 -13.42 -1.53 0.10 
4.79 -13.51 -1.53 0.10 
4.53 -13.60 -1.53 0.10 
4.27 -13.68 -1.53 0.10 
4.01 -13.76 -1.53 0.10 
3.75 -13.83 -1.53 0.10 
3.49 -13.90 -1.53 0.10 
3.23 -13.97 -1.53 0.10 
2.96 -14.02 -1.53 0.10 
2.70 -14.08 -1.53 0.10 
2.43 -14.13 -1.53 0.10 
2.16 -14.17 -1.53 0.10 
1.89 -14.21 -1.53 0.10 
1.62 -14.24 -1.53 0.10 
1.35 -14.27 -1.53 0.10 
0.92 -12.14 -1.30 0.88 
0.81 -14.31 -1.53 0.10 
0.54 -14.32 -1.53 0.10 
0.27 -14.33 -1.53 0.10 
-0.00 -14.33 -1.53 0.10 
-0.27 -14.33 -1.53 0.10 
-0.54 -14.32 -1.53 0.10 
-0.81 -14.31 -1.53 0.10 
-1.08 -14.29 -1.53 0.10 
-1.35 -14.27 -1.53 0.10 
-1.62 -14.24 -1.53 0.10 
-1.89 -14.20 -1.53 0.10 
-2.16 -14.17 -1.53 0.10 
-2.43 -14.12 -1.53 0.10 
-2.70 -14.07 -1.53 0.10 
-2.96 -14.02 -1.53 0.10 
-3.23 -13.96 -1.53 0.10 
-3.49 -13.90 -1.53 0.10 
-3.75 -13.83 -1.53 0.10 
-4.01 -13.75 -1.53 0.10 
-4.27 -13.68 -1.53 0.10 
-4.53 -13.59 -1.53 0.10 
-4.79 -13.50 -1.53 0.10 
-5.04 -13.41 -1.53 0.10 
-5.29 -13.31 -1.53 0.10 
-5.54 -13.21 -1.53 0.10 
-5.79 -13.10 -1.53 0.10 
-6.04 -12.99 -1.53 0.10 
-6.28 -12.87 -1.53 0.10 
-6.53 -12.75 -1.53 0.10 
-6.77 -12.62 -1.53 0.10 
-2.08 -3.72 -0.45 0.26 
-2.09 -3.57 -0.44 0.41 
-2.10 -3.44 -0.43 0.35 
-2.12 -3.32 -0.42 0.51 
-2.15 -3.23 -0.41 0.51 
-2.18 -3.15 -0.41 0.72 
-2.23 -3.10 -0.41 0.72 
-2.31 -3.08 -0.41 0.70 
-2.40 -3.08 -0.42 0.69 
-2.50 -3.08 -0.42 0.77 
-2.60 -3.08 -0.43 0.71 
-2.70 -3.08 -0.44 0.68 
-2.81 -3.09 -0.45 0.67 
-2.92 -3.09 -0.45 0.63 
-3.08 -3.13 -0.47 0.33 
-10.22 -10.03 -1.53 0.10 
-10.41 -9.83 -1.53 0.10 
-10.59 -9.63 -1.53 0.10 
-10.77 -9.43 -1.53 0.10 
-10.95 -9.22 -1.53 0.10 
-11.12 -9.01 -1.53 0.10 
-11.29 -8.80 -1.53 0.10 
-11.45 -8.59 -1.53 0.10 
-11.61 -8.37 -1.53 0.10 
-11.77 -8.15 -1.53 0.10 
-11.92 -7.92 -1.53 0.10 
-12.26 -7.82 -1.55 0.51 
-12.78 -7.81 -1.60 0.50 
-13.32 -7.80 -1.65 0.48 
-13.68 -7.67 -1.68 0.11 
-13.86 -7.43 -1.68 0.11 
-14.01 -7.17 -1.68 0.10 
-14.14 -6.90 -1.68 0.10 
-14.27 -6.63 -1.68 0.10 
-14.39 -6.36 -1.68 0.10 
-14.51 -6.09 -1.68 0.10 
-14.62 -5.81 -1.68 0.10 
-14.73 -5.54 -1.68 0.10 
-14.83 -5.26 -1.68 0.10 
-14.92 -4.97 -1.68 0.10 
-15.02 -4.69 -1.68 0.10 
-15.10 -4.41 -1.68 0.10 
-15.18 -4.12 -1.68 0.10 
-14.02 -3.52 -1.54 0.23 
-15.32 -3.54 -1.68 0.10 
-15.39 -3.25 -1.68 0.10 
-15.45 -2.96 -1.68 0.10 
-15.50 -2.67 -1.68 0.10 
-15.55 -2.37 -1.68 0.10 
-15.59 -2.08 -1.68 0.10 
-9.75 -1.11 -1.05 0.09 
-9.56 -0.91 -1.03 0.90 
-9.52 -0.72 -1.02 0.91 
-9.47 -0.54 -1.01 0.95 
-9.45 -0.36 -1.01 0.95 
-9.44 -0.18 -1.01 0.95 
-9.44 -0.00 -1.02 0.95 
-9.46 0.18 -1.02 0.95 
-9.48 0.36 -1.02 0.95 
-9.52 0.54 -1.03 0.92 
-9.57 0.73 -1.04 0.91 
-9.89 0.94 -1.07 0.04 
-15.44 1.76 -1.68 0.10 
-15.41 2.05 -1.68 0.10 
-15.37 2.34 -1.68 0.10 
-15.32 2.63 -1.68 0.10 
-15.27 2.92 -1.68 0.10 
-15.21 3.21 -1.68 0.10 
-15.14 3.50 -1.68 0.10 
-15.07 3.79 -1.68 0.10 
-8.97 2.43 -1.00 0.07 
-8.34 2.43 -0.94 0.33 
-7.82 2.44 -0.88 0.29 
-7.34 2.45 -0.84 0.32 
-6.96 2.47 -0.80 0.33 
-6.61 2.49 -0.76 0.33 
-6.28 2.50 -0.73 0.35 
-5.98 2.51 -0.70 0.36 
-5.70 2.52 -0.67 0.34 
-5.52 2.57 -0.66 0.66 
-5.38 2.63 -0.65 0.67 
-5.25 2.69 -0.64 0.68 
-5.19 2.78 -0.64 0.78 
-5.18 2.90 -0.64 0.78 
-5.17 3.03 -0.65 0.77 
-5.15 3.15 -0.65 0.76 
-5.14 3.28 -0.66 0.76 
-5.12 3.41 -0.66 0.75 
-5.12 3.55 -0.67 0.76 
-5.13 3.70 -0.68 0.75 
-5.14 3.85 -0.69 0.74 
-5.15 4.02 -0.71 0.72 
-5.15 4.18 -0.72 0.74 
-11.88 10.01 -1.68 0.10 
-11.69 10.23 -1.68 0.10 
-11.49 10.45 -1.68 0.10 
-11.29 10.67 -1.68 0.11 
-11.07 10.86 -1.67 0.11 
-10.84 11.04 -1.67 0.11 
-10.49 11.10 -1.65 0.69 
-10.10 11.11 -1.62 0.70 
-5.50 6.28 -0.90 0.09 
-5.08 6.03 -0.85 0.55 
-4.87 6.00 -0.83 0.72 
-4.68 6.01 -0.82 0.73 
-4.52 6.03 -0.81 0.84 
-4.35 6.03 -0.80 0.77 
-4.18 6.04 -0.79 0.84 
-4.01 6.04 -0.78 0.81 
-3.85 6.04 -0.77 0.81 
-3.69 6.04 -0.76 0.82 
-3.54 6.04 -0.76 0.83 
-3.38 6.04 -0.75 0.84 
-3.24 6.04 -0.74 0.86 
-3.09 6.04 -0.73 0.86 
-2.95 6.03 -0.73 0.87 
-2.81 6.04 -0.72 0.89 
-2.67 6.04 -0.71 0.90 
-2.54 6.04 -0.71 0.90 
-2.40 6.04 -0.70 0.91 
-2.27 6.04 -0.70 0.92 
-2.14 6.05 -0.69 0.92 
-2.02 6.06 -0.69 0.93 
-1.89 6.06 -0.69 0.92 
-1.77 6.08 -0.68 0.93 
-1.65 6.09 -0.68 0.95 
-1.54 6.13 -0.68 0.97 
-1.42 6.15 -0.68 0.97 
-1.31 6.20 -0.68 0.91 
-1.20 6.26 -0.69 0.91 
-1.09 6.34 -0.69 0.88 
-1.00 6.57 -0.72 0.46 
-0.97 7.25 -0.79 0.04 
-1.60 14.04 -1.53 0.10 
-1.34 14.07 -1.53 0.10 
-1.02 13.51 -1.46 0.75 
-0.80 14.11 -1.53 0.10 
-0.49 12.96 -1.40 0.59 
-0.27 14.13 -1.53 0.10 
0.00 14.13 -1.53 0.10 
0.27 14.13 -1.53 0.10 
0.53 14.12 -1.53 0.10 
0.80 14.11 -1.53 0.10 
1.07 14.09 -1.53 0.10 
1.34 14.07 -1.53 0.10 
1.60 14.04 -1.53 0.10 
1.87 14.01 -1.53 0.10 
2.13 13.97 -1.53 0.10 
2.40 13.93 -1.53 0.10 
2.66 13.88 -1.53 0.10 
2.92 13.83 -1.53 0.10 
3.18 13.77 -1.53 0.10 
3.44 13.71 -1.53 0.10 
3.70 13.64 -1.53 0.10 
3.96 13.57 -1.53 0.10 
4.22 13.49 -1.53 0.10 
4.47 13.41 -1.53 0.10 
4.21 11.88 -1.36 0.33 
4.36 11.61 -1.34 0.89 
5.22 13.14 -1.53 0.10 
5.47 13.04 -1.53 0.10 
5.72 12.93 -1.53 0.10 
5.96 12.82 -1.53 0.10 
6.20 12.71 -1.53 0.10 
6.44 12.59 -1.53 0.10 
6.68 12.46 -1.53 0.10 
6.91 12.33 -1.53 0.10 
7.15 12.20 -1.53 0.10 
7.38 12.06 -1.53 0.10 
7.60 11.92 -1.53 0.10 
7.83 11.78 -1.53 0.10 
8.05 11.63 -1.53 0.10 
8.27 11.47 -1.53 0.10 
8.49 11.31 -1.53 0.10 
8.70 11.15 -1.53 0.10 
8.91 10.99 -1.53 0.62 
6.22 7.38 -1.04 0.38 
6.16 7.04 -1.01 0.54 
6.16 6.77 -0.99 0.63 
6.19 6.55 -0.97 0.70 
6.24 6.36 -0.96 0.81 
6.29 6.17 -0.95 0.78 
6.34 5.99 -0.94 0.92 
6.45 5.87 -0.94 0.80 
6.64 5.81 -0.95 0.63 
6.90 5.81 -0.97 0.62 
7.20 5.84 -1.00 0.60 
7.49 5.84 -1.03 0.57 
7.79 5.85 -1.05 0.57 
8.12 5.85 -1.08 0.54 
5.71 3.95 -0.75 0.82 
5.55 3.69 -0.72 0.58 
5.53 3.53 -0.71 0.64 
5.53 3.38 -0.70 0.64 
5.54 3.24 -0.69 0.70 
5.56 3.12 -0.69 0.74 
5.59 2.99 -0.68 0.79 
5.63 2.88 -0.68 0.71 
5.77 2.82 -0.69 0.48 
5.73 2.66 -0.68 0.86 
6.32 2.79 -0.75 0.39 
6.69 2.81 -0.78 0.28 
14.47 5.75 -1.68 0.10 
14.57 5.48 -1.68 0.10 
14.67 5.20 -1.68 0.10 
14.77 4.92 -1.68 0.10 
14.86 4.64 -1.68 0.10 
14.95 4.36 -1.68 0.10 
15.03 4.08 -1.68 0.10 
15.10 3.79 -1.68 0.10 
15.17 3.51 -1.68 0.10 
15.24 3.22 -1.68 0.10 
15.29 2.93 -1.68 0.10 
15.35 2.64 -1.68 0.10 
15.40 2.35 -1.68 0.10 
15.44 2.06 -1.68 0.10 
15.47 1.76 -1.68 0.10 
15.51 1.47 -1.68 0.10 
15.53 1.18 -1.68 0.10 
15.55 0.88 -1.68 0.10 
15.56 0.59 -1.68 0.10 
15.57 0.29 -1.68 0.10 
15.58 -0.00 -1.68 0.10 
15.57 -0.29 -1.68 0.10 
15.57 -0.59 -1.68 0.10 
15.55 -0.88 -1.68 0.10 
15.53 -1.18 -1.68 0.10 
15.51 -1.47 -1.68 0.10 
15.48 -1.77 -1.68 0.10 
15.44 -2.06 -1.68 0.10 
15.40 -2.35 -1.68 0.10 
15.36 -2.64 -1.68 0.10 
15.30 -2.93 -1.68 0.10 
15.24 -3.22 -1.68 0.10 
15.18 -3.51 -1.68 0.10 
15.11 -3.80 -1.68 0.10 
15.04 -4.08 -1.68 0.10 
14.96 -4.36 -1.68 0.10 
14.87 -4.65 -1.68 0.10 
14.78 -4.93 -1.68 0.10 
14.69 -5.21 -1.68 0.10 
14.59 -5.48 -1.68 0.10 
14.48 -5.76 -1.68 0.10 
14.37 -6.03 -1.68 0.10 
14.25 -6.30 -1.68 0.10 
14.13 -6.57 -1.68 0.10 
14.01 -6.84 -1.68 0.10 
13.87 -7.10 -1.68 0.10 
13.74 -7.36 -1.68 0.10 
13.60 -7.62 -1.68 0.10 
13.45 -7.88 -1.68 0.10 
13.30 -8.13 -1.68 0.10 
13.13 -8.37 -1.68 0.11 
12.93 -8.60 -1.68 0.11 
12.40 -8.58 -1.63 0.39 
11.75 -8.47 -1.56 0.40 
11.34 -8.50 -1.53 0.10 
11.18 -8.72 -1.53 0.10 
11.01 -8.93 -1.53 0.10 
10.84 -9.13 -1.53 0.10 
10.66 -9.34 -1.53 0.10 
10.49 -9.54 -1.53 0.10 
10.30 -9.73 -1.53 0.10 
10.12 -9.93 -1.53 0.10 
9.93 -10.12 -1.53 0.10 
9.73 -10.30 -1.53 0.10 
9.54 -10.49 -1.53 0.10 
9.34 -10.66 -1.53 0.10 
9.13 -10.84 -1.53 0.10 
8.93 -11.01 -1.53 0.10 
7.26 -9.31 -1.28 0.72 
6.78 -9.04 -1.22 0.18 
8.29 -11.50 -1.53 0.10 
8.07 -11.65 -1.53 0.10 
7.85 -11.81 -1.53 0.10 
7.62 -11.95 -1.53 0.10 
7.40 -12.09 -1.53 0.10 
7.16 -12.23 -1.53 0.10 
6.93 -12.36 -1.53 0.10 
6.70 -12.49 -1.53 0.10 
6.46 -12.62 -1.53 0.10 
6.22 -12.74 -1.53 0.10 
5.98 -12.85 -1.53 0.10 
5.73 -12.96 -1.53 0.10 
5.49 -13.07 -1.53 0.10 
5.24 -13.17 -1.53 0.10 
4.99 -13.27 -1.53 0.10 
4.74 -13.36 -1.53 0.10 
4.48 -13.45 -1.53 0.10 
4.23 -13.53 -1.53 0.10 
3.97 -13.61 -1.53 0.10 
3.71 -13.68 -1.53 0.10 
3.45 -13.75 -1.53 0.10 
3.19 -13.81 -1.53 0.10 
2.93 -13.87 -1.53 0.10 
2.67 -13.92 -1.53 0.10 
2.40 -13.97 -1.53 0.10 
2.14 -14.01 -1.53 0.10 
1.87 -14.05 -1.53 0.10 
1.61 -14.08 -1.53 0.10 
1.34 -14.11 -1.53 0.10 
0.92 -12.14 -1.31 0.91 
0.80 -14.15 -1.53 0.10 
0.54 -14.16 -1.53 0.10 
0.27 -14.17 -1.53 0.10 
-0.00 -14.17 -1.53 0.10 
-0.27 -14.17 -1.53 0.10 
-0.54 -14.16 -1.53 0.10 
-0.80 -14.15 -1.53 0.10 
-1.07 -14.13 -1.53 0.10 
-1.34 -14.11 -1.53 0.10 
-1.61 -14.08 -1.53 0.10 
-1.87 -14.05 -1.53 0.10 
-2.14 -14.01 -1.53 0.10 
-2.40 -13.96 -1.53 0.10 
-2.67 -13.92 -1.53 0.10 
-2.93 -13.86 -1.53 0.10 
-3.19 -13.80 -1.53 0.10 
-3.45 -13.74 -1.53 0.10 
-3.71 -13.67 -1.53 0.10 
-3.97 -13.60 -1.53 0.10 
-4.22 -13.52 -1.53 0.10 
-4.48 -13.44 -1.53 0.10 
-4.73 -13.35 -1.53 0.10 
-4.98 -13.26 -1.53 0.10 
-5.23 -13.16 -1.53 0.10 
-5.48 -13.06 -1.53 0.10 
-5.73 -12.95 -1.53 0.10 
-5.97 -12.84 -1.53 0.10 
-6.21 -12.73 -1.53 0.10 
-6.45 -12.61 -1.53 0.10 
-6.69 -12.48 -1.53 0.10 
-2.08 -3.70 -0.46 0.26 
-2.08 -3.56 -0.45 0.41 
-2.10 -3.43 -0.43 0.35 
-2.12 -3.32 -0.42 0.51 
-2.14 -3.22 -0.42 0.51 
-2.18 -3.15 -0.41 0.72 
-2.23 -3.10 -0.41 0.87 
-2.31 -3.08 -0.42 0.70 
-2.40 -3.08 -0.42 0.75 
-2.50 -3.08 -0.43 0.77 
-2.59 -3.08 -0.43 0.71 
-2.70 -3.08 -0.44 0.68 
-2.80 -3.08 -0.45 0.67 
-2.92 -3.09 -0.46 0.63 
-3.07 -3.13 -0.47 0.33 
-10.10 -9.91 -1.53 0.10 
-10.29 -9.72 -1.53 0.10 
-10.47 -9.52 -1.53 0.10 
-10.65 -9.32 -1.53 0.10 
-10.82 -9.12 -1.53 0.10 
-10.99 -8.91 -1.53 0.10 
-11.16 -8.70 -1.53 0.10 
-11.32 -8.49 -1.53 0.10 
-11.48 -8.27 -1.53 0.10 
-11.63 -8.06 -1.53 0.10 
-11.78 -7.83 -1.53 0.10 
-12.26 -7.82 -1.57 0.51 
-12.77 -7.81 -1.62 0.50 
-13.32 -7.80 -1.67 0.48 
-13.54 -7.59 -1.68 0.11 
-13.71 -7.35 -1.68 0.11 
-13.85 -7.09 -1.68 0.10 
-13.98 -6.83 -1.68 0.10 
-14.11 -6.56 -1.68 0.10 
-14.23 -6.29 -1.68 0.10 
-14.34 -6.02 -1.68 0.10 
-14.46 -5.75 -1.68 0.10 
-14.56 -5.47 -1.68 0.10 
-14.66 -5.20 -1.68 0.10 
-14.76 -4.92 -1.68 0.10 
-14.85 -4.64 -1.68 0.10 
-14.93 -4.36 -1.68 0.10 
-15.01 -4.07 -1.68 0.10 
-14.13 -3.55 -1.57 0.27 
-15.15 -3.50 -1.68 0.10 
-15.22 -3.21 -1.68 0.10 
-15.27 -2.93 -1.68 0.10 
-15.33 -2.64 -1.68 0.10 
-15.37 -2.35 -1.68 0.10 
-15.41 -2.05 -1.68 0.10 
-9.77 -1.11 -1.06 0.09 
-9.56 -0.91 -1.04 0.90 
-9.51 -0.72 -1.03 0.91 
-9.47 -0.54 -1.02 0.95 
-9.45 -0.36 -1.02 0.95 
-9.44 -0.18 -1.02 0.95 
-9.44 -0.00 -1.03 0.95 
-9.45 0.18 -1.03 0.95 
-9.48 0.36 -1.04 0.95 
-9.52 0.54 -1.04 0.92 
-9.57 0.73 -1.05 0.91 
-10.03 0.95 -1.10 0.95 
-15.27 1.74 -1.68 0.10 
-15.24 2.03 -1.68 0.10 
-15.20 2.32 -1.68 0.10 
-15.15 2.61 -1.68 0.10 
-15.10 2.89 -1.68 0.10 
-15.04 3.18 -1.68 0.10 
-14.98 3.46 -1.68 0.10 
-14.91 3.74 -1.68 0.10 
-8.95 2.43 -1.01 0.07 
-8.34 2.43 -0.95 0.33 
-7.82 2.44 -0.89 0.29 
-7.33 2.44 -0.84 0.32 
-6.95 2.46 -0.81 0.33 
-6.60 2.48 -0.77 0.33 
-6.27 2.49 -0.74 0.35 
-5.97 2.51 -0.71 0.36 
-5.69 2.52 -0.68 0.34 
-5.52 2.56 -0.66 0.66 
-5.38 2.63 -0.65 0.67 
-5.24 2.68 -0.64 0.68 
-5.19 2.78 -0.64 0.78 
-5.18 2.90 -0.65 0.78 
-5.16 3.02 -0.65 0.77 
-5.15 3.15 -0.66 0.76 
-5.13 3.27 -0.67 0.76 
-5.12 3.40 -0.67 0.75 
-5.12 3.55 -0.68 0.76 
-5.13 3.70 -0.69 0.75 
-5.14 3.85 -0.70 0.74 
-5.15 4.02 -0.71 0.72 
-5.15 4.18 -0.72 0.74 
-11.75 9.90 -1.68 0.10 
-11.56 10.12 -1.68 0.10 
-11.37 10.34 -1.68 0.10 
-11.17 10.55 -1.68 0.10 
-10.96 10.75 -1.68 0.11 
-10.73 10.93 -1.67 0.11 
-10.49 11.10 -1.67 0.69 
-10.10 11.11 -1.64 0.70 
-5.46 6.24 -0.91 0.09 
-5.08 6.03 -0.86 0.55 
-4.87 6.00 -0.84 0.72 
-4.68 6.00 -0.83 0.83 
-4.52 6.02 -0.82 0.84 
-4.35 6.03 -0.81 0.77 
-4.18 6.04 -0.80 0.84 
-4.01 6.04 -0.79 0.81 
-3.85 6.04 -0.78 0.81 
-3.69 6.04 -0.77 0.82 
-3.54 6.04 -0.76 0.83 
-3.38 6.03 -0.76 0.84 
-3.23 6.03 -0.75 0.86 
-3.09 6.03 -0.74 0.86 
-2.95 6.03 -0.73 0.87 
-2.81 6.03 -0.73 0.89 
-2.67 6.04 -0.72 0.90 
-2.54 6.04 -0.72 0.90 
-2.40 6.04 -0.71 0.91 
-2.27 6.04 -0.70 0.92 
-2.14 6.05 -0.70 0.92 
-2.02 6.06 -0.70 0.93 
-1.89 6.06 -0.69 0.93 
-1.77 6.07 -0.69 0.93 
-1.65 6.09 -0.69 0.95 
-1.54 6.13 -0.69 0.97 
-1.42 6.15 -0.69 0.97 
-1.31 6.20 -0.69 0.91 
-1.20 6.26 -0.70 0.91 
-1.09 6.34 -0.70 0.88 
-1.00 6.56 -0.73 0.46 
-0.96 7.21 -0.79 0.04 
-1.58 13.88 -1.53 0.10 
-1.32 13.91 -1.53 0.10 
-1.03 13.52 -1.48 0.51 
-0.79 13.95 -1.53 0.10 
-0.49 12.96 -1.42 0.64 
-0.26 13.97 -1.53 0.10 
0.00 13.97 -1.53 0.10 
0.26 13.97 -1.53 0.10 
0.53 13.97 -1.53 0.10 
0.79 13.95 -1.53 0.10 
1.06 13.94 -1.53 0.10 
1.32 13.91 -1.53 0.10 
1.58 13.89 -1.53 0.10 
1.85 13.85 -1.53 0.10 
2.11 13.82 -1.53 0.10 
2.37 13.77 -1.53 0.10 
2.63 13.73 -1.53 0.10 
2.89 13.68 -1.53 0.10 
3.15 13.62 -1.53 0.10 
3.40 13.56 -1.53 0.10 
3.66 13.49 -1.53 0.10 
3.92 13.42 -1.53 0.10 
4.17 13.34 -1.53 0.10 
4.42 13.26 -1.53 0.10 
4.21 11.87 -1.38 0.33 
4.36 11.61 -1.35 0.89 
5.17 12.99 -1.53 0.10 
5.41 12.89 -1.53 0.10 
5.65 12.79 -1.53 0.10 
5.90 12.68 -1.53 0.10 
6.13 12.56 -1.53 0.10 
6.37 12.45 -1.53 0.10 
6.61 12.32 -1.53 0.10 
6.84 12.20 -1.53 0.10 
7.07 12.07 -1.53 0.10 
7.30 11.93 -1.53 0.10 
7.52 11.79 -1.53 0.10 
7.74 11.65 -1.53 0.10 
7.96 11.50 -1.53 0.10 
8.18 11.35 -1.53 0.10 
8.39 11.19 -1.53 0.10 
8.60 11.03 -1.53 0.10 
8.90 10.98 -1.54 0.78 
6.21 7.37 -1.05 0.38 
6.16 7.03 -1.02 0.54 
6.16 6.77 -1.00 0.63 
6.19 6.55 -0.98 0.70 
6.24 6.36 -0.97 0.81 
6.28 6.17 -0.96 0.78 
6.33 5.99 -0.95 0.92 
6.45 5.86 -0.95 0.80 
6.64 5.81 -0.96 0.63 
6.90 5.81 -0.98 0.62 
7.20 5.84 -1.01 0.60 
7.49 5.84 -1.04 0.57 
7.79 5.84 -1.06 0.57 
8.12 5.85 -1.09 0.54 
5.71 3.95 -0.76 0.82 
5.54 3.68 -0.73 0.60 
5.52 3.52 -0.72 0.66 
5.52 3.38 -0.71 0.64 
5.53 3.24 -0.70 0.70 
5.55 3.11 -0.70 0.74 
5.58 2.99 -0.69 0.80 
5.62 2.88 -0.69 0.71 
5.76 2.81 -0.70 0.48 
5.73 2.66 -0.69 0.86 
6.31 2.79 -0.75 0.39 
6.68 2.80 -0.79 0.28 
14.31 5.69 -1.68 0.10 
14.41 5.42 -1.68 0.10 
14.51 5.14 -1.68 0.10 
14.61 4.87 -1.68 0.10 
14.70 4.59 -1.68 0.10 
14.78 4.31 -1.68 0.10 
14.86 4.03 -1.68 0.10 
14.93 3.75 -1.68 0.10 
15.00 3.47 -1.68 0.10 
15.07 3.18 -1.68 0.10 
15.12 2.90 -1.68 0.10 
15.18 2.61 -1.68 0.10 
15.22 2.32 -1.68 0.10 
15.27 2.03 -1.68 0.10 
15.30 1.75 -1.68 0.10 
15.33 1.46 -1.68 0.10 
15.36 1.16 -1.68 0.10 
15.38 0.87 -1.68 0.10 
15.39 0.58 -1.68 0.10 
15.40 0.29 -1.68 0.10 
15.40 -0.00 -1.68 0.10 
15.40 -0.29 -1.68 0.10 
15.39 -0.58 -1.68 0.10 
15.38 -0.87 -1.68 0.10 
15.36 -1.17 -1.68 0.10 
15.34 -1.46 -1.68 0.10 
15.31 -1.75 -1.68 0.10 
15.27 -2.04 -1.68 0.10 
15.23 -2.32 -1.68 0.10 
15.18 -2.61 -1.68 0.10 
15.13 -2.90 -1.68 0.10 
15.08 -3.18 -1.68 0.10 
15.01 -3.47 -1.68 0.10 
14.95 -3.75 -1.68 0.10 
14.87 -4.04 -1.68 0.10 
14.79 -4.32 -1.68 0.10 
14.71 -4.60 -1.68 0.10 
14.62 -4.87 -1.68 0.10 
14.53 -5.15 -1.68 0.10 
14.43 -5.42 -1.68 0.10 
14.32 -5.70 -1.68 0.10 
14.21 -5.97 -1.68 0.10 
14.10 -6.23 -1.68 0.10 
13.98 -6.50 -1.68 0.10 
13.85 -6.76 -1.68 0.10 
13.72 -7.02 -1.68 0.10 
13.58 -7.28 -1.68 0.10 
13.44 -7.54 -1.68 0.10 
13.30 -7.79 -1.68 0.10 
13.15 -8.04 -1.68 0.10 
12.99 -8.28 -1.68 0.11 
12.80 -8.51 -1.68 0.11 
12.39 -8.58 -1.65 0.39 
11.74 -8.46 -1.58 0.40 
11.21 -8.41 -1.53 0.10 
11.05 -8.62 -1.53 0.10 
10.89 -8.83 -1.53 0.10 
10.72 -9.03 -1.53 0.10 
10.55 -9.23 -1.53 0.10 
10.37 -9.43 -1.53 0.10 
10.19 -9.63 -1.53 0.10 
10.01 -9.82 -1.53 0.10 
9.82 -10.01 -1.53 0.10 
9.63 -10.19 -1.53 0.10 
9.43 -10.37 -1.53 0.10 
9.23 -10.55 -1.53 0.10 
9.03 -10.72 -1.53 0.10 
8.83 -10.89 -1.53 0.10 
7.27 -9.32 -1.29 0.71 
6.78 -9.04 -1.23 0.17 
8.20 -11.37 -1.53 0.10 
7.98 -11.53 -1.53 0.10 
7.76 -11.67 -1.53 0.10 
7.54 -11.82 -1.53 0.10 
7.31 -11.96 -1.53 0.10 
7.09 -12.10 -1.53 0.10 
6.86 -12.23 -1.53 0.10 
6.62 -12.36 -1.53 0.10 
6.39 -12.48 -1.53 0.10 
6.15 -12.60 -1.53 0.10 
5.91 -12.71 -1.53 0.10 
5.67 -12.82 -1.53 0.10 
5.43 -12.93 -1.53 0.10 
5.18 -13.03 -1.53 0.10 
4.93 -13.12 -1.53 0.10 
4.68 -13.21 -1.53 0.10 
4.43 -13.30 -1.53 0.10 
4.18 -13.38 -1.53 0.10 
3.93 -13.46 -1.53 0.10 
3.67 -13.53 -1.53 0.10 
3.41 -13.59 -1.53 0.10 
3.16 -13.66 -1.53 0.10 
2.90 -13.71 -1.53 0.10 
2.64 -13.77 -1.53 0.10 
2.38 -13.81 -1.53 0.10 
2.11 -13.86 -1.53 0.10 
1.85 -13.89 -1.53 0.10 
1.59 -13.93 -1.53 0.10 
1.32 -13.95 -1.53 0.10 
0.92 -12.13 -1.33 0.94 
0.80 -13.99 -1.53 0.10 
0.53 -14.00 -1.53 0.10 
0.27 -14.01 -1.53 0.10 
0.00 -14.01 -1.53 0.10 
-0.27 -14.01 -1.53 0.10 
-0.53 -14.00 -1.53 0.10 
-0.80 -13.99 -1.53 0.10 
-1.06 -13.97 -1.53 0.10 
-1.32 -13.95 -1.53 0.10 
-1.59 -13.92 -1.53 0.10 
-1.85 -13.89 -1.53 0.10 
-2.11 -13.85 -1.53 0.10 
-2.38 -13.81 -1.53 0.10 
-2.64 -13.76 -1.53 0.10 
-2.90 -13.71 -1.53 0.10 
-3.15 -13.65 -1.53 0.10 
-3.41 -13.59 -1.53 0.10 
-3.67 -13.52 -1.53 0.10 
-3.92 -13.45 -1.53 0.10 
-4.18 -13.37 -1.53 0.10 
-4.43 -13.29 -1.53 0.10 
-4.68 -13.20 -1.53 0.10 
-4.93 -13.11 -1.53 0.10 
-5.18 -13.02 -1.53 0.10 
-5.42 -12.92 -1.53 0.10 
-5.66 -12.81 -1.53 0.10 
-5.91 -12.70 -1.53 0.10 
-6.15 -12.59 -1.53 0.10 
-6.38 -12.47 -1.53 0.10 
-6.62 -12.34 -1.53 0.10 
-2.07 -3.69 -0.46 0.26 
-2.08 -3.55 -0.45 0.41 
-2.09 -3.42 -0.44 0.35 
-2.11 -3.31 -0.43 0.51 
-2.14 -3.22 -0.42 0.51 
-2.18 -3.15 -0.42 0.72 
-2.23 -3.10 -0.42 0.87 
-2.31 -3.08 -0.42 0.70 
-2.40 -3.08 -0.43 0.75 
-2.50 -3.08 -0.43 0.77 
-2.59 -3.08 -0.44 0.71 
-2.70 -3.08 -0.45 0.68 
-2.80 -3.08 -0.46 0.67 
-2.92 -3.09 -0.46 0.63 
-3.06 -3.12 -0.48 0.33 
-9.99 -9.80 -1.53 0.10 
-10.18 -9.61 -1.53 0.10 
-10.36 -9.42 -1.53 0.10 
-10.53 -9.22 -1.53 0.10 
-10.70 -9.02 -1.53 0.10 
-10.87 -8.82 -1.53 0.10 
-11.04 -8.61 -1.53 0.10 
-11.20 -8.40 -1.53 0.10 
-11.35 -8.18 -1.53 0.10 
-11.51 -7.97 -1.53 0.10 
-11.77 -7.82 -1.54 0.53 
-12.25 -7.82 -1.59 0.51 
-12.77 -7.81 -1.63 0.50 
-13.22 -7.75 -1.67 0.11 
-13.40 -7.51 -1.68 0.11 
-13.56 -7.27 -1.68 0.10 
-13.70 -7.01 -1.68 0.10 
-13.83 -6.75 -1.68 0.10 
-13.95 -6.49 -1.68 0.10 
-14.07 -6.22 -1.68 0.10 
-14.19 -5.95 -1.68 0.10 
-14.30 -5.68 -1.68 0.10 
-14.40 -5.41 -1.68 0.10 
-14.50 -5.14 -1.68 0.10 
-14.59 -4.86 -1.68 0.10 
-14.68 -4.59 -1.68 0.10 
-14.77 -4.31 -1.68 0.10 
-14.84 -4.03 -1.68 0.10 
-14.07 -3.53 -1.58 0.28 
-14.99 -3.46 -1.68 0.10 
-15.05 -3.18 -1.68 0.10 
-15.11 -2.89 -1.68 0.10 
-15.16 -2.61 -1.68 0.10 
-15.20 -2.32 -1.68 0.10 
-15.24 -2.03 -1.68 0.10 
-9.78 -1.12 -1.08 0.09 
-9.56 -0.91 -1.05 0.90 
-9.51 -0.72 -1.04 0.91 
-9.47 -0.54 -1.04 0.95 
-9.45 -0.36 -1.03 0.95 
-9.44 -0.18 -1.03 0.95 
-9.44 -0.00 -1.04 0.95 
-9.45 0.18 -1.04 0.95 
-9.47 0.36 -1.05 0.95 
-9.52 0.54 -1.05 0.92 
-9.56 0.73 -1.06 0.91 
-10.03 0.95 -1.11 0.95 
-15.11 1.72 -1.68 0.10 
-15.07 2.01 -1.68 0.10 
-15.03 2.29 -1.68 0.10 
-14.98 2.58 -1.68 0.10 
-14.93 2.86 -1.68 0.10 
-14.87 3.14 -1.68 0.10 
-14.81 3.42 -1.68 0.10 
-14.74 3.70 -1.68 0.10 
-8.95 2.43 -1.02 0.61 
-8.33 2.43 -0.96 0.33 
-7.82 2.44 -0.90 0.29 
-7.33 2.44 -0.85 0.31 
-6.94 2.46 -0.81 0.33 
-6.59 2.48 -0.78 0.33 
-6.26 2.49 -0.74 0.35 
-5.96 2.50 -0.71 0.36 
-5.68 2.51 -0.69 0.34 
-5.51 2.56 -0.67 0.66 
-5.37 2.62 -0.66 0.67 
-5.24 2.68 -0.65 0.68 
-5.19 2.78 -0.65 0.78 
-5.17 2.90 -0.65 0.78 
-5.16 3.02 -0.66 0.77 
-5.14 3.15 -0.67 0.76 
-5.13 3.27 -0.67 0.76 
-5.12 3.40 -0.68 0.84 
-5.12 3.55 -0.69 0.76 
-5.13 3.70 -0.70 0.75 
-5.14 3.85 -0.71 0.74 
-5.15 4.02 -0.72 0.72 
-5.15 4.18 -0.73 0.74 
-11.62 9.79 -1.68 0.10 
-11.43 10.01 -1.68 0.10 
-11.24 10.23 -1.68 0.10 
-11.05 10.44 -1.68 0.10 
-10.85 10.64 -1.68 0.10 
-10.62 10.83 -1.67 0.11 
-10.40 11.01 -1.67 0.11 
-10.10 11.10 -1.66 0.70 
-5.42 6.19 -0.91 0.09 
-5.07 6.02 -0.87 0.55 
-5.03 6.20 -0.88 0.24 
-4.68 6.00 -0.84 0.83 
-4.52 6.02 -0.83 0.84 
-4.35 6.03 -0.82 0.77 
-4.18 6.04 -0.81 0.80 
-4.01 6.04 -0.80 0.81 
-3.85 6.04 -0.79 0.81 
-3.69 6.04 -0.78 0.82 
-3.54 6.04 -0.77 0.83 
-3.38 6.03 -0.76 0.84 
-3.23 6.03 -0.76 0.86 
-3.09 6.03 -0.75 0.86 
-2.95 6.03 -0.74 0.87 
-2.81 6.03 -0.73 0.89 
-2.67 6.04 -0.73 0.90 
-2.54 6.04 -0.72 0.89 
-2.40 6.03 -0.72 0.88 
-2.27 6.04 -0.71 0.92 
-2.14 6.05 -0.71 0.92 
-2.02 6.05 -0.70 0.93 
-1.89 6.06 -0.70 0.93 
-1.77 6.07 -0.70 0.93 
-1.65 6.09 -0.70 0.95 
-1.54 6.13 -0.70 0.97 
-1.42 6.15 -0.70 0.97 
-1.31 6.20 -0.70 0.92 
-1.20 6.26 -0.70 0.91 
-1.09 6.33 -0.71 0.88 
-1.00 6.56 -0.73 0.46 
-0.96 7.18 -0.80 0.04 
-1.57 13.73 -1.53 0.10 
-1.31 13.76 -1.53 0.10 
-1.05 13.78 -1.53 0.10 
-0.78 13.80 -1.53 0.10 
-0.49 12.96 -1.43 0.59 
-0.26 13.82 -1.53 0.10 
0.00 13.82 -1.53 0.10 
0.26 13.82 -1.53 0.10 
0.52 13.81 -1.53 0.10 
0.78 13.80 -1.53 0.10 
1.05 13.78 -1.53 0.10 
1.31 13.76 -1.53 0.10 
1.57 13.73 -1.53 0.10 
1.83 13.70 -1.53 0.10 
2.09 13.67 -1.53 0.10 
2.34 13.62 -1.53 0.10 
2.60 13.58 -1.53 0.10 
2.86 13.53 -1.53 0.10 
3.11 13.47 -1.53 0.10 
3.37 13.41 -1.53 0.10 
3.62 13.34 -1.53 0.10 
3.87 13.27 -1.53 0.10 
4.12 13.20 -1.53 0.10 
4.37 13.12 -1.53 0.10 
4.21 11.87 -1.39 0.33 
4.36 11.61 -1.37 0.88 
5.11 12.85 -1.53 0.10 
5.35 12.75 -1.53 0.10 
5.59 12.65 -1.53 0.10 
5.83 12.54 -1.53 0.10 
6.07 12.43 -1.53 0.10 
6.30 12.31 -1.53 0.10 
6.53 12.19 -1.53 0.10 
6.76 12.06 -1.53 0.10 
6.99 11.93 -1.53 0.10 
7.22 11.80 -1.53 0.10 
7.44 11.66 -1.53 0.10 
7.66 11.52 -1.53 0.10 
7.87 11.37 -1.53 0.10 
8.09 11.22 -1.53 0.10 
8.30 11.07 -1.53 0.10 
8.58 11.00 -1.54 0.79 
8.90 10.98 -1.56 0.78 
6.20 7.36 -1.06 0.38 
6.15 7.02 -1.03 0.54 
6.15 6.76 -1.01 0.69 
6.18 6.54 -0.99 0.70 
6.23 6.35 -0.98 0.81 
6.28 6.16 -0.97 0.78 
6.33 5.98 -0.96 0.92 
6.44 5.86 -0.96 0.80 
6.64 5.81 -0.97 0.63 
6.90 5.81 -1.00 0.62 
7.17 5.81 -1.02 0.60 
7.49 5.84 -1.05 0.58 
7.79 5.84 -1.08 0.57 
8.12 5.85 -1.10 0.54 
5.64 3.90 -0.76 0.12 
5.53 3.68 -0.73 0.61 
5.52 3.52 -0.72 0.66 
5.51 3.37 -0.71 0.65 
5.53 3.24 -0.71 0.70 
5.55 3.11 -0.70 0.74 
5.58 2.99 -0.70 0.80 
5.62 2.88 -0.70 0.71 
5.76 2.81 -0.71 0.48 
5.73 2.66 -0.70 0.86 
6.30 2.79 -0.76 0.39 
6.67 2.80 -0.80 0.28 
14.15 5.63 -1.68 0.10 
14.25 5.36 -1.68 0.10 
14.35 5.09 -1.68 0.10 
14.45 4.82 -1.68 0.10 
14.54 4.54 -1.68 0.10 
14.62 4.27 -1.68 0.10 
14.70 3.99 -1.68 0.10 
14.77 3.71 -1.68 0.10 
14.84 3.43 -1.68 0.10 
14.90 3.15 -1.68 0.10 
14.96 2.87 -1.68 0.10 
15.01 2.58 -1.68 0.10 
15.06 2.30 -1.68 0.10 
15.10 2.01 -1.68 0.10 
15.13 1.73 -1.68 0.10 
15.17 1.44 -1.68 0.10 
15.19 1.15 -1.68 0.10 
15.21 0.86 -1.68 0.10 
15.22 0.58 -1.68 0.10 
15.23 0.29 -1.68 0.10 
15.24 -0.00 -1.68 0.10 
15.23 -0.29 -1.68 0.10 
15.23 -0.58 -1.68 0.10 
15.21 -0.86 -1.68 0.10 
15.19 -1.15 -1.68 0.10 
15.17 -1.44 -1.68 0.10 
15.14 -1.73 -1.68 0.10 
15.10 -2.01 -1.68 0.10 
15.06 -2.30 -1.68 0.10 
15.02 -2.58 -1.68 0.10 
14.97 -2.87 -1.68 0.10 
14.91 -3.15 -1.68 0.10 
14.85 -3.43 -1.68 0.10 
14.78 -3.71 -1.68 0.10 
14.71 -3.99 -1.68 0.10 
14.63 -4.27 -1.68 0.10 
14.55 -4.54 -1.68 0.10 
14.46 -4.82 -1.68 0.10 
14.37 -5.09 -1.68 0.10 
14.27 -5.36 -1.68 0.10 
14.16 -5.63 -1.68 0.10 
14.05 -5.90 -1.68 0.10 
13.94 -6.16 -1.68 0.10 
13.82 -6.43 -1.68 0.10 
13.70 -6.69 -1.68 0.10 
13.57 -6.95 -1.68 0.10 
13.44 -7.20 -1.68 0.10 
13.30 -7.45 -1.68 0.10 
13.15 -7.71 -1.68 0.10 
13.01 -7.95 -1.68 0.10 
12.85 -8.20 -1.68 0.10 
12.66 -8.42 -1.68 0.11 
12.38 -8.57 -1.66 0.39 
11.74 -8.46 -1.60 0.40 
11.14 -8.36 -1.54 0.39 
10.93 -8.53 -1.53 0.10 
10.77 -8.73 -1.53 0.10 
10.60 -8.93 -1.53 0.10 
10.43 -9.13 -1.53 0.10 
10.26 -9.33 -1.53 0.10 
10.08 -9.52 -1.53 0.10 
9.90 -9.71 -1.53 0.10 
9.71 -9.90 -1.53 0.10 
9.52 -10.08 -1.53 0.10 
9.33 -10.26 -1.53 0.10 
9.13 -10.43 -1.53 0.10 
8.93 -10.60 -1.53 0.10 
8.73 -10.77 -1.53 0.10 
7.28 -9.33 -1.31 0.69 
6.77 -9.03 -1.25 0.15 
8.11 -11.25 -1.53 0.10 
7.89 -11.40 -1.53 0.10 
7.68 -11.55 -1.53 0.10 
7.46 -11.69 -1.53 0.10 
7.23 -11.83 -1.53 0.10 
7.01 -11.96 -1.53 0.10 
6.78 -12.09 -1.53 0.10 
6.55 -12.22 -1.53 0.10 
6.32 -12.34 -1.53 0.10 
6.08 -12.46 -1.53 0.10 
5.85 -12.57 -1.53 0.10 
5.61 -12.68 -1.53 0.10 
5.37 -12.78 -1.53 0.10 
5.12 -12.88 -1.53 0.10 
4.88 -12.98 -1.53 0.10 
4.63 -13.07 -1.53 0.10 
4.38 -13.15 -1.53 0.10 
4.13 -13.23 -1.53 0.10 
3.88 -13.31 -1.53 0.10 
3.63 -13.38 -1.53 0.10 
3.38 -13.45 -1.53 0.10 
3.12 -13.51 -1.53 0.10 
2.87 -13.56 -1.53 0.10 
2.61 -13.61 -1.53 0.10 
2.35 -13.66 -1.53 0.10 
2.09 -13.70 -1.53 0.10 
1.83 -13.74 -1.53 0.10 
1.57 -13.77 -1.53 0.10 
1.31 -13.80 -1.53 0.10 
0.92 -12.13 -1.34 0.95 
0.79 -13.84 -1.53 0.10 
0.52 -13.85 -1.53 0.10 
0.26 -13.86 -1.53 0.10 
-0.00 -13.86 -1.53 0.10 
-0.26 -13.86 -1.53 0.10 
-0.52 -13.85 -1.53 0.10 
-0.79 -13.84 -1.53 0.10 
-1.05 -13.82 -1.53 0.10 
-1.31 -13.80 -1.53 0.10 
-1.57 -13.77 -1.53 0.10 
-1.83 -13.74 -1.53 0.10 
-2.09 -13.70 -1.53 0.10 
-2.35 -13.66 -1.53 0.10 
-2.61 -13.61 -1.53 0.10 
-2.86 -13.56 -1.53 0.10 
-3.12 -13.50 -1.53 0.10 
-3.37 -13.44 -1.53 0.10 
-3.63 -13.37 -1.53 0.10 
-3.88 -13.30 -1.53 0.10 
-4.13 -13.23 -1.53 0.10 
-4.38 -13.14 -1.53 0.10 
-4.63 -13.06 -1.53 0.10 
-4.88 -12.97 -1.53 0.10 
-5.12 -12.87 -1.53 0.10 
-5.36 -12.77 -1.53 0.10 
-5.60 -12.67 -1.53 0.10 
-5.84 -12.56 -1.53 0.10 
-6.08 -12.45 -1.53 0.10 
-6.31 -12.33 -1.53 0.10 
-6.54 -12.21 -1.53 0.10 
-2.06 -3.68 -0.47 0.26 
-2.07 -3.54 -0.45 0.41 
-2.09 -3.41 -0.44 0.41 
-2.11 -3.30 -0.43 0.51 
-2.14 -3.21 -0.43 0.51 
-2.18 -3.14 -0.42 0.72 
-2.23 -3.09 -0.42 0.87 
-2.30 -3.07 -0.42 0.70 
-2.40 -3.08 -0.43 0.75 
-2.49 -3.08 -0.44 0.77 
-2.59 -3.07 -0.44 0.71 
-2.69 -3.08 -0.45 0.68 
-2.80 -3.08 -0.46 0.67 
-2.91 -3.08 -0.47 0.63 
-3.05 -3.11 -0.48 0.49 
-9.88 -9.70 -1.53 0.10 
-10.06 -9.51 -1.53 0.10 
-10.24 -9.32 -1.53 0.10 
-10.42 -9.12 -1.53 0.10 
-10.59 -8.92 -1.53 0.10 
-10.75 -8.72 -1.53 0.10 
-10.92 -8.51 -1.53 0.10 
-11.07 -8.31 -1.53 0.10 
-11.23 -8.09 -1.53 0.10 
-11.38 -7.88 -1.53 0.10 
-11.76 -7.82 -1.56 0.53 
-12.25 -7.81 -1.60 0.51 
-12.76 -7.80 -1.65 0.50 
-13.09 -7.67 -1.68 0.11 
-13.26 -7.44 -1.68 0.11 
-13.41 -7.19 -1.68 0.10 
-13.55 -6.93 -1.68 0.10 
-13.67 -6.68 -1.68 0.10 
-13.80 -6.42 -1.68 0.10 
-13.92 -6.15 -1.68 0.10 
-14.03 -5.89 -1.68 0.10 
-14.14 -5.62 -1.68 0.10 
-14.24 -5.35 -1.68 0.10 
-14.34 -5.08 -1.68 0.10 
-14.43 -4.81 -1.68 0.10 
-14.52 -4.54 -1.68 0.10 
-14.60 -4.26 -1.68 0.10 
-14.68 -3.98 -1.68 0.10 
-14.02 -3.52 -1.60 0.23 
-14.82 -3.43 -1.68 0.10 
-14.88 -3.14 -1.68 0.10 
-14.94 -2.86 -1.68 0.10 
-14.99 -2.58 -1.68 0.10 
-15.04 -2.29 -1.68 0.10 
-15.08 -2.01 -1.68 0.10 
-9.80 -1.12 -1.09 0.09 
-9.56 -0.91 -1.06 0.90 
-9.51 -0.72 -1.05 0.91 
-9.47 -0.54 -1.05 0.95 
-9.45 -0.36 -1.04 0.95 
-9.44 -0.18 -1.04 0.95 
-9.44 -0.00 -1.05 0.95 
-9.45 0.18 -1.06 0.95 
-9.47 0.36 -1.06 0.95 
-9.52 0.54 -1.06 0.92 
-9.56 0.73 -1.07 0.91 
-10.03 0.95 -1.12 0.95 
-14.94 1.70 -1.68 0.10 
-14.91 1.99 -1.68 0.10 
-14.87 2.27 -1.68 0.10 
-14.82 2.55 -1.68 0.10 
-14.77 2.83 -1.68 0.10 
-14.71 3.11 -1.68 0.10 
-14.65 3.39 -1.68 0.10 
-14.58 3.66 -1.68 0.10 
-8.96 2.43 -1.04 0.61 
-8.33 2.43 -0.97 0.33 
-7.82 2.44 -0.91 0.29 
-7.33 2.44 -0.86 0.31 
-6.93 2.46 -0.82 0.34 
-6.58 2.47 -0.78 0.33 
-6.25 2.49 -0.75 0.35 
-5.95 2.50 -0.72 0.36 
-5.67 2.51 -0.69 0.34 
-5.51 2.56 -0.68 0.66 
-5.37 2.62 -0.67 0.67 
-5.24 2.68 -0.66 0.68 
-5.18 2.78 -0.66 0.78 
-5.17 2.90 -0.66 0.78 
-5.15 3.02 -0.67 0.77 
-5.14 3.14 -0.67 0.77 
-5.13 3.27 -0.68 0.85 
-5.12 3.40 -0.69 0.84 
-5.12 3.55 -0.70 0.76 
-5.13 3.70 -0.71 0.75 
-5.14 3.85 -0.72 0.74 
-5.15 4.02 -0.73 0.75 
-5.15 4.17 -0.74 0.74 
-11.49 9.69 -1.68 0.10 
-11.31 9.90 -1.68 0.10 
-11.12 10.11 -1.68 0.10 
-10.93 10.32 -1.68 0.10 
-10.73 10.53 -1.68 0.10 
-10.52 10.72 -1.68 0.12 
-10.30 10.90 -1.67 0.12 
-10.07 11.07 -1.67 0.12 
-5.40 6.17 -0.91 0.14 
-5.07 6.02 -0.88 0.55 
-5.05 6.22 -0.89 0.24 
-4.68 6.00 -0.85 0.83 
-4.52 6.02 -0.84 0.84 
-4.35 6.03 -0.83 0.77 
-4.18 6.04 -0.82 0.80 
-4.01 6.04 -0.81 0.81 
-3.85 6.04 -0.80 0.81 
-3.69 6.04 -0.79 0.82 
-3.54 6.03 -0.78 0.83 
-3.38 6.03 -0.77 0.84 
-3.23 6.03 -0.76 0.86 
-3.09 6.03 -0.76 0.86 
-2.95 6.03 -0.75 0.87 
-2.81 6.03 -0.74 0.89 
-2.67 6.04 -0.74 0.90 
-2.53 6.04 -0.73 0.89 
-2.40 6.03 -0.72 0.88 
-2.27 6.04 -0.72 0.92 
-2.14 6.05 -0.72 0.92 
-2.02 6.05 -0.71 0.93 
-1.89 6.05 -0.71 0.93 
-1.77 6.07 -0.71 0.93 
-1.65 6.09 -0.70 0.95 
-1.54 6.12 -0.70 0.95 
-1.42 6.15 -0.70 0.97 
-1.31 6.19 -0.71 0.92 
-1.20 6.26 -0.71 0.91 
-1.09 6.33 -0.72 0.88 
-1.00 6.56 -0.74 0.46 
-0.95 7.15 -0.81 0.04 
-1.55 13.58 -1.53 0.11 
-1.29 13.61 -1.53 0.11 
-1.03 13.63 -1.53 0.11 
-0.78 13.65 -1.53 0.11 
-0.49 12.97 -1.45 0.41 
-0.26 13.67 -1.53 0.11 
0.00 13.67 -1.53 0.11 
0.26 13.67 -1.53 0.11 
0.52 13.66 -1.53 0.11 
0.78 13.65 -1.53 0.11 
1.03 13.63 -1.53 0.11 
1.29 13.61 -1.53 0.11 
1.55 13.59 -1.53 0.11 
1.81 13.55 -1.53 0.11 
2.06 13.52 -1.53 0.11 
2.32 13.48 -1.53 0.11 
2.57 13.43 -1.53 0.11 
2.83 13.38 -1.53 0.11 
3.08 13.32 -1.53 0.11 
3.33 13.26 -1.53 0.11 
3.58 13.20 -1.53 0.11 
3.83 13.13 -1.53 0.11 
4.08 13.05 -1.53 0.11 
4.32 12.98 -1.53 0.11 
4.21 11.87 -1.41 0.33 
4.36 11.61 -1.38 0.88 
5.05 12.71 -1.53 0.11 
5.29 12.61 -1.53 0.11 
5.53 12.51 -1.53 0.11 
5.77 12.40 -1.53 0.11 
6.00 12.29 -1.53 0.11 
6.23 12.18 -1.53 0.11 
6.46 12.06 -1.53 0.11 
6.69 11.93 -1.53 0.11 
6.92 11.80 -1.53 0.11 
7.14 11.67 -1.53 0.11 
7.36 11.54 -1.53 0.11 
7.57 11.39 -1.53 0.11 
7.79 11.25 -1.53 0.11 
8.00 11.10 -1.53 0.11 
8.27 11.02 -1.54 0.79 
8.58 11.00 -1.56 0.79 
8.90 10.97 -1.58 0.78 
6.19 7.35 -1.07 0.38 
6.14 7.02 -1.04 0.55 
6.15 6.76 -1.02 0.69 
6.18 6.54 -1.00 0.70 
6.23 6.35 -0.99 0.81 
6.28 6.16 -0.98 0.78 
6.33 5.98 -0.97 0.92 
6.44 5.86 -0.97 0.81 
6.64 5.81 -0.98 0.63 
6.90 5.81 -1.01 0.62 
7.17 5.81 -1.03 0.60 
7.49 5.84 -1.06 0.58 
7.79 5.84 -1.09 0.57 
8.11 5.85 -1.12 0.54 
5.57 3.86 -0.76 0.06 
5.52 3.67 -0.74 0.61 
5.51 3.51 -0.73 0.66 
5.51 3.37 -0.72 0.65 
5.52 3.23 -0.71 0.70 
5.54 3.11 -0.71 0.74 
5.57 2.99 -0.71 0.72 
5.61 2.87 -0.70 0.71 
5.75 2.81 -0.71 0.48 
5.72 2.66 -0.70 0.86 
6.30 2.78 -0.77 0.39 
6.66 2.80 -0.81 0.29 
14.00 5.57 -1.68 0.10 
14.10 5.30 -1.68 0.10 
14.20 5.03 -1.68 0.10 
14.29 4.76 -1.68 0.10 
14.38 4.49 -1.68 0.10 
14.46 4.22 -1.68 0.10 
14.54 3.94 -1.68 0.10 
14.61 3.67 -1.68 0.10 
14.68 3.39 -1.68 0.10 
14.74 3.11 -1.68 0.10 
14.80 2.83 -1.68 0.10 
14.85 2.55 -1.68 0.10 
14.89 2.27 -1.68 0.10 
14.94 1.99 -1.68 0.10 
14.97 1.71 -1.68 0.10 
15.00 1.42 -1.68 0.10 
15.03 1.14 -1.68 0.10 
15.04 0.86 -1.68 0.10 
15.06 0.57 -1.68 0.10 
15.07 0.29 -1.68 0.10 
15.07 -0.00 -1.68 0.10 
15.07 -0.29 -1.68 0.10 
15.06 -0.57 -1.68 0.10 
15.05 -0.86 -1.68 0.10 
15.03 -1.14 -1.68 0.10 
15.00 -1.42 -1.68 0.10 
14.98 -1.71 -1.68 0.10 
14.94 -1.99 -1.68 0.10 
14.90 -2.27 -1.68 0.10 
14.86 -2.56 -1.68 0.10 
14.80 -2.84 -1.68 0.10 
14.75 -3.12 -1.68 0.10 
14.69 -3.39 -1.68 0.10 
14.62 -3.67 -1.68 0.10 
14.55 -3.95 -1.68 0.10 
14.47 -4.22 -1.68 0.10 
14.39 -4.50 -1.68 0.10 
14.30 -4.77 -1.68 0.10 
14.21 -5.04 -1.68 0.10 
14.11 -5.31 -1.68 0.10 
14.01 -5.57 -1.68 0.10 
13.90 -5.84 -1.68 0.10 
13.79 -6.10 -1.68 0.10 
13.67 -6.36 -1.68 0.10 
13.55 -6.62 -1.68 0.10 
13.42 -6.87 -1.68 0.10 
13.29 -7.12 -1.68 0.10 
13.15 -7.37 -1.68 0.10 
13.01 -7.62 -1.68 0.10 
12.86 -7.87 -1.68 0.10 
12.71 -8.11 -1.68 0.10 
12.53 -8.33 -1.68 0.11 
12.34 -8.55 -1.68 0.11 
11.73 -8.46 -1.61 0.40 
11.14 -8.35 -1.55 0.46 
10.81 -8.43 -1.53 0.10 
10.65 -8.64 -1.53 0.10 
10.49 -8.84 -1.53 0.10 
10.32 -9.03 -1.53 0.10 
10.14 -9.23 -1.53 0.10 
9.97 -9.42 -1.53 0.10 
9.79 -9.60 -1.53 0.10 
9.60 -9.79 -1.53 0.10 
9.42 -9.97 -1.53 0.10 
9.23 -10.14 -1.53 0.10 
9.03 -10.32 -1.53 0.10 
8.84 -10.49 -1.53 0.10 
8.64 -10.65 -1.53 0.10 
7.28 -9.34 -1.32 0.66 
6.77 -9.03 -1.26 0.12 
8.02 -11.13 -1.53 0.10 
7.81 -11.27 -1.53 0.10 
7.59 -11.42 -1.53 0.10 
7.37 -11.56 -1.53 0.10 
7.15 -11.70 -1.53 0.10 
6.93 -11.83 -1.53 0.10 
6.71 -11.96 -1.53 0.10 
6.48 -12.09 -1.53 0.10 
6.25 -12.21 -1.53 0.10 
6.02 -12.32 -1.53 0.10 
5.78 -12.43 -1.53 0.10 
5.55 -12.54 -1.53 0.10 
5.31 -12.64 -1.53 0.10 
5.07 -12.74 -1.53 0.10 
4.83 -12.84 -1.53 0.10 
4.58 -12.93 -1.53 0.10 
4.34 -13.01 -1.53 0.10 
4.09 -13.09 -1.53 0.10 
3.84 -13.16 -1.53 0.10 
3.59 -13.23 -1.53 0.10 
3.34 -13.30 -1.53 0.10 
3.09 -13.36 -1.53 0.10 
2.83 -13.42 -1.53 0.10 
2.58 -13.47 -1.53 0.10 
2.32 -13.51 -1.53 0.10 
2.07 -13.55 -1.53 0.10 
1.81 -13.59 -1.53 0.10 
1.55 -13.62 -1.53 0.10 
1.30 -13.65 -1.53 0.10 
0.92 -12.13 -1.36 0.95 
0.78 -13.69 -1.53 0.10 
0.52 -13.70 -1.53 0.10 
0.26 -13.71 -1.53 0.10 
-0.00 -13.71 -1.53 0.10 
-0.26 -13.71 -1.53 0.10 
-0.52 -13.70 -1.53 0.10 
-0.78 -13.69 -1.53 0.10 
-1.04 -13.67 -1.53 0.10 
-1.30 -13.65 -1.53 0.10 
-1.55 -13.62 -1.53 0.10 
-1.81 -13.59 -1.53 0.10 
-2.07 -13.55 -1.53 0.10 
-2.32 -13.51 -1.53 0.10 
-2.58 -13.46 -1.53 0.10 
-2.83 -13.41 -1.53 0.10 
-3.09 -13.35 -1.53 0.10 
-3.34 -13.29 -1.53 0.10 
-3.59 -13.23 -1.53 0.10 
-3.84 -13.16 -1.53 0.10 
-4.09 -13.08 -1.53 0.10 
-4.33 -13.00 -1.53 0.10 
-4.58 -12.92 -1.53 0.10 
-4.82 -12.83 -1.53 0.10 
-5.06 -12.73 -1.53 0.10 
-5.30 -12.64 -1.53 0.10 
-5.54 -12.53 -1.53 0.10 
-5.78 -12.43 -1.53 0.10 
-6.01 -12.31 -1.53 0.10 
-6.24 -12.20 -1.53 0.10 
-6.47 -12.08 -1.53 0.10 
-2.05 -3.66 -0.47 0.37 
-2.07 -3.53 -0.46 0.42 
-2.08 -3.41 -0.45 0.41 
-2.10 -3.30 -0.44 0.52 
-2.13 -3.21 -0.43 0.52 
-2.17 -3.14 -0.43 0.72 
-2.23 -3.09 -0.43 0.87 
-2.30 -3.07 -0.43 0.77 
-2.40 -3.07 -0.44 0.75 
-2.49 -3.08 -0.44 0.77 
-2.59 -3.07 -0.45 0.76 
-2.69 -3.07 -0.46 0.68 
-2.80 -3.08 -0.46 0.67 
-2.91 -3.08 -0.47 0.63 
-3.05 -3.11 -0.49 0.49 
-9.78 -9.59 -1.53 0.10 
-9.95 -9.40 -1.53 0.10 
-10.13 -9.21 -1.53 0.10 
-10.30 -9.02 -1.53 0.10 
-10.47 -8.82 -1.53 0.10 
-10.64 -8.62 -1.53 0.10 
-10.80 -8.42 -1.53 0.10 
-10.95 -8.21 -1.53 0.10 
-11.11 -8.01 -1.53 0.10 
-11.30 -7.83 -1.53 0.45 
-11.76 -7.82 -1.58 0.53 
-12.24 -7.81 -1.62 0.51 
-12.76 -7.80 -1.67 0.50 
-12.96 -7.59 -1.68 0.11 
-13.13 -7.36 -1.68 0.11 
-13.27 -7.11 -1.68 0.10 
-13.40 -6.86 -1.68 0.10 
-13.53 -6.60 -1.68 0.10 
-13.65 -6.35 -1.68 0.10 
-13.77 -6.09 -1.68 0.10 
-13.88 -5.83 -1.68 0.10 
-13.99 -5.56 -1.68 0.10 
-14.09 -5.30 -1.68 0.10 
-14.19 -5.03 -1.68 0.10 
-14.28 -4.76 -1.68 0.10 
-14.36 -4.49 -1.68 0.10 
-14.45 -4.21 -1.68 0.10 
-14.52 -3.94 -1.68 0.10 
-14.02 -3.52 -1.61 0.23 
-14.66 -3.39 -1.68 0.10 
-14.72 -3.11 -1.68 0.10 
-14.78 -2.83 -1.68 0.10 
-14.83 -2.55 -1.68 0.10 
-14.87 -2.27 -1.68 0.10 
-14.91 -1.99 -1.68 0.10 
-9.81 -1.12 -1.10 0.08 
-9.56 -0.91 -1.07 0.90 
-9.51 -0.72 -1.07 0.91 
-9.47 -0.54 -1.06 0.95 
-9.45 -0.36 -1.06 0.95 
-9.44 -0.18 -1.05 0.95 
-9.44 -0.00 -1.07 0.95 
-9.45 0.18 -1.07 0.95 
-9.47 0.36 -1.07 0.95 
-9.52 0.54 -1.08 0.92 
-9.56 0.73 -1.08 0.91 
-10.02 0.95 -1.14 0.95 
-14.78 1.69 -1.68 0.11 
-14.75 1.97 -1.68 0.11 
-14.71 2.24 -1.68 0.11 
-14.66 2.52 -1.68 0.11 
-14.61 2.80 -1.68 0.11 
-14.56 3.07 -1.68 0.11 
-14.49 3.35 -1.68 0.11 
-14.43 3.62 -1.68 0.11 
-8.89 2.41 -1.04 0.25 
-8.33 2.43 -0.98 0.33 
-7.82 2.44 -0.92 0.29 
-7.33 2.44 -0.87 0.31 
-6.92 2.45 -0.83 0.34 
-6.56 2.47 -0.79 0.33 
-6.24 2.48 -0.76 0.35 
-5.94 2.49 -0.73 0.36 
-5.66 2.50 -0.70 0.34 
-5.50 2.56 -0.68 0.66 
-5.36 2.62 -0.67 0.67 
-5.23 2.68 -0.66 0.68 
-5.18 2.77 -0.66 0.79 
-5.16 2.89 -0.67 0.78 
-5.15 3.02 -0.67 0.77 
-5.14 3.14 -0.68 0.85 
-5.13 3.27 -0.69 0.85 
-5.12 3.40 -0.69 0.84 
-5.12 3.55 -0.70 0.76 
-5.13 3.70 -0.71 0.75 
-5.14 3.85 -0.73 0.74 
-5.15 4.01 -0.74 0.76 
-5.14 4.17 -0.75 0.74 
-11.37 9.58 -1.68 0.11 
-11.19 9.80 -1.68 0.11 
-11.00 10.01 -1.68 0.11 
-10.81 10.21 -1.68 0.11 
-10.61 10.42 -1.68 0.11 
-10.42 10.61 -1.68 0.11 
-10.20 10.79 -1.68 0.12 
-9.97 10.97 -1.67 0.12 
-5.39 6.15 -0.92 0.14 
-5.07 6.01 -0.89 0.55 
-5.07 6.25 -0.91 0.24 
-4.68 6.00 -0.86 0.83 
-4.51 6.02 -0.85 0.84 
-4.34 6.03 -0.84 0.77 
-4.18 6.04 -0.83 0.80 
-4.01 6.04 -0.82 0.81 
-3.85 6.04 -0.81 0.81 
-3.69 6.03 -0.80 0.82 
-3.53 6.03 -0.79 0.83 
-3.38 6.03 -0.78 0.84 
-3.23 6.03 -0.77 0.86 
-3.09 6.03 -0.76 0.86 
-2.95 6.03 -0.76 0.87 
-2.81 6.03 -0.75 0.89 
-2.67 6.04 -0.74 0.90 
-2.53 6.04 -0.74 0.89 
-2.40 6.03 -0.73 0.88 
-2.27 6.04 -0.73 0.92 
-2.14 6.04 -0.72 0.92 
-2.02 6.05 -0.72 0.88 
-1.89 6.05 -0.72 0.93 
-1.77 6.06 -0.71 0.93 
-1.65 6.08 -0.71 0.95 
-1.54 6.12 -0.71 0.95 
-1.42 6.15 -0.71 0.97 
-1.31 6.19 -0.71 0.92 
-1.20 6.26 -0.72 0.91 
-1.09 6.33 -0.73 0.88 
-1.00 6.56 -0.75 0.46 
-0.95 7.13 -0.81 0.09 
-1.53 13.44 -1.53 0.11 
-1.28 13.46 -1.53 0.11 
-1.02 13.49 -1.53 0.11 
-0.77 13.50 -1.53 0.11 
-0.51 13.52 -1.53 0.11 
-0.26 13.52 -1.53 0.11 
0.00 13.53 -1.53 0.11 
0.26 13.52 -1.53 0.11 
0.51 13.52 -1.53 0.11 
0.77 13.50 -1.53 0.11 
1.02 13.49 -1.53 0.11 
1.28 13.47 -1.53 0.11 
1.53 13.44 -1.53 0.11 
1.79 13.41 -1.53 0.11 
2.04 13.37 -1.53 0.11 
2.29 13.33 -1.53 0.11 
2.55 13.29 -1.53 0.11 
2.80 13.24 -1.53 0.11 
3.05 13.18 -1.53 0.11 
3.30 13.12 -1.53 0.11 
3.54 13.06 -1.53 0.11 
3.79 12.99 -1.53 0.11 
4.03 12.91 -1.53 0.11 
4.28 12.84 -1.53 0.11 
4.21 11.87 -1.42 0.33 
4.36 11.61 -1.40 0.88 
5.00 12.57 -1.53 0.11 
5.24 12.48 -1.53 0.11 
5.47 12.38 -1.53 0.11 
5.71 12.27 -1.53 0.11 
5.94 12.16 -1.53 0.11 
6.17 12.05 -1.53 0.11 
6.39 11.93 -1.53 0.11 
6.62 11.81 -1.53 0.11 
6.84 11.68 -1.53 0.11 
7.06 11.55 -1.53 0.11 
7.28 11.41 -1.53 0.11 
7.49 11.27 -1.53 0.11 
7.71 11.13 -1.53 0.11 
7.96 11.04 -1.54 0.80 
8.26 11.02 -1.55 0.79 
8.58 11.00 -1.57 0.79 
6.34 7.82 -1.14 0.22 
6.18 7.34 -1.08 0.38 
6.14 7.01 -1.05 0.55 
6.14 6.75 -1.03 0.69 
6.17 6.53 -1.01 0.70 
6.23 6.35 -1.00 0.81 
6.28 6.16 -0.99 0.78 
6.33 5.98 -0.98 0.92 
6.44 5.86 -0.98 0.88 
6.64 5.81 -1.00 0.63 
6.90 5.81 -1.02 0.62 
7.17 5.81 -1.04 0.60 
7.49 5.84 -1.07 0.58 
7.79 5.84 -1.10 0.57 
8.11 5.85 -1.13 0.54 
5.54 3.84 -0.76 0.55 
5.52 3.67 -0.75 0.61 
5.50 3.51 -0.74 0.66 
5.50 3.36 -0.73 0.67 
5.51 3.23 -0.72 0.73 
5.53 3.10 -0.72 0.76 
5.56 2.98 -0.71 0.72 
5.60 2.87 -0.71 0.71 
5.75 2.81 -0.72 0.48 
5.72 2.66 -0.71 0.93 
6.29 2.78 -0.78 0.39 
6.66 2.80 -0.82 0.29 
13.85 5.51 -1.68 0.11 
13.95 5.24 -1.68 0.11 
14.04 4.98 -1.68 0.11 
14.14 4.71 -1.68 0.11 
14.22 4.44 -1.68 0.11 
14.31 4.17 -1.68 0.11 
14.38 3.90 -1.68 0.11 
14.45 3.63 -1.68 0.11 
14.52 3.36 -1.68 0.11 
14.58 3.08 -1.68 0.11 
14.64 2.80 -1.68 0.11 
14.69 2.53 -1.68 0.11 
14.73 2.25 -1.68 0.11 
14.77 1.97 -1.68 0.11 
14.81 1.69 -1.68 0.11 
14.84 1.41 -1.68 0.11 
