VERSION 0.7
FIELDS x y z intensity
SIZE 4 4 4 8
TYPE F F F F
COUNT 1 1 1 1
WIDTH 1996
HEIGHT 1
VIEWPOINT 0.0 0.0 0.0 1.0 0.0 0.0 0.0
POINTS 1996
DATA ascii
7.82 11.30 -1.50 0.10 
8.04 11.15 -1.50 0.10 
8.25 10.99 -1.50 0.10 
8.45 10.84 -1.50 0.10 
8.68 10.70 -1.50 0.66 
8.97 10.65 -1.52 0.82 
9.27 10.59 -1.54 0.81 
9.58 10.53 -1.55 0.80 
9.89 10.47 -1.57 0.80 
10.21 10.40 -1.59 0.79 
10.53 10.33 -1.61 0.78 
10.86 10.26 -1.63 0.78 
11.15 10.14 -1.65 0.12 
11.35 9.94 -1.65 0.12 
11.56 9.74 -1.65 0.12 
11.76 9.53 -1.65 0.10 
11.94 9.31 -1.65 0.10 
12.11 9.08 -1.65 0.10 
12.28 8.85 -1.65 0.10 
12.45 8.62 -1.65 0.10 
12.61 8.38 -1.65 0.10 
12.77 8.15 -1.65 0.10 
12.93 7.90 -1.65 0.10 
13.08 7.66 -1.66 0.10 
13.22 7.41 -1.66 0.10 
13.36 7.16 -1.66 0.10 
13.50 6.91 -1.66 0.10 
13.63 6.65 -1.66 0.10 
13.76 6.40 -1.66 0.10 
13.88 6.14 -1.66 0.10 
13.99 5.87 -1.66 0.10 
14.11 5.61 -1.66 0.10 
14.21 5.34 -1.66 0.10 
14.32 5.07 -1.66 0.10 
14.41 4.80 -1.66 0.10 
14.50 4.53 -1.66 0.10 
14.59 4.26 -1.66 0.10 
14.67 3.98 -1.66 0.10 
14.75 3.70 -1.66 0.10 
14.82 3.43 -1.66 0.10 
14.89 3.14 -1.66 0.10 
14.95 2.86 -1.66 0.10 
15.00 2.58 -1.66 0.10 
15.06 2.30 -1.66 0.10 
15.10 2.01 -1.66 0.10 
15.14 1.73 -1.66 0.10 
15.17 1.44 -1.66 0.10 
15.20 1.15 -1.67 0.10 
15.23 0.87 -1.67 0.10 
15.25 0.58 -1.67 0.10 
15.26 0.29 -1.67 0.10 
15.27 -0.00 -1.67 0.10 
15.27 -0.29 -1.67 0.10 
15.27 -0.58 -1.67 0.10 
15.26 -0.87 -1.67 0.10 
15.24 -1.16 -1.67 0.10 
15.22 -1.44 -1.67 0.10 
15.20 -1.73 -1.67 0.10 
15.17 -2.02 -1.67 0.10 
15.13 -2.31 -1.67 0.10 
15.09 -2.60 -1.67 0.10 
15.04 -2.88 -1.67 0.10 
14.99 -3.17 -1.67 0.10 
14.93 -3.45 -1.67 0.10 
14.87 -3.73 -1.67 0.10 
14.80 -4.02 -1.68 0.10 
14.73 -4.30 -1.68 0.10 
14.65 -4.58 -1.68 0.10 
14.57 -4.86 -1.68 0.10 
14.48 -5.13 -1.68 0.10 
14.38 -5.41 -1.68 0.10 
14.28 -5.68 -1.68 0.10 
14.18 -5.95 -1.68 0.10 
14.07 -6.22 -1.68 0.10 
13.95 -6.49 -1.68 0.10 
13.83 -6.75 -1.68 0.10 
6.60 -3.38 -0.81 0.20 
6.51 -3.49 -0.81 0.34 
6.17 -3.46 -0.77 0.37 
5.87 -3.44 -0.74 0.45 
5.64 -3.45 -0.72 0.50 
5.43 -3.46 -0.70 0.56 
5.27 -3.50 -0.69 0.75 
5.21 -3.61 -0.69 0.78 
5.17 -3.72 -0.70 0.72 
5.13 -3.85 -0.70 0.75 
5.11 -3.99 -0.71 0.65 
5.10 -4.14 -0.72 0.57 
11.15 -9.39 -1.59 0.37 
10.58 -9.27 -1.54 0.10 
10.41 -9.47 -1.54 0.10 
10.23 -9.67 -1.54 0.10 
10.05 -9.86 -1.54 0.10 
9.87 -10.06 -1.54 0.10 
9.68 -10.24 -1.54 0.10 
9.49 -10.43 -1.54 0.10 
9.29 -10.61 -1.54 0.10 
9.09 -10.79 -1.54 0.10 
8.89 -10.96 -1.54 0.10 
8.68 -11.13 -1.54 0.10 
8.47 -11.30 -1.54 0.10 
8.26 -11.46 -1.54 0.10 
8.04 -11.62 -1.54 0.10 
7.82 -11.77 -1.54 0.10 
7.60 -11.92 -1.54 0.10 
7.38 -12.07 -1.54 0.10 
7.15 -12.21 -1.55 0.10 
6.92 -12.34 -1.55 0.10 
6.69 -12.48 -1.55 0.10 
6.45 -12.60 -1.55 0.10 
6.21 -12.73 -1.55 0.10 
5.97 -12.85 -1.55 0.10 
5.73 -12.96 -1.55 0.10 
5.49 -13.07 -1.55 0.10 
5.24 -13.18 -1.55 0.10 
4.99 -13.28 -1.55 0.10 
4.74 -13.37 -1.55 0.10 
4.49 -13.46 -1.55 0.10 
4.23 -13.55 -1.55 0.10 
3.98 -13.63 -1.55 0.10 
3.72 -13.71 -1.55 0.10 
3.46 -13.78 -1.55 0.10 
3.20 -13.84 -1.55 0.10 
2.94 -13.90 -1.55 0.10 
2.67 -13.96 -1.55 0.10 
2.41 -14.01 -1.55 0.10 
2.14 -14.06 -1.55 0.10 
1.65 -12.38 -1.36 0.38 
1.61 -14.13 -1.55 0.10 
1.32 -13.91 -1.53 0.09 
1.00 -13.23 -1.45 0.94 
0.75 -13.28 -1.45 0.93 
0.50 -13.33 -1.46 0.93 
0.27 -14.24 -1.56 0.10 
0.00 -8.03 -0.88 0.95 
-0.27 -14.24 -1.56 0.10 
-0.54 -14.24 -1.56 0.10 
-0.81 -14.23 -1.56 0.10 
-1.08 -14.21 -1.56 0.10 
-1.35 -14.19 -1.56 0.10 
-1.62 -14.16 -1.56 0.10 
-1.88 -14.13 -1.56 0.10 
-2.15 -14.09 -1.56 0.10 
-2.42 -14.05 -1.56 0.10 
-2.68 -14.01 -1.56 0.10 
-2.95 -13.95 -1.56 0.10 
-3.21 -13.90 -1.56 0.10 
-3.47 -13.83 -1.56 0.10 
-3.74 -13.77 -1.56 0.10 
-4.00 -13.69 -1.56 0.10 
-4.25 -13.62 -1.56 0.10 
-4.51 -13.54 -1.56 0.10 
-4.77 -13.45 -1.56 0.10 
-5.02 -13.36 -1.56 0.10 
-5.27 -13.26 -1.56 0.10 
-5.31 -12.64 -1.50 0.90 
-5.65 -12.77 -1.52 0.59 
-6.02 -12.94 -1.56 0.10 
-6.26 -12.82 -1.56 0.10 
-6.50 -12.70 -1.56 0.10 
-6.74 -12.58 -1.56 0.10 
-6.98 -12.45 -1.56 0.10 
-7.21 -12.31 -1.56 0.10 
-7.44 -12.17 -1.56 0.10 
-7.67 -12.03 -1.56 0.10 
-7.90 -11.88 -1.56 0.10 
-8.12 -11.73 -1.56 0.10 
-8.34 -11.57 -1.56 0.10 
-8.56 -11.41 -1.56 0.10 
-8.77 -11.25 -1.56 0.10 
-8.98 -11.08 -1.56 0.10 
-9.19 -10.91 -1.56 0.10 
-9.39 -10.73 -1.56 0.10 
-9.59 -10.55 -1.56 0.10 
-9.79 -10.36 -1.56 0.10 
-9.98 -10.18 -1.56 0.10 
-10.17 -9.98 -1.56 0.10 
-10.36 -9.79 -1.56 0.10 
-10.54 -9.59 -1.56 0.10 
-10.72 -9.39 -1.56 0.10 
-10.89 -9.18 -1.56 0.10 
-11.06 -8.97 -1.56 0.10 
-11.34 -8.85 -1.57 0.45 
-11.92 -8.94 -1.63 0.43 
-12.55 -9.04 -1.69 0.41 
-12.84 -8.89 -1.71 0.11 
-13.03 -8.66 -1.71 0.10 
-13.19 -8.41 -1.71 0.10 
-13.35 -8.16 -1.71 0.10 
-13.50 -7.91 -1.71 0.10 
-13.64 -7.65 -1.71 0.10 
-13.78 -7.39 -1.71 0.10 
-13.92 -7.12 -1.71 0.10 
-14.04 -6.86 -1.71 0.10 
-14.17 -6.59 -1.71 0.10 
-14.29 -6.32 -1.71 0.10 
-14.40 -6.05 -1.71 0.10 
-14.51 -5.77 -1.71 0.10 
-13.23 -4.97 -1.54 0.72 
-14.71 -5.21 -1.70 0.10 
-14.80 -4.93 -1.70 0.10 
-14.89 -4.65 -1.70 0.10 
-14.97 -4.37 -1.70 0.10 
-15.05 -4.08 -1.70 0.10 
-15.12 -3.80 -1.70 0.10 
-15.18 -3.51 -1.70 0.10 
-15.24 -3.22 -1.70 0.10 
-15.29 -2.93 -1.70 0.10 
-10.31 -1.77 -1.14 0.62 
-10.22 -1.56 -1.13 0.93 
-10.21 -1.36 -1.12 0.94 
-10.21 -1.16 -1.12 0.96 
-10.23 -0.97 -1.12 0.95 
-10.25 -0.78 -1.12 0.94 
-10.30 -0.59 -1.13 0.94 
-10.36 -0.39 -1.13 0.93 
-10.44 -0.20 -1.14 0.88 
-10.53 -0.00 -1.16 0.87 
-15.35 0.29 -1.69 0.10 
-15.33 0.58 -1.69 0.10 
-15.31 0.87 -1.69 0.10 
-15.29 1.16 -1.69 0.10 
-15.26 1.45 -1.69 0.10 
-15.22 1.74 -1.69 0.10 
-15.18 2.02 -1.69 0.10 
-15.14 2.31 -1.69 0.10 
-15.09 2.59 -1.69 0.10 
-15.03 2.88 -1.69 0.10 
-14.97 3.16 -1.69 0.10 
-14.90 3.44 -1.69 0.10 
-14.83 3.72 -1.69 0.10 
-14.75 4.00 -1.69 0.10 
-14.66 4.28 -1.69 0.10 
-14.58 4.55 -1.69 0.10 
-14.48 4.83 -1.69 0.10 
-14.38 5.10 -1.68 0.10 
-14.28 5.37 -1.68 0.10 
-12.25 4.87 -1.46 0.50 
-11.79 4.95 -1.41 0.51 
-13.94 6.16 -1.68 0.10 
-13.81 6.42 -1.68 0.10 
-13.68 6.68 -1.68 0.10 
-13.55 6.94 -1.68 0.10 
-12.47 6.69 -1.56 0.58 
-12.21 6.85 -1.55 0.55 
-13.12 7.69 -1.68 0.10 
-12.97 7.93 -1.68 0.10 
-12.81 8.17 -1.68 0.10 
-12.65 8.41 -1.68 0.10 
-12.48 8.64 -1.68 0.10 
-12.31 8.88 -1.68 0.10 
-12.14 9.10 -1.68 0.10 
-11.96 9.33 -1.67 0.10 
-11.78 9.55 -1.67 0.10 
-11.59 9.77 -1.67 0.10 
-11.39 9.98 -1.67 0.12 
-11.18 10.17 -1.67 0.12 
-10.97 10.36 -1.67 0.12 
-10.70 10.50 -1.66 0.77 
-10.37 10.57 -1.63 0.78 
-10.04 10.63 -1.61 0.79 
-9.72 10.68 -1.59 0.80 
-9.40 10.74 -1.58 0.81 
-9.10 10.79 -1.56 0.80 
-8.79 10.84 -1.54 0.81 
-8.49 10.89 -1.52 0.82 
-8.24 10.98 -1.52 0.10 
-8.03 11.13 -1.52 0.10 
-7.81 11.28 -1.52 0.10 
-7.59 11.42 -1.51 0.10 
-7.37 11.56 -1.51 0.10 
-7.15 11.69 -1.51 0.10 
-6.93 11.82 -1.51 0.10 
-6.70 11.95 -1.51 0.10 
-6.47 12.07 -1.51 0.11 
-6.24 12.19 -1.51 0.11 
-6.01 12.30 -1.51 0.11 
-5.77 12.41 -1.51 0.11 
-5.53 12.51 -1.51 0.11 
-5.29 12.61 -1.51 0.11 
-5.05 12.71 -1.51 0.11 
-4.81 12.80 -1.51 0.11 
-4.57 12.88 -1.51 0.11 
-4.32 12.96 -1.51 0.11 
-4.07 13.04 -1.51 0.11 
-3.83 13.11 -1.51 0.11 
-3.58 13.18 -1.51 0.11 
-3.32 13.24 -1.51 0.11 
-3.07 13.30 -1.51 0.11 
-2.82 13.35 -1.51 0.11 
-2.57 13.40 -1.51 0.11 
-2.31 13.44 -1.51 0.11 
-2.06 13.48 -1.51 0.11 
-1.80 13.51 -1.51 0.11 
-1.54 13.54 -1.51 0.11 
-1.29 13.57 -1.50 0.11 
-1.03 13.59 -1.50 0.11 
-0.77 13.60 -1.50 0.11 
-0.52 13.61 -1.50 0.11 
-0.26 13.62 -1.50 0.11 
0.00 13.62 -1.50 0.11 
0.26 13.61 -1.50 0.11 
0.52 13.60 -1.50 0.11 
0.77 13.59 -1.50 0.11 
1.03 13.57 -1.50 0.11 
1.29 13.55 -1.50 0.11 
1.54 13.52 -1.50 0.11 
1.80 13.48 -1.50 0.11 
2.05 13.45 -1.50 0.11 
2.31 13.40 -1.50 0.11 
2.56 13.36 -1.50 0.11 
2.81 13.31 -1.50 0.11 
3.06 13.25 -1.50 0.11 
3.31 13.19 -1.50 0.11 
3.56 13.12 -1.50 0.11 
3.81 13.05 -1.50 0.11 
4.05 12.98 -1.50 0.11 
4.30 12.90 -1.50 0.11 
4.54 12.81 -1.50 0.11 
4.78 12.72 -1.50 0.11 
5.02 12.63 -1.50 0.11 
5.26 12.53 -1.50 0.11 
5.50 12.43 -1.50 0.11 
5.73 12.32 -1.50 0.11 
5.96 12.21 -1.50 0.11 
5.99 11.71 -1.45 0.37 
6.18 11.54 -1.45 0.86 
6.65 11.86 -1.50 0.11 
6.87 11.73 -1.50 0.11 
7.09 11.60 -1.50 0.11 
7.31 11.46 -1.50 0.11 
7.53 11.32 -1.50 0.11 
7.74 11.18 -1.50 0.11 
7.95 11.03 -1.50 0.11 
8.16 10.88 -1.50 0.11 
8.39 10.75 -1.51 0.66 
8.67 10.70 -1.52 0.83 
8.97 10.64 -1.54 0.82 
9.27 10.59 -1.55 0.81 
9.58 10.53 -1.57 0.80 
9.89 10.47 -1.59 0.80 
10.21 10.40 -1.61 0.79 
10.53 10.33 -1.63 0.78 
10.83 10.23 -1.65 0.12 
11.04 10.04 -1.65 0.12 
11.25 9.85 -1.65 0.12 
11.45 9.65 -1.65 0.11 
11.63 9.43 -1.65 0.11 
11.81 9.21 -1.65 0.11 
11.98 8.98 -1.65 0.11 
12.15 8.76 -1.65 0.11 
12.32 8.53 -1.65 0.11 
12.48 8.29 -1.65 0.10 
12.63 8.06 -1.65 0.10 
12.79 7.82 -1.66 0.10 
12.94 7.58 -1.66 0.10 
13.08 7.33 -1.66 0.10 
13.22 7.09 -1.66 0.10 
13.35 6.84 -1.66 0.10 
13.48 6.58 -1.66 0.10 
13.61 6.33 -1.66 0.10 
13.73 6.07 -1.66 0.10 
13.84 5.81 -1.66 0.10 
13.95 5.55 -1.66 0.10 
14.06 5.29 -1.66 0.10 
14.16 5.02 -1.66 0.10 
14.26 4.75 -1.66 0.10 
14.35 4.48 -1.66 0.10 
14.43 4.21 -1.66 0.10 
14.51 3.94 -1.66 0.10 
14.59 3.66 -1.66 0.10 
14.66 3.39 -1.66 0.10 
14.73 3.11 -1.66 0.10 
14.79 2.83 -1.66 0.10 
14.84 2.55 -1.66 0.10 
14.89 2.27 -1.66 0.10 
14.94 1.99 -1.66 0.10 
14.98 1.71 -1.66 0.10 
15.01 1.42 -1.66 0.10 
15.04 1.14 -1.67 0.10 
15.06 0.86 -1.67 0.10 
15.08 0.57 -1.67 0.10 
15.09 0.29 -1.67 0.10 
15.10 -0.00 -1.67 0.10 
15.10 -0.29 -1.67 0.10 
15.10 -0.57 -1.67 0.10 
15.09 -0.86 -1.67 0.10 
15.08 -1.14 -1.67 0.10 
15.06 -1.43 -1.67 0.10 
15.03 -1.71 -1.67 0.10 
15.00 -2.00 -1.67 0.10 
14.97 -2.28 -1.67 0.10 
14.93 -2.57 -1.67 0.10 
14.88 -2.85 -1.67 0.10 
14.83 -3.13 -1.67 0.10 
14.77 -3.41 -1.67 0.10 
14.71 -3.69 -1.67 0.10 
14.64 -3.97 -1.68 0.10 
14.57 -4.25 -1.68 0.10 
14.49 -4.53 -1.68 0.10 
14.41 -4.80 -1.68 0.10 
14.32 -5.08 -1.68 0.10 
14.23 -5.35 -1.68 0.10 
14.13 -5.62 -1.68 0.10 
14.02 -5.89 -1.68 0.10 
13.91 -6.15 -1.68 0.10 
13.80 -6.42 -1.68 0.10 
13.68 -6.68 -1.68 0.10 
13.56 -6.94 -1.68 0.10 
6.51 -3.49 -0.82 0.34 
6.16 -3.45 -0.78 0.37 
5.87 -3.44 -0.75 0.48 
5.63 -3.44 -0.73 0.50 
5.42 -3.46 -0.71 0.56 
5.26 -3.50 -0.70 0.76 
5.20 -3.60 -0.70 0.78 
5.16 -3.72 -0.70 0.72 
5.12 -3.84 -0.71 0.76 
5.11 -3.98 -0.72 0.60 
5.10 -4.13 -0.72 0.57 
11.14 -9.39 -1.61 0.37 
10.50 -9.20 -1.54 0.34 
10.30 -9.36 -1.54 0.10 
10.12 -9.56 -1.54 0.10 
9.94 -9.75 -1.54 0.10 
9.76 -9.94 -1.54 0.10 
9.57 -10.13 -1.54 0.10 
9.38 -10.31 -1.54 0.10 
9.19 -10.49 -1.54 0.10 
8.99 -10.67 -1.54 0.10 
8.79 -10.84 -1.54 0.10 
8.59 -11.01 -1.54 0.10 
8.38 -11.17 -1.54 0.10 
8.17 -11.33 -1.54 0.10 
7.95 -11.49 -1.54 0.10 
7.74 -11.64 -1.54 0.10 
7.52 -11.79 -1.54 0.10 
7.30 -11.93 -1.54 0.10 
7.07 -12.07 -1.54 0.10 
6.84 -12.21 -1.55 0.10 
6.61 -12.34 -1.55 0.10 
6.38 -12.46 -1.55 0.10 
6.15 -12.59 -1.55 0.10 
5.91 -12.70 -1.55 0.10 
5.67 -12.82 -1.55 0.10 
5.43 -12.93 -1.55 0.10 
5.18 -13.03 -1.55 0.10 
4.94 -13.13 -1.55 0.10 
4.69 -13.22 -1.55 0.10 
4.44 -13.31 -1.55 0.10 
4.19 -13.40 -1.55 0.10 
3.93 -13.48 -1.55 0.10 
3.68 -13.55 -1.55 0.10 
3.42 -13.62 -1.55 0.10 
3.16 -13.69 -1.55 0.10 
2.90 -13.75 -1.55 0.10 
2.64 -13.81 -1.55 0.10 
2.38 -13.86 -1.55 0.10 
2.12 -13.90 -1.55 0.10 
1.86 -13.94 -1.55 0.10 
1.59 -13.98 -1.55 0.10 
1.32 -13.91 -1.54 0.09 
1.00 -13.23 -1.47 0.94 
0.75 -13.28 -1.47 0.93 
0.50 -13.33 -1.47 0.93 
0.27 -14.08 -1.55 0.10 
0.00 -8.02 -0.89 0.95 
-0.27 -14.08 -1.56 0.10 
-0.53 -14.08 -1.56 0.10 
-0.80 -14.07 -1.56 0.10 
-1.07 -14.05 -1.56 0.10 
-1.33 -14.03 -1.56 0.10 
-1.60 -14.00 -1.56 0.10 
-1.86 -13.97 -1.56 0.10 
-2.13 -13.94 -1.56 0.10 
-2.39 -13.90 -1.56 0.10 
-2.65 -13.85 -1.56 0.10 
-2.91 -13.80 -1.56 0.10 
-3.18 -13.74 -1.56 0.10 
-3.44 -13.68 -1.56 0.10 
-3.69 -13.61 -1.56 0.10 
-3.95 -13.54 -1.56 0.10 
-4.21 -13.47 -1.56 0.10 
-4.46 -13.38 -1.56 0.10 
-4.71 -13.30 -1.56 0.10 
-4.96 -13.21 -1.56 0.10 
-5.21 -13.11 -1.56 0.10 
-5.31 -12.64 -1.51 0.87 
-5.65 -12.77 -1.54 0.41 
-5.95 -12.79 -1.56 0.10 
-6.19 -12.68 -1.56 0.10 
-6.43 -12.56 -1.56 0.10 
-6.67 -12.44 -1.56 0.10 
-6.90 -12.31 -1.56 0.10 
-7.13 -12.17 -1.56 0.10 
-7.36 -12.04 -1.56 0.10 
-7.59 -11.90 -1.56 0.10 
-7.81 -11.75 -1.56 0.10 
-8.03 -11.60 -1.56 0.10 
-8.25 -11.44 -1.56 0.10 
-8.46 -11.28 -1.56 0.10 
-8.67 -11.12 -1.56 0.10 
-8.88 -10.96 -1.56 0.10 
-9.09 -10.78 -1.56 0.10 
-9.29 -10.61 -1.56 0.10 
-9.49 -10.43 -1.56 0.10 
-9.68 -10.25 -1.56 0.10 
-9.87 -10.06 -1.56 0.10 
-10.06 -9.87 -1.56 0.10 
-10.24 -9.68 -1.56 0.10 
-10.42 -9.48 -1.56 0.10 
-10.60 -9.28 -1.56 0.10 
-10.77 -9.08 -1.56 0.10 
-10.94 -8.87 -1.56 0.10 
-11.34 -8.84 -1.59 0.45 
-11.92 -8.94 -1.65 0.43 
-12.51 -9.01 -1.70 0.11 
-12.70 -8.80 -1.71 0.11 
-12.89 -8.57 -1.71 0.10 
-13.05 -8.32 -1.71 0.10 
-13.20 -8.07 -1.71 0.10 
-13.35 -7.82 -1.71 0.10 
-13.49 -7.56 -1.71 0.10 
-13.63 -7.30 -1.71 0.10 
-13.76 -7.04 -1.71 0.10 
-13.89 -6.78 -1.71 0.10 
-14.01 -6.52 -1.71 0.10 
-14.13 -6.25 -1.71 0.10 
-14.24 -5.98 -1.71 0.10 
-14.35 -5.71 -1.71 0.10 
-13.24 -4.98 -1.56 0.72 
-14.55 -5.16 -1.70 0.10 
-14.64 -4.88 -1.70 0.10 
-14.72 -4.60 -1.70 0.10 
-14.80 -4.32 -1.70 0.10 
-14.88 -4.04 -1.70 0.10 
-14.95 -3.75 -1.70 0.10 
-15.01 -3.47 -1.70 0.10 
-15.07 -3.18 -1.70 0.10 
-15.13 -2.90 -1.70 0.10 
-10.31 -1.77 -1.15 0.62 
-10.22 -1.56 -1.14 0.93 
-10.21 -1.36 -1.14 0.94 
-10.21 -1.16 -1.13 0.96 
-10.23 -0.97 -1.13 0.95 
-10.25 -0.78 -1.14 0.94 
-10.30 -0.59 -1.14 0.94 
-10.36 -0.39 -1.14 0.93 
-10.44 -0.20 -1.15 0.88 
-10.53 -0.00 -1.18 0.87 
-15.18 0.29 -1.69 0.10 
-15.16 0.57 -1.69 0.10 
-15.15 0.86 -1.69 0.10 
-15.12 1.15 -1.69 0.10 
-15.09 1.43 -1.69 0.10 
-15.06 1.72 -1.69 0.10 
-15.02 2.00 -1.69 0.10 
-14.97 2.28 -1.69 0.10 
-14.92 2.57 -1.69 0.10 
-14.87 2.85 -1.69 0.10 
-14.80 3.13 -1.69 0.10 
-14.74 3.41 -1.69 0.10 
-14.66 3.68 -1.69 0.10 
-14.59 3.96 -1.69 0.10 
-14.50 4.23 -1.69 0.10 
-14.42 4.50 -1.69 0.10 
-14.32 4.77 -1.69 0.10 
-14.23 5.04 -1.68 0.10 
-14.12 5.31 -1.68 0.10 
-12.25 4.87 -1.47 0.50 
-11.79 4.95 -1.43 0.51 
-13.78 6.10 -1.68 0.10 
-13.66 6.35 -1.68 0.10 
-13.53 6.61 -1.68 0.10 
-13.40 6.86 -1.68 0.10 
-12.47 6.69 -1.58 0.58 
-12.24 6.86 -1.57 0.32 
-12.98 7.60 -1.68 0.10 
-12.83 7.84 -1.68 0.10 
-12.67 8.08 -1.68 0.10 
-12.51 8.32 -1.68 0.10 
-12.35 8.55 -1.68 0.10 
-12.18 8.78 -1.68 0.10 
-12.01 9.01 -1.68 0.10 
-11.83 9.23 -1.67 0.10 
-11.65 9.45 -1.67 0.10 
-11.47 9.66 -1.67 0.10 
-11.28 9.87 -1.67 0.10 
-11.07 10.07 -1.67 0.12 
-10.86 10.26 -1.67 0.12 
-10.65 10.45 -1.67 0.12 
-10.37 10.56 -1.65 0.78 
-10.04 10.62 -1.63 0.79 
-9.72 10.68 -1.61 0.80 
-9.40 10.74 -1.59 0.81 
-9.09 10.79 -1.58 0.80 
-8.79 10.84 -1.56 0.81 
-8.49 10.89 -1.54 0.82 
-8.20 10.93 -1.53 0.83 
-7.94 11.01 -1.52 0.11 
-7.73 11.16 -1.52 0.11 
-7.51 11.30 -1.51 0.11 
-7.29 11.44 -1.51 0.11 
-7.07 11.57 -1.51 0.11 
-6.85 11.70 -1.51 0.11 
-6.63 11.82 -1.51 0.11 
-6.40 11.94 -1.51 0.11 
-6.17 12.06 -1.51 0.11 
-5.94 12.17 -1.51 0.11 
-5.71 12.28 -1.51 0.11 
-5.47 12.38 -1.51 0.11 
-5.24 12.48 -1.51 0.11 
-5.00 12.57 -1.51 0.11 
-4.76 12.66 -1.51 0.11 
-4.52 12.74 -1.51 0.11 
-4.27 12.82 -1.51 0.11 
-4.03 12.90 -1.51 0.11 
-3.78 12.97 -1.51 0.11 
-3.54 13.04 -1.51 0.11 
-3.29 13.10 -1.51 0.11 
-3.04 13.15 -1.51 0.11 
-2.79 13.21 -1.51 0.11 
-2.54 13.25 -1.51 0.11 
-2.29 13.30 -1.51 0.11 
-2.03 13.34 -1.51 0.11 
-1.78 13.37 -1.51 0.11 
-1.53 13.40 -1.51 0.11 
-1.27 13.42 -1.51 0.11 
-1.02 13.44 -1.50 0.11 
-0.76 13.46 -1.50 0.11 
-0.51 13.47 -1.50 0.11 
-0.25 13.47 -1.50 0.11 
0.00 13.47 -1.50 0.11 
0.25 13.47 -1.50 0.11 
0.51 13.46 -1.50 0.11 
0.76 13.44 -1.50 0.11 
1.02 13.43 -1.50 0.11 
1.27 13.40 -1.50 0.11 
1.53 13.37 -1.50 0.11 
1.78 13.34 -1.50 0.11 
2.03 13.30 -1.50 0.11 
2.28 13.26 -1.50 0.11 
2.53 13.21 -1.50 0.11 
2.78 13.16 -1.50 0.11 
3.03 13.11 -1.50 0.11 
3.28 13.05 -1.50 0.11 
3.52 12.98 -1.50 0.11 
3.77 12.91 -1.50 0.11 
4.01 12.84 -1.50 0.11 
4.25 12.76 -1.50 0.11 
4.49 12.68 -1.50 0.11 
4.73 12.59 -1.50 0.11 
4.97 12.50 -1.50 0.11 
5.20 12.40 -1.50 0.11 
5.44 12.30 -1.50 0.11 
5.67 12.19 -1.50 0.11 
5.90 12.08 -1.50 0.11 
5.99 11.71 -1.47 0.37 
6.18 11.54 -1.46 0.86 
6.58 11.73 -1.50 0.11 
6.80 11.60 -1.50 0.11 
7.02 11.47 -1.50 0.11 
7.23 11.34 -1.50 0.11 
7.45 11.20 -1.50 0.11 
7.66 11.06 -1.50 0.11 
7.86 10.91 -1.50 0.11 
8.10 10.80 -1.51 0.66 
8.38 10.75 -1.52 0.83 
8.67 10.70 -1.54 0.83 
8.97 10.64 -1.55 0.82 
9.27 10.58 -1.57 0.81 
9.57 10.53 -1.59 0.80 
9.89 10.46 -1.61 0.80 
10.20 10.40 -1.63 0.79 
10.52 10.32 -1.65 0.12 
10.73 10.14 -1.65 0.12 
10.94 9.95 -1.65 0.12 
11.14 9.75 -1.65 0.12 
11.32 9.54 -1.65 0.11 
11.50 9.33 -1.65 0.11 
11.68 9.11 -1.65 0.11 
11.85 8.89 -1.65 0.11 
12.02 8.66 -1.65 0.11 
12.18 8.44 -1.65 0.11 
12.34 8.21 -1.65 0.11 
12.50 7.97 -1.66 0.11 
12.65 7.74 -1.66 0.11 
12.80 7.50 -1.66 0.11 
12.94 7.25 -1.66 0.11 
13.08 7.01 -1.66 0.11 
13.21 6.76 -1.66 0.11 
13.34 6.51 -1.66 0.11 
13.46 6.26 -1.66 0.11 
13.58 6.01 -1.66 0.11 
13.70 5.75 -1.66 0.11 
13.80 5.49 -1.66 0.11 
13.91 5.23 -1.66 0.11 
14.01 4.97 -1.66 0.11 
14.10 4.70 -1.66 0.11 
14.19 4.43 -1.66 0.11 
14.28 4.17 -1.66 0.11 
14.36 3.90 -1.66 0.11 
14.43 3.62 -1.66 0.11 
14.50 3.35 -1.66 0.11 
14.57 3.08 -1.66 0.11 
14.63 2.80 -1.66 0.11 
14.68 2.53 -1.66 0.11 
14.73 2.25 -1.66 0.11 
14.78 1.97 -1.66 0.11 
14.82 1.69 -1.66 0.11 
14.85 1.41 -1.67 0.11 
14.88 1.13 -1.67 0.11 
14.90 0.85 -1.67 0.11 
14.92 0.56 -1.67 0.11 
14.93 0.28 -1.67 0.11 
14.94 -0.00 -1.67 0.11 
14.94 -0.28 -1.67 0.11 
14.94 -0.57 -1.67 0.11 
14.93 -0.85 -1.67 0.11 
14.91 -1.13 -1.67 0.11 
14.90 -1.41 -1.67 0.11 
14.87 -1.70 -1.67 0.11 
14.84 -1.98 -1.67 0.11 
14.81 -2.26 -1.67 0.11 
14.77 -2.54 -1.67 0.10 
14.72 -2.82 -1.67 0.10 
14.67 -3.10 -1.67 0.10 
14.61 -3.38 -1.67 0.10 
14.55 -3.65 -1.67 0.10 
14.48 -3.93 -1.68 0.10 
14.41 -4.20 -1.68 0.10 
14.33 -4.48 -1.68 0.10 
14.25 -4.75 -1.68 0.10 
14.16 -5.02 -1.68 0.10 
14.07 -5.29 -1.68 0.10 
13.97 -5.56 -1.68 0.10 
13.87 -5.82 -1.68 0.10 
13.76 -6.09 -1.68 0.10 
13.65 -6.35 -1.68 0.10 
13.53 -6.61 -1.68 0.10 
13.41 -6.86 -1.68 0.10 
6.51 -3.49 -0.82 0.34 
6.15 -3.45 -0.79 0.37 
5.86 -3.43 -0.76 0.48 
5.63 -3.44 -0.74 0.50 
5.42 -3.46 -0.72 0.58 
5.26 -3.49 -0.70 0.75 
5.20 -3.60 -0.71 0.80 
5.16 -3.72 -0.71 0.72 
5.12 -3.84 -0.71 0.76 
5.10 -3.98 -0.72 0.60 
5.09 -4.13 -0.73 0.57 
11.13 -9.38 -1.63 0.37 
10.49 -9.19 -1.56 0.38 
10.18 -9.26 -1.54 0.10 
10.01 -9.46 -1.54 0.10 
9.83 -9.65 -1.54 0.10 
9.65 -9.84 -1.54 0.10 
9.47 -10.02 -1.54 0.10 
9.28 -10.20 -1.54 0.10 
9.09 -10.38 -1.54 0.10 
8.89 -10.55 -1.54 0.10 
8.69 -10.72 -1.54 0.10 
8.49 -10.89 -1.54 0.10 
8.29 -11.05 -1.54 0.10 
8.08 -11.21 -1.54 0.10 
7.87 -11.36 -1.54 0.10 
7.65 -11.51 -1.54 0.10 
7.44 -11.66 -1.54 0.10 
7.22 -11.80 -1.54 0.10 
6.99 -11.94 -1.54 0.10 
6.77 -12.07 -1.55 0.10 
6.54 -12.20 -1.55 0.10 
6.31 -12.33 -1.55 0.10 
6.08 -12.45 -1.55 0.10 
5.84 -12.56 -1.55 0.10 
5.61 -12.68 -1.55 0.10 
5.37 -12.78 -1.55 0.10 
5.12 -12.89 -1.55 0.10 
4.88 -12.98 -1.55 0.10 
4.64 -13.08 -1.55 0.10 
4.39 -13.17 -1.55 0.10 
4.14 -13.25 -1.55 0.10 
3.89 -13.33 -1.55 0.10 
3.64 -13.40 -1.55 0.10 
3.38 -13.47 -1.55 0.10 
3.13 -13.54 -1.55 0.10 
2.87 -13.60 -1.55 0.10 
2.62 -13.65 -1.55 0.10 
2.36 -13.70 -1.55 0.10 
2.10 -13.75 -1.55 0.10 
1.84 -13.79 -1.55 0.10 
1.58 -13.82 -1.55 0.10 
1.31 -13.85 -1.55 0.10 
1.00 -13.23 -1.48 0.94 
0.75 -13.28 -1.49 0.93 
0.50 -13.33 -1.49 0.93 
0.26 -13.92 -1.55 0.10 
0.00 -8.02 -0.90 0.95 
-0.26 -13.93 -1.55 0.10 
-0.53 -13.92 -1.56 0.10 
-0.79 -13.91 -1.56 0.10 
-1.05 -13.90 -1.56 0.10 
-1.32 -13.88 -1.56 0.10 
-1.58 -13.85 -1.56 0.10 
-1.84 -13.82 -1.56 0.10 
-2.10 -13.78 -1.56 0.10 
-2.36 -13.74 -1.56 0.10 
-2.62 -13.70 -1.56 0.10 
-2.88 -13.65 -1.56 0.10 
-3.14 -13.59 -1.56 0.10 
-3.40 -13.53 -1.56 0.10 
-3.65 -13.46 -1.56 0.10 
-3.91 -13.39 -1.56 0.10 
-4.16 -13.32 -1.56 0.10 
-4.41 -13.24 -1.56 0.10 
-4.66 -13.15 -1.56 0.10 
-4.91 -13.06 -1.56 0.10 
-5.16 -12.97 -1.56 0.10 
-5.31 -12.65 -1.53 0.68 
-5.64 -12.76 -1.56 0.10 
-5.88 -12.65 -1.56 0.10 
-6.12 -12.54 -1.56 0.10 
-6.36 -12.42 -1.56 0.10 
-6.59 -12.30 -1.56 0.10 
-6.82 -12.17 -1.56 0.10 
-7.05 -12.04 -1.56 0.10 
-7.28 -11.90 -1.56 0.10 
-7.50 -11.76 -1.56 0.10 
-7.72 -11.62 -1.56 0.10 
-7.94 -11.47 -1.56 0.10 
-8.16 -11.32 -1.56 0.10 
-8.37 -11.16 -1.56 0.10 
-8.58 -11.00 -1.56 0.10 
-8.78 -10.83 -1.56 0.10 
-8.99 -10.67 -1.56 0.10 
-9.19 -10.49 -1.56 0.10 
-9.38 -10.32 -1.56 0.10 
-9.58 -10.14 -1.56 0.10 
-9.76 -9.95 -1.56 0.10 
-9.95 -9.76 -1.56 0.10 
-10.13 -9.57 -1.56 0.10 
-10.31 -9.38 -1.56 0.10 
-10.48 -9.18 -1.56 0.10 
-10.65 -8.98 -1.56 0.10 
-10.82 -8.77 -1.56 0.10 
-11.33 -8.84 -1.60 0.45 
-11.91 -8.93 -1.66 0.43 
-12.38 -8.92 -1.70 0.11 
-12.57 -8.70 -1.71 0.11 
-12.75 -8.47 -1.71 0.10 
-12.90 -8.23 -1.71 0.10 
-13.05 -7.98 -1.71 0.10 
-13.20 -7.73 -1.71 0.10 
-13.34 -7.48 -1.71 0.10 
-13.48 -7.22 -1.71 0.10 
-13.61 -6.97 -1.71 0.10 
-13.74 -6.71 -1.71 0.10 
-13.86 -6.44 -1.71 0.10 
-13.97 -6.18 -1.71 0.10 
-14.08 -5.91 -1.71 0.10 
-14.19 -5.64 -1.70 0.10 
-13.25 -4.98 -1.58 0.72 
-14.39 -5.10 -1.70 0.10 
-14.48 -4.83 -1.70 0.10 
-14.56 -4.55 -1.70 0.10 
-14.64 -4.27 -1.70 0.10 
-14.72 -3.99 -1.70 0.10 
-14.78 -3.71 -1.70 0.10 
-14.85 -3.43 -1.70 0.10 
-14.91 -3.15 -1.70 0.10 
-14.96 -2.87 -1.70 0.10 
-10.31 -1.77 -1.17 0.62 
-10.22 -1.56 -1.15 0.93 
-10.21 -1.36 -1.15 0.94 
-10.21 -1.16 -1.15 0.96 
-10.23 -0.97 -1.15 0.95 
-10.25 -0.78 -1.15 0.94 
-10.30 -0.59 -1.15 0.94 
-10.36 -0.39 -1.16 0.93 
-10.44 -0.20 -1.17 0.88 
-10.53 -0.00 -1.19 0.87 
-15.01 0.28 -1.69 0.10 
-15.00 0.57 -1.69 0.10 
-14.98 0.85 -1.69 0.10 
-14.96 1.13 -1.69 0.10 
-14.93 1.42 -1.69 0.10 
-14.90 1.70 -1.69 0.10 
-14.86 1.98 -1.69 0.10 
-14.81 2.26 -1.69 0.10 
-14.76 2.54 -1.69 0.11 
-14.70 2.82 -1.69 0.11 
-14.64 3.09 -1.69 0.11 
-14.58 3.37 -1.69 0.11 
-14.51 3.64 -1.69 0.11 
-14.43 3.92 -1.69 0.11 
-14.35 4.19 -1.69 0.11 
-14.26 4.46 -1.69 0.11 
-14.17 4.72 -1.69 0.11 
-14.07 4.99 -1.68 0.11 
-13.97 5.25 -1.68 0.11 
-12.25 4.87 -1.49 0.50 
-11.81 4.96 -1.44 0.60 
-13.64 6.03 -1.68 0.11 
-13.52 6.29 -1.68 0.11 
-13.39 6.54 -1.68 0.11 
-13.26 6.79 -1.68 0.11 
-12.47 6.69 -1.60 0.58 
-12.28 6.88 -1.59 0.32 
-12.84 7.52 -1.68 0.11 
-12.69 7.76 -1.68 0.11 
-12.54 8.00 -1.68 0.11 
-12.38 8.23 -1.68 0.11 
-12.22 8.46 -1.68 0.11 
-12.05 8.69 -1.68 0.11 
-11.88 8.91 -1.68 0.11 
-11.70 9.13 -1.68 0.11 
-11.53 9.35 -1.67 0.11 
-11.34 9.56 -1.67 0.11 
-11.16 9.77 -1.67 0.11 
-10.97 9.97 -1.67 0.11 
-10.76 10.16 -1.67 0.12 
-10.55 10.35 -1.67 0.12 
-10.33 10.53 -1.66 0.12 
-10.03 10.62 -1.65 0.79 
-9.71 10.68 -1.63 0.80 
-9.40 10.74 -1.61 0.81 
-9.09 10.79 -1.59 0.80 
-8.79 10.84 -1.57 0.81 
-8.49 10.88 -1.56 0.82 
-8.20 10.93 -1.54 0.83 
-7.91 10.97 -1.53 0.83 
-7.64 11.04 -1.52 0.11 
-7.43 11.18 -1.51 0.11 
-7.22 11.32 -1.51 0.11 
-7.00 11.45 -1.51 0.11 
-6.78 11.57 -1.51 0.11 
-6.56 11.70 -1.51 0.11 
-6.33 11.82 -1.51 0.11 
-6.11 11.93 -1.51 0.11 
-5.88 12.04 -1.51 0.11 
-5.65 12.15 -1.51 0.11 
-5.42 12.25 -1.51 0.11 
-5.18 12.34 -1.51 0.11 
-4.95 12.44 -1.51 0.11 
-4.71 12.52 -1.51 0.11 
-4.47 12.61 -1.51 0.11 
-4.23 12.69 -1.51 0.11 
-3.99 12.76 -1.51 0.11 
-3.74 12.83 -1.51 0.11 
-3.50 12.90 -1.51 0.11 
-3.25 12.96 -1.51 0.11 
-3.01 13.02 -1.51 0.11 
-2.76 13.07 -1.51 0.11 
-2.51 13.11 -1.51 0.11 
-2.26 13.16 -1.51 0.11 
-2.01 13.20 -1.51 0.11 
-1.76 13.23 -1.51 0.11 
-1.51 13.26 -1.51 0.11 
-1.26 13.28 -1.51 0.11 
-1.01 13.30 -1.51 0.11 
-0.76 13.31 -1.50 0.11 
-0.50 13.32 -1.50 0.11 
-0.25 13.33 -1.50 0.11 
0.00 13.33 -1.50 0.11 
0.25 13.32 -1.50 0.11 
0.50 13.32 -1.50 0.11 
0.76 13.30 -1.50 0.11 
1.01 13.28 -1.50 0.11 
1.26 13.26 -1.50 0.11 
1.51 13.23 -1.50 0.11 
1.76 13.20 -1.50 0.11 
2.01 13.16 -1.50 0.11 
2.26 13.12 -1.50 0.11 
2.50 13.08 -1.50 0.11 
2.75 13.02 -1.50 0.11 
3.00 12.97 -1.50 0.11 
3.24 12.91 -1.50 0.11 
3.49 12.84 -1.50 0.11 
3.73 12.78 -1.50 0.11 
3.97 12.70 -1.50 0.11 
4.21 12.62 -1.50 0.11 
4.45 12.54 -1.50 0.11 
4.68 12.45 -1.50 0.11 
4.92 12.36 -1.50 0.11 
5.15 12.27 -1.50 0.11 
5.38 12.17 -1.50 0.11 
5.61 12.06 -1.50 0.11 
5.84 11.96 -1.50 0.11 
5.99 11.70 -1.48 0.37 
6.18 11.53 -1.48 0.86 
6.51 11.61 -1.50 0.11 
6.73 11.48 -1.50 0.11 
6.94 11.35 -1.50 0.11 
7.16 11.22 -1.50 0.11 
7.37 11.08 -1.50 0.11 
7.58 10.94 -1.50 0.11 
7.81 10.84 -1.51 0.67 
8.09 10.79 -1.52 0.84 
8.38 10.74 -1.54 0.83 
8.67 10.69 -1.55 0.83 
8.96 10.64 -1.57 0.82 
9.27 10.58 -1.59 0.81 
9.57 10.52 -1.61 0.80 
9.88 10.46 -1.62 0.80 
10.20 10.39 -1.64 0.79 
10.42 10.22 -1.65 0.12 
10.63 10.04 -1.65 0.12 
10.83 9.85 -1.65 0.12 
11.02 9.65 -1.65 0.11 
11.20 9.44 -1.65 0.11 
11.38 9.23 -1.65 0.11 
11.56 9.01 -1.65 0.11 
11.73 8.80 -1.65 0.11 
11.89 8.57 -1.65 0.11 
12.06 8.35 -1.65 0.11 
12.21 8.12 -1.66 0.11 
12.37 7.89 -1.66 0.11 
12.52 7.65 -1.66 0.11 
12.66 7.42 -1.66 0.11 
12.80 7.18 -1.66 0.11 
12.94 6.94 -1.66 0.11 
13.07 6.69 -1.66 0.11 
13.20 6.44 -1.66 0.11 
13.32 6.19 -1.66 0.11 
13.44 5.94 -1.66 0.11 
13.55 5.69 -1.66 0.11 
13.66 5.43 -1.66 0.11 
13.76 5.17 -1.66 0.11 
13.86 4.91 -1.66 0.11 
13.95 4.65 -1.66 0.11 
14.04 4.39 -1.66 0.11 
14.13 4.12 -1.66 0.11 
14.21 3.85 -1.66 0.11 
14.28 3.59 -1.66 0.11 
14.35 3.32 -1.66 0.11 
14.41 3.04 -1.66 0.11 
14.47 2.77 -1.66 0.11 
14.53 2.50 -1.66 0.11 
14.58 2.22 -1.66 0.11 
14.62 1.95 -1.66 0.11 
14.66 1.67 -1.66 0.11 
14.69 1.39 -1.67 0.11 
14.72 1.12 -1.67 0.11 
14.74 0.84 -1.67 0.11 
14.76 0.56 -1.67 0.11 
14.77 0.28 -1.67 0.11 
14.78 -0.00 -1.67 0.11 
14.78 -0.28 -1.67 0.11 
14.78 -0.56 -1.67 0.11 
14.77 -0.84 -1.67 0.11 
14.76 -1.12 -1.67 0.11 
14.74 -1.40 -1.67 0.11 
14.71 -1.68 -1.67 0.11 
14.68 -1.96 -1.67 0.11 
14.65 -2.23 -1.67 0.11 
14.61 -2.51 -1.67 0.11 
14.56 -2.79 -1.67 0.11 
14.51 -3.07 -1.67 0.11 
14.46 -3.34 -1.67 0.11 
14.40 -3.61 -1.67 0.11 
14.33 -3.89 -1.68 0.11 
14.26 -4.16 -1.68 0.11 
14.18 -4.43 -1.68 0.11 
14.10 -4.70 -1.68 0.11 
14.01 -4.97 -1.68 0.11 
13.92 -5.23 -1.68 0.11 
13.82 -5.50 -1.68 0.11 
13.72 -5.76 -1.68 0.11 
13.62 -6.02 -1.68 0.11 
13.50 -6.28 -1.68 0.11 
13.39 -6.54 -1.68 0.11 
13.27 -6.79 -1.68 0.11 
6.50 -3.48 -0.83 0.34 
6.15 -3.45 -0.80 0.37 
5.86 -3.43 -0.77 0.48 
5.62 -3.44 -0.74 0.50 
5.41 -3.45 -0.72 0.58 
5.25 -3.49 -0.71 0.75 
5.19 -3.60 -0.71 0.80 
5.15 -3.71 -0.72 0.73 
5.11 -3.83 -0.72 0.76 
5.09 -3.97 -0.73 0.60 
5.08 -4.12 -0.74 0.57 
11.13 -9.38 -1.64 0.37 
10.49 -9.18 -1.57 0.38 
10.07 -9.16 -1.54 0.11 
9.90 -9.36 -1.54 0.11 
9.73 -9.54 -1.54 0.11 
9.55 -9.73 -1.54 0.11 
9.36 -9.91 -1.54 0.11 
9.18 -10.09 -1.54 0.11 
8.99 -10.27 -1.54 0.11 
8.80 -10.44 -1.54 0.11 
8.60 -10.61 -1.54 0.11 
8.40 -10.77 -1.54 0.11 
8.20 -10.93 -1.54 0.11 
7.99 -11.09 -1.54 0.11 
7.78 -11.24 -1.54 0.11 
7.57 -11.39 -1.54 0.11 
7.36 -11.53 -1.54 0.11 
7.14 -11.67 -1.54 0.11 
6.92 -11.81 -1.54 0.11 
6.70 -11.94 -1.54 0.11 
6.47 -12.07 -1.55 0.10 
6.24 -12.19 -1.55 0.10 
6.01 -12.31 -1.55 0.10 
5.78 -12.43 -1.55 0.10 
5.54 -12.54 -1.55 0.10 
5.31 -12.65 -1.55 0.10 
5.07 -12.75 -1.55 0.10 
4.83 -12.84 -1.55 0.10 
4.59 -12.94 -1.55 0.10 
4.34 -13.02 -1.55 0.10 
4.09 -13.11 -1.55 0.10 
3.85 -13.18 -1.55 0.10 
3.60 -13.26 -1.55 0.10 
3.35 -13.33 -1.55 0.10 
3.09 -13.39 -1.55 0.10 
2.84 -13.45 -1.55 0.10 
2.59 -13.50 -1.55 0.10 
2.33 -13.55 -1.55 0.10 
2.07 -13.60 -1.55 0.10 
1.82 -13.64 -1.55 0.10 
1.56 -13.67 -1.55 0.10 
1.30 -13.70 -1.55 0.10 
1.00 -13.23 -1.50 0.94 
0.75 -13.28 -1.50 0.93 
0.50 -13.33 -1.51 0.93 
0.26 -13.77 -1.55 0.10 
0.00 -8.02 -0.91 0.95 
-0.26 -13.78 -1.55 0.10 
-0.52 -13.77 -1.55 0.10 
-0.78 -13.76 -1.56 0.10 
-1.04 -13.74 -1.56 0.10 
-1.30 -13.72 -1.56 0.10 
-1.56 -13.70 -1.56 0.10 
-1.82 -13.67 -1.56 0.10 
-2.08 -13.63 -1.56 0.10 
-2.34 -13.59 -1.56 0.10 
-2.59 -13.55 -1.56 0.10 
-2.85 -13.50 -1.56 0.10 
-3.11 -13.44 -1.56 0.10 
-3.36 -13.38 -1.56 0.10 
-3.61 -13.32 -1.56 0.10 
-3.86 -13.25 -1.56 0.10 
-4.11 -13.17 -1.56 0.10 
-4.36 -13.09 -1.56 0.10 
-4.61 -13.01 -1.56 0.10 
-4.86 -12.92 -1.56 0.10 
-5.10 -12.82 -1.56 0.10 
-5.34 -12.73 -1.56 0.10 
-5.58 -12.62 -1.56 0.10 
-5.82 -12.52 -1.56 0.10 
-6.06 -12.40 -1.56 0.10 
-6.29 -12.29 -1.56 0.10 
-6.52 -12.16 -1.56 0.10 
-6.75 -12.04 -1.56 0.10 
-6.98 -11.91 -1.56 0.10 
-7.20 -11.77 -1.56 0.10 
-7.42 -11.64 -1.56 0.10 
-7.64 -11.49 -1.56 0.10 
-7.86 -11.35 -1.56 0.10 
-8.07 -11.19 -1.56 0.10 
-8.28 -11.04 -1.56 0.10 
-8.48 -10.88 -1.56 0.10 
-8.69 -10.72 -1.56 0.10 
-8.89 -10.55 -1.56 0.10 
-9.09 -10.38 -1.56 0.10 
-9.28 -10.20 -1.56 0.10 
-9.47 -10.02 -1.56 0.10 
-9.66 -9.84 -1.56 0.10 
-9.84 -9.66 -1.56 0.10 
-10.02 -9.47 -1.56 0.10 
-10.20 -9.27 -1.56 0.10 
-10.37 -9.08 -1.56 0.10 
-10.54 -8.88 -1.56 0.10 
-10.79 -8.75 -1.57 0.46 
-11.33 -8.84 -1.62 0.45 
-11.91 -8.93 -1.68 0.43 
-12.25 -8.83 -1.70 0.11 
-12.44 -8.62 -1.71 0.11 
-12.61 -8.38 -1.71 0.10 
-12.76 -8.14 -1.71 0.10 
-12.91 -7.90 -1.71 0.10 
-13.06 -7.65 -1.71 0.10 
-13.20 -7.40 -1.71 0.10 
-13.33 -7.15 -1.71 0.10 
-13.46 -6.89 -1.71 0.10 
-13.59 -6.63 -1.71 0.10 
-13.71 -6.37 -1.71 0.10 
-13.82 -6.11 -1.71 0.10 
-13.93 -5.85 -1.70 0.10 
-14.04 -5.58 -1.70 0.10 
-14.14 -5.31 -1.70 0.10 
-14.23 -5.04 -1.70 0.10 
-14.32 -4.77 -1.70 0.10 
-14.40 -4.50 -1.70 0.10 
-14.48 -4.23 -1.70 0.10 
-14.56 -3.95 -1.70 0.10 
-14.62 -3.67 -1.70 0.10 
-14.69 -3.39 -1.70 0.10 
-14.74 -3.11 -1.70 0.10 
-14.80 -2.83 -1.70 0.10 
-10.31 -1.77 -1.18 0.62 
-10.22 -1.56 -1.17 0.93 
-10.21 -1.36 -1.16 0.94 
-10.21 -1.16 -1.16 0.96 
-10.23 -0.97 -1.16 0.95 
-10.25 -0.78 -1.16 0.94 
-10.30 -0.59 -1.16 0.94 
-10.36 -0.39 -1.17 0.93 
-10.44 -0.20 -1.18 0.88 
-10.52 -0.00 -1.20 0.87 
-14.85 0.28 -1.69 0.11 
-14.84 0.56 -1.69 0.11 
-14.82 0.84 -1.69 0.11 
-14.80 1.12 -1.69 0.11 
-14.77 1.40 -1.69 0.11 
-14.74 1.68 -1.69 0.11 
-14.70 1.96 -1.69 0.11 
-14.65 2.24 -1.69 0.11 
-14.60 2.51 -1.69 0.11 
-14.55 2.79 -1.69 0.11 
-14.49 3.06 -1.69 0.11 
-14.42 3.33 -1.69 0.11 
-14.35 3.60 -1.69 0.11 
-14.28 3.87 -1.69 0.11 
-14.20 4.14 -1.69 0.11 
-14.11 4.41 -1.69 0.11 
-14.02 4.67 -1.69 0.11 
-13.92 4.94 -1.68 0.11 
-13.82 5.20 -1.68 0.11 
-12.25 4.87 -1.50 0.50 
-11.82 4.96 -1.46 0.60 
-13.49 5.97 -1.68 0.11 
-13.37 6.22 -1.68 0.11 
-13.25 6.47 -1.68 0.11 
-13.12 6.72 -1.68 0.11 
-12.47 6.69 -1.61 0.58 
-12.31 6.90 -1.61 0.31 
-12.70 7.44 -1.68 0.11 
-12.56 7.68 -1.68 0.11 
-12.40 7.91 -1.68 0.11 
-12.25 8.14 -1.68 0.11 
-12.09 8.37 -1.68 0.11 
-11.92 8.59 -1.68 0.11 
-11.75 8.81 -1.68 0.11 
-11.58 9.03 -1.68 0.11 
-11.40 9.25 -1.67 0.11 
-11.22 9.46 -1.67 0.11 
-11.04 9.67 -1.67 0.11 
-10.85 9.87 -1.67 0.11 
-10.66 10.07 -1.67 0.12 
-10.45 10.25 -1.67 0.12 
-10.23 10.43 -1.67 0.12 
-10.02 10.60 -1.66 0.12 
-9.71 10.68 -1.65 0.80 
-9.40 10.73 -1.63 0.81 
-9.09 10.79 -1.61 0.80 
-8.78 10.83 -1.59 0.81 
-8.49 10.88 -1.57 0.82 
-8.19 10.93 -1.56 0.83 
-7.91 10.97 -1.54 0.83 
-7.62 11.01 -1.53 0.84 
-7.35 11.06 -1.52 0.11 
-7.14 11.20 -1.51 0.11 
-6.93 11.33 -1.51 0.11 
-6.71 11.45 -1.51 0.11 
-6.49 11.57 -1.51 0.11 
-6.27 11.69 -1.51 0.11 
-6.04 11.80 -1.51 0.11 
-5.82 11.91 -1.51 0.11 
-5.59 12.02 -1.51 0.11 
-5.36 12.12 -1.51 0.11 
-5.13 12.21 -1.51 0.11 
-4.89 12.31 -1.51 0.11 
-4.66 12.39 -1.51 0.11 
-4.42 12.48 -1.51 0.11 
-4.18 12.56 -1.51 0.11 
-3.95 12.63 -1.51 0.11 
-3.70 12.70 -1.51 0.11 
-3.46 12.76 -1.51 0.11 
-3.22 12.82 -1.51 0.11 
-2.98 12.88 -1.51 0.11 
-2.73 12.93 -1.51 0.11 
-2.49 12.98 -1.51 0.11 
-2.24 13.02 -1.51 0.11 
-1.99 13.06 -1.51 0.11 
-1.74 13.09 -1.51 0.11 
-1.50 13.12 -1.51 0.11 
-1.25 13.14 -1.51 0.11 
-1.00 13.16 -1.51 0.11 
-0.75 13.18 -1.51 0.11 
-0.50 13.18 -1.50 0.11 
-0.25 13.19 -1.50 0.11 
0.00 13.19 -1.50 0.11 
0.25 13.19 -1.50 0.11 
0.50 13.18 -1.50 0.11 
0.75 13.16 -1.50 0.11 
1.00 13.15 -1.50 0.11 
1.25 13.12 -1.50 0.11 
1.49 13.09 -1.50 0.11 
1.74 13.06 -1.50 0.11 
1.99 13.03 -1.50 0.11 
2.23 12.98 -1.50 0.11 
2.48 12.94 -1.50 0.11 
2.72 12.89 -1.50 0.11 
2.97 12.83 -1.50 0.11 
3.21 12.77 -1.50 0.11 
3.45 12.71 -1.50 0.11 
3.69 12.64 -1.50 0.11 
3.93 12.57 -1.50 0.11 
4.16 12.49 -1.50 0.11 
4.40 12.41 -1.50 0.11 
4.63 12.32 -1.50 0.11 
4.87 12.23 -1.50 0.11 
5.10 12.14 -1.50 0.11 
5.32 12.04 -1.50 0.11 
5.55 11.94 -1.50 0.11 
5.78 11.83 -1.50 0.11 
5.99 11.70 -1.50 0.37 
6.18 11.53 -1.49 0.86 
6.44 11.48 -1.50 0.11 
6.66 11.36 -1.50 0.11 
6.87 11.23 -1.50 0.11 
7.08 11.10 -1.50 0.11 
7.29 10.97 -1.50 0.11 
7.53 10.88 -1.51 0.85 
7.81 10.83 -1.52 0.84 
8.09 10.79 -1.54 0.84 
8.38 10.74 -1.55 0.83 
8.67 10.69 -1.57 0.83 
8.96 10.64 -1.59 0.82 
9.26 10.58 -1.60 0.81 
9.57 10.52 -1.62 0.80 
9.88 10.46 -1.64 0.80 
10.11 10.31 -1.65 0.12 
10.32 10.13 -1.65 0.12 
10.53 9.95 -1.65 0.12 
10.72 9.75 -1.65 0.11 
10.91 9.55 -1.65 0.11 
11.09 9.34 -1.65 0.11 
11.26 9.13 -1.65 0.11 
11.44 8.92 -1.65 0.11 
11.61 8.70 -1.65 0.11 
11.77 8.48 -1.65 0.11 
11.93 8.26 -1.66 0.11 
12.09 8.03 -1.66 0.11 
12.24 7.81 -1.66 0.11 
12.39 7.57 -1.66 0.11 
12.53 7.34 -1.66 0.11 
12.67 7.10 -1.66 0.11 
12.80 6.86 -1.66 0.11 
12.93 6.62 -1.66 0.11 
13.06 6.38 -1.66 0.11 
13.18 6.13 -1.66 0.11 
13.30 5.88 -1.66 0.11 
13.41 5.63 -1.66 0.11 
13.52 5.37 -1.66 0.11 
13.62 5.12 -1.66 0.11 
13.72 4.86 -1.66 0.11 
13.81 4.60 -1.66 0.11 
13.90 4.34 -1.66 0.11 
13.98 4.08 -1.66 0.11 
14.06 3.81 -1.66 0.11 
14.13 3.55 -1.66 0.11 
14.20 3.28 -1.66 0.11 
14.26 3.01 -1.66 0.11 
14.32 2.74 -1.66 0.11 
14.37 2.47 -1.66 0.11 
14.42 2.20 -1.66 0.11 
14.47 1.93 -1.66 0.11 
14.50 1.65 -1.66 0.11 
14.54 1.38 -1.67 0.11 
14.56 1.10 -1.67 0.11 
14.59 0.83 -1.67 0.11 
14.60 0.55 -1.67 0.11 
14.62 0.28 -1.67 0.11 
14.62 -0.00 -1.67 0.11 
14.63 -0.28 -1.67 0.11 
14.62 -0.55 -1.67 0.11 
14.61 -0.83 -1.67 0.11 
14.60 -1.11 -1.67 0.11 
14.58 -1.38 -1.67 0.11 
14.56 -1.66 -1.67 0.11 
14.53 -1.94 -1.67 0.11 
14.49 -2.21 -1.67 0.11 
14.45 -2.49 -1.67 0.11 
14.41 -2.76 -1.67 0.11 
14.36 -3.03 -1.67 0.11 
14.30 -3.31 -1.67 0.11 
14.24 -3.58 -1.67 0.11 
14.18 -3.85 -1.68 0.11 
14.11 -4.12 -1.68 0.11 
14.03 -4.38 -1.68 0.11 
13.95 -4.65 -1.68 0.11 
13.86 -4.91 -1.68 0.11 
13.77 -5.18 -1.68 0.11 
13.68 -5.44 -1.68 0.11 
13.58 -5.70 -1.68 0.11 
13.47 -5.96 -1.68 0.11 
13.36 -6.21 -1.68 0.11 
13.25 -6.47 -1.68 0.11 
13.13 -6.72 -1.68 0.11 
6.50 -3.48 -0.84 0.34 
6.14 -3.44 -0.80 0.38 
5.85 -3.43 -0.77 0.48 
5.62 -3.43 -0.75 0.53 
5.41 -3.45 -0.73 0.58 
5.25 -3.49 -0.72 0.75 
5.19 -3.59 -0.72 0.80 
5.15 -3.71 -0.72 0.73 
5.11 -3.83 -0.73 0.76 
5.09 -3.97 -0.74 0.60 
5.08 -4.12 -0.75 0.57 
5.12 -4.31 -0.76 0.06 
10.48 -9.18 -1.59 0.38 
9.97 -9.07 -1.54 0.11 
9.80 -9.26 -1.54 0.11 
9.62 -9.44 -1.54 0.11 
9.45 -9.63 -1.54 0.11 
9.26 -9.81 -1.54 0.11 
9.08 -9.98 -1.54 0.11 
8.89 -10.16 -1.54 0.11 
8.70 -10.33 -1.54 0.11 
8.51 -10.49 -1.54 0.11 
8.31 -10.65 -1.54 0.11 
8.11 -10.81 -1.54 0.11 
7.91 -10.97 -1.54 0.11 
7.70 -11.12 -1.54 0.11 
7.49 -11.27 -1.54 0.11 
7.28 -11.41 -1.54 0.11 
7.06 -11.55 -1.54 0.11 
6.84 -11.68 -1.54 0.11 
6.62 -11.81 -1.54 0.11 
6.40 -11.94 -1.55 0.11 
6.18 -12.06 -1.55 0.11 
5.95 -12.18 -1.55 0.11 
5.72 -12.29 -1.55 0.11 
5.49 -12.40 -1.55 0.11 
5.25 -12.51 -1.55 0.11 
5.01 -12.61 -1.55 0.11 
4.78 -12.71 -1.55 0.11 
4.54 -12.80 -1.55 0.11 
4.29 -12.88 -1.55 0.11 
4.05 -12.97 -1.55 0.11 
3.81 -13.04 -1.55 0.11 
3.56 -13.12 -1.55 0.11 
3.31 -13.18 -1.55 0.11 
3.06 -13.25 -1.55 0.11 
2.81 -13.31 -1.55 0.11 
2.56 -13.36 -1.55 0.11 
2.31 -13.41 -1.55 0.11 
2.05 -13.45 -1.55 0.11 
1.80 -13.49 -1.55 0.11 
1.54 -13.53 -1.55 0.11 
1.29 -13.55 -1.55 0.11 
1.00 -13.23 -1.51 0.94 
0.75 -13.28 -1.52 0.93 
0.50 -13.33 -1.52 0.93 
0.16 -8.25 -0.94 0.17 
0.00 -8.02 -0.92 0.95 
-0.26 -13.63 -1.55 0.11 
-0.52 -13.62 -1.55 0.11 
-0.77 -13.61 -1.55 0.11 
-1.03 -13.60 -1.56 0.11 
-1.29 -13.58 -1.56 0.11 
-1.55 -13.55 -1.56 0.11 
-1.80 -13.52 -1.56 0.11 
-2.06 -13.49 -1.56 0.11 
-2.31 -13.45 -1.56 0.11 
-2.57 -13.40 -1.56 0.11 
-2.82 -13.35 -1.56 0.11 
-3.07 -13.30 -1.56 0.11 
-3.32 -13.24 -1.56 0.11 
-3.57 -13.17 -1.56 0.11 
-3.82 -13.10 -1.56 0.11 
-4.07 -13.03 -1.56 0.11 
-4.32 -12.95 -1.56 0.11 
-4.56 -12.87 -1.56 0.11 
-4.80 -12.78 -1.56 0.11 
-5.04 -12.69 -1.56 0.11 
-5.28 -12.59 -1.56 0.11 
-5.52 -12.49 -1.56 0.11 
-5.76 -12.38 -1.56 0.11 
-5.99 -12.27 -1.56 0.11 
-6.22 -12.15 -1.56 0.11 
-6.45 -12.03 -1.56 0.11 
-6.68 -11.91 -1.56 0.11 
-6.90 -11.78 -1.56 0.11 
-7.12 -11.65 -1.56 0.11 
-7.34 -11.51 -1.56 0.11 
-7.56 -11.37 -1.56 0.11 
-7.77 -11.22 -1.56 0.11 
-7.98 -11.07 -1.56 0.11 
-8.19 -10.92 -1.56 0.11 
-8.39 -10.76 -1.56 0.11 
-8.59 -10.60 -1.56 0.11 
-8.79 -10.43 -1.56 0.11 
-8.99 -10.27 -1.56 0.11 
-9.18 -10.09 -1.56 0.11 
-9.37 -9.92 -1.56 0.11 
-9.55 -9.74 -1.56 0.11 
-9.73 -9.55 -1.56 0.11 
-9.91 -9.37 -1.56 0.11 
-10.09 -9.17 -1.56 0.11 
-10.26 -8.98 -1.55 0.11 
-10.42 -8.78 -1.55 0.11 
-10.78 -8.74 -1.58 0.46 
-11.32 -8.83 -1.64 0.45 
-11.90 -8.93 -1.70 0.43 
-12.13 -8.74 -1.70 0.11 
-12.31 -8.53 -1.71 0.10 
-12.47 -8.29 -1.71 0.10 
-12.62 -8.05 -1.71 0.11 
-12.77 -7.81 -1.71 0.11 
-12.92 -7.57 -1.71 0.11 
-13.05 -7.32 -1.71 0.11 
-13.19 -7.07 -1.71 0.11 
-13.32 -6.82 -1.71 0.11 
-13.44 -6.56 -1.71 0.11 
-13.56 -6.30 -1.71 0.11 
-13.67 -6.05 -1.71 0.11 
-13.78 -5.78 -1.70 0.11 
-13.88 -5.52 -1.70 0.11 
-13.98 -5.26 -1.70 0.11 
-14.08 -4.99 -1.70 0.11 
-14.17 -4.72 -1.70 0.11 
-14.25 -4.45 -1.70 0.11 
-14.33 -4.18 -1.70 0.11 
-14.40 -3.91 -1.70 0.11 
-14.47 -3.63 -1.70 0.11 
-14.53 -3.36 -1.70 0.11 
-14.59 -3.08 -1.70 0.11 
-14.64 -2.80 -1.70 0.11 
-10.31 -1.77 -1.19 0.62 
-10.22 -1.56 -1.18 0.93 
-10.21 -1.36 -1.17 0.94 
-10.21 -1.16 -1.17 0.96 
-10.23 -0.97 -1.17 0.95 
-10.25 -0.78 -1.17 0.94 
-10.30 -0.59 -1.18 0.94 
-10.35 -0.39 -1.18 0.93 
-10.44 -0.20 -1.19 0.88 
-10.52 -0.00 -1.21 0.87 
-14.70 0.28 -1.69 0.11 
-14.68 0.56 -1.69 0.11 
-14.67 0.83 -1.69 0.11 
-14.64 1.11 -1.69 0.11 
-14.61 1.39 -1.69 0.11 
-14.58 1.66 -1.69 0.11 
-14.54 1.94 -1.69 0.11 
-14.50 2.21 -1.69 0.11 
-14.45 2.49 -1.69 0.11 
-14.39 2.76 -1.69 0.11 
-14.34 3.03 -1.69 0.11 
-14.27 3.30 -1.69 0.11 
-14.20 3.57 -1.69 0.11 
-14.13 3.83 -1.69 0.11 
-14.05 4.10 -1.69 0.11 
-13.96 4.36 -1.69 0.11 
-13.87 4.62 -1.69 0.11 
-13.78 4.88 -1.68 0.11 
-13.68 5.14 -1.68 0.11 
-12.25 4.87 -1.52 0.50 
-11.83 4.97 -1.48 0.60 
-13.35 5.90 -1.68 0.11 
-13.23 6.15 -1.68 0.11 
-13.11 6.40 -1.68 0.11 
-12.98 6.64 -1.68 0.11 
-12.47 6.69 -1.63 0.58 
-12.35 6.92 -1.63 0.31 
-12.57 7.36 -1.68 0.11 
-12.42 7.60 -1.68 0.11 
-12.27 7.83 -1.68 0.11 
-12.12 8.06 -1.68 0.11 
-11.96 8.28 -1.68 0.11 
-11.80 8.50 -1.68 0.11 
-11.63 8.72 -1.68 0.11 
-11.46 8.94 -1.68 0.11 
-11.28 9.15 -1.67 0.11 
-11.11 9.36 -1.67 0.11 
-10.92 9.56 -1.67 0.11 
-10.74 9.77 -1.67 0.11 
-10.55 9.96 -1.67 0.11 
-10.35 10.15 -1.67 0.12 
-10.14 10.33 -1.67 0.12 
-9.92 10.50 -1.67 0.12 
-9.71 10.67 -1.66 0.12 
-9.40 10.73 -1.64 0.81 
-9.09 10.78 -1.63 0.81 
-8.78 10.83 -1.61 0.81 
-8.48 10.88 -1.59 0.82 
-8.19 10.92 -1.57 0.83 
-7.90 10.97 -1.56 0.83 
-7.62 11.01 -1.54 0.84 
-7.34 11.04 -1.53 0.85 
-7.07 11.09 -1.52 0.68 
-6.85 11.21 -1.51 0.11 
-6.64 11.33 -1.51 0.11 
-6.42 11.45 -1.51 0.11 
-6.20 11.57 -1.51 0.11 
-5.98 11.68 -1.51 0.11 
-5.76 11.79 -1.51 0.11 
-5.53 11.89 -1.51 0.11 
-5.30 11.99 -1.51 0.11 
-5.07 12.09 -1.51 0.11 
-4.84 12.18 -1.51 0.11 
-4.61 12.27 -1.51 0.11 
-4.38 12.35 -1.51 0.11 
-4.14 12.42 -1.51 0.11 
-3.90 12.50 -1.51 0.11 
-3.67 12.57 -1.51 0.11 
-3.43 12.63 -1.51 0.11 
-3.19 12.69 -1.51 0.11 
-2.95 12.75 -1.51 0.11 
-2.70 12.80 -1.51 0.11 
-2.46 12.84 -1.51 0.11 
-2.22 12.88 -1.51 0.11 
-1.97 12.92 -1.51 0.11 
-1.73 12.95 -1.51 0.11 
-1.48 12.98 -1.51 0.11 
-1.23 13.01 -1.51 0.11 
-0.99 13.02 -1.51 0.11 
-0.74 13.04 -1.51 0.11 
-0.49 13.05 -1.51 0.11 
-0.25 13.05 -1.50 0.11 
0.00 13.05 -1.50 0.11 
0.25 13.05 -1.50 0.11 
0.49 13.04 -1.50 0.11 
0.74 13.03 -1.50 0.11 
0.99 13.01 -1.50 0.11 
1.23 12.99 -1.50 0.11 
1.48 12.96 -1.50 0.11 
1.72 12.93 -1.50 0.11 
1.97 12.89 -1.50 0.11 
2.21 12.85 -1.50 0.11 
2.45 12.81 -1.50 0.11 
2.69 12.76 -1.50 0.11 
2.94 12.70 -1.50 0.11 
3.17 12.64 -1.50 0.11 
3.41 12.58 -1.50 0.11 
3.65 12.51 -1.50 0.11 
3.89 12.44 -1.50 0.11 
4.12 12.36 -1.50 0.11 
4.35 12.28 -1.50 0.11 
4.59 12.20 -1.50 0.11 
4.82 12.11 -1.50 0.11 
5.04 12.01 -1.50 0.11 
5.27 11.92 -1.50 0.11 
5.49 11.81 -1.50 0.11 
5.72 11.71 -1.50 0.11 
5.94 11.60 -1.50 0.11 
6.16 11.48 -1.50 0.11 
6.37 11.37 -1.50 0.11 
6.59 11.24 -1.50 0.11 
6.80 11.12 -1.50 0.11 
7.01 10.99 -1.50 0.11 
7.26 10.92 -1.51 0.85 
7.53 10.88 -1.52 0.85 
7.81 10.83 -1.54 0.84 
8.09 10.79 -1.55 0.84 
8.38 10.74 -1.57 0.83 
8.67 10.69 -1.59 0.83 
8.96 10.63 -1.60 0.82 
9.26 10.58 -1.62 0.81 
9.57 10.52 -1.64 0.80 
9.81 10.39 -1.65 0.12 
10.02 10.21 -1.65 0.12 
10.23 10.04 -1.65 0.12 
10.43 9.85 -1.65 0.11 
10.61 9.65 -1.65 0.11 
10.80 9.45 -1.65 0.11 
10.97 9.25 -1.65 0.11 
11.15 9.04 -1.65 0.11 
11.32 8.83 -1.65 0.11 
11.49 8.61 -1.65 0.11 
11.65 8.40 -1.66 0.11 
11.81 8.18 -1.66 0.11 
11.96 7.95 -1.66 0.11 
12.11 7.72 -1.66 0.11 
12.26 7.50 -1.66 0.11 
12.40 7.26 -1.66 0.11 
12.54 7.03 -1.66 0.11 
12.67 6.79 -1.66 0.11 
12.80 6.55 -1.66 0.11 
12.92 6.31 -1.66 0.11 
13.04 6.07 -1.66 0.11 
13.16 5.82 -1.66 0.11 
13.27 5.57 -1.66 0.11 
13.38 5.32 -1.66 0.11 
13.48 5.07 -1.66 0.11 
13.57 4.81 -1.66 0.11 
13.67 4.55 -1.66 0.11 
13.75 4.30 -1.66 0.11 
13.83 4.04 -1.66 0.11 
13.91 3.77 -1.66 0.11 
13.98 3.51 -1.66 0.11 
14.05 3.25 -1.66 0.11 
14.11 2.98 -1.66 0.11 
14.17 2.71 -1.66 0.11 
14.22 2.45 -1.66 0.11 
14.27 2.18 -1.66 0.11 
14.32 1.91 -1.66 0.11 
14.35 1.64 -1.67 0.11 
14.39 1.37 -1.67 0.11 
14.41 1.09 -1.67 0.11 
14.44 0.82 -1.67 0.11 
14.45 0.55 -1.67 0.11 
14.46 0.27 -1.67 0.11 
14.47 -0.00 -1.67 0.11 
14.47 -0.27 -1.67 0.11 
14.47 -0.55 -1.67 0.11 
14.46 -0.82 -1.67 0.11 
14.45 -1.10 -1.67 0.11 
14.43 -1.37 -1.67 0.11 
14.40 -1.64 -1.67 0.11 
14.38 -1.92 -1.67 0.11 
14.34 -2.19 -1.67 0.11 
14.30 -2.46 -1.67 0.11 
14.26 -2.73 -1.67 0.11 
14.21 -3.00 -1.67 0.11 
14.15 -3.27 -1.67 0.11 
14.09 -3.54 -1.67 0.11 
14.03 -3.81 -1.68 0.11 
13.96 -4.07 -1.68 0.11 
13.88 -4.34 -1.68 0.11 
13.80 -4.60 -1.68 0.11 
13.72 -4.86 -1.68 0.11 
13.63 -5.12 -1.68 0.11 
13.53 -5.38 -1.68 0.11 
13.43 -5.64 -1.68 0.11 
13.33 -5.89 -1.68 0.11 
13.22 -6.15 -1.68 0.11 
13.11 -6.40 -1.68 0.11 
12.99 -6.65 -1.68 0.11 
6.49 -3.48 -0.85 0.34 
6.14 -3.44 -0.81 0.38 
5.84 -3.42 -0.78 0.48 
5.61 -3.43 -0.76 0.53 
5.41 -3.45 -0.74 0.58 
5.25 -3.49 -0.73 0.75 
5.18 -3.59 -0.73 0.80 
5.14 -3.70 -0.73 0.73 
5.10 -3.83 -0.73 0.76 
5.08 -3.96 -0.74 0.60 
5.07 -4.11 -0.75 0.57 
5.09 -4.29 -0.77 0.62 
10.48 -9.17 -1.60 0.38 
9.90 -9.00 -1.54 0.38 
9.69 -9.16 -1.54 0.11 
9.52 -9.34 -1.54 0.11 
9.35 -9.52 -1.54 0.11 
9.17 -9.70 -1.54 0.11 
8.98 -9.88 -1.54 0.11 
8.80 -10.05 -1.54 0.11 
8.61 -10.22 -1.54 0.11 
8.42 -10.38 -1.54 0.11 
8.22 -10.54 -1.54 0.11 
8.02 -10.70 -1.54 0.11 
7.82 -10.85 -1.54 0.11 
7.62 -11.00 -1.54 0.11 
7.41 -11.15 -1.54 0.11 
7.20 -11.29 -1.54 0.11 
6.99 -11.43 -1.54 0.11 
6.77 -11.56 -1.54 0.11 
6.55 -11.69 -1.54 0.11 
6.33 -11.81 -1.55 0.11 
6.11 -11.94 -1.55 0.11 
5.88 -12.05 -1.55 0.11 
5.66 -12.16 -1.55 0.11 
5.43 -12.27 -1.55 0.11 
5.20 -12.38 -1.55 0.11 
4.96 -12.48 -1.55 0.11 
4.73 -12.57 -1.55 0.11 
4.49 -12.66 -1.55 0.11 
4.25 -12.75 -1.55 0.11 
4.01 -12.83 -1.55 0.11 
3.76 -12.90 -1.55 0.11 
3.52 -12.98 -1.55 0.11 
3.28 -13.04 -1.55 0.11 
3.03 -13.11 -1.55 0.11 
2.78 -13.16 -1.55 0.11 
2.53 -13.22 -1.55 0.11 
2.28 -13.27 -1.55 0.11 
2.03 -13.31 -1.55 0.11 
1.78 -13.35 -1.55 0.11 
1.53 -13.38 -1.55 0.11 
1.27 -13.41 -1.55 0.11 
1.00 -13.23 -1.53 0.94 
0.75 -13.28 -1.53 0.93 
0.50 -13.33 -1.54 0.93 
0.16 -8.25 -0.95 0.17 
0.00 -8.02 -0.92 0.95 
-0.26 -13.48 -1.55 0.11 
-0.51 -13.48 -1.55 0.11 
-0.77 -13.47 -1.55 0.11 
-1.02 -13.45 -1.55 0.11 
-1.27 -13.43 -1.55 0.11 
-1.53 -13.41 -1.56 0.11 
-1.78 -13.38 -1.56 0.11 
-2.04 -13.34 -1.56 0.11 
-2.29 -13.30 -1.56 0.11 
-2.54 -13.26 -1.56 0.11 
-2.79 -13.21 -1.56 0.11 
-3.04 -13.15 -1.56 0.11 
-3.29 -13.09 -1.56 0.11 
-3.54 -13.03 -1.56 0.11 
-3.78 -12.96 -1.56 0.11 
-4.03 -12.89 -1.56 0.11 
-4.27 -12.81 -1.56 0.11 
-4.51 -12.73 -1.56 0.11 
-4.75 -12.64 -1.56 0.11 
-4.99 -12.55 -1.56 0.11 
-5.23 -12.45 -1.56 0.11 
-5.46 -12.35 -1.56 0.11 
-5.70 -12.25 -1.56 0.11 
-5.93 -12.14 -1.56 0.11 
-6.15 -12.02 -1.56 0.11 
-6.38 -11.90 -1.56 0.11 
-6.61 -11.78 -1.56 0.11 
-6.83 -11.65 -1.56 0.11 
-7.05 -11.52 -1.56 0.11 
-7.26 -11.39 -1.56 0.11 
-7.48 -11.25 -1.56 0.11 
-7.69 -11.10 -1.56 0.11 
-7.90 -10.95 -1.56 0.11 
-8.10 -10.80 -1.56 0.11 
-8.30 -10.65 -1.56 0.11 
-8.50 -10.49 -1.56 0.11 
-8.70 -10.32 -1.56 0.11 
-8.89 -10.16 -1.56 0.11 
-9.08 -9.98 -1.56 0.11 
-9.27 -9.81 -1.56 0.11 
-9.45 -9.63 -1.56 0.11 
-9.63 -9.45 -1.56 0.11 
-9.81 -9.27 -1.56 0.11 
-9.98 -9.08 -1.55 0.11 
-10.15 -8.89 -1.55 0.11 
-10.31 -8.69 -1.55 0.11 
-10.78 -8.74 -1.60 0.46 
-11.32 -8.83 -1.65 0.45 
-11.81 -8.86 -1.70 0.11 
-12.00 -8.65 -1.71 0.11 
-12.18 -8.44 -1.71 0.11 
-12.34 -8.20 -1.71 0.11 
-12.49 -7.97 -1.71 0.11 
-12.64 -7.73 -1.71 0.11 
-12.78 -7.48 -1.71 0.11 
-12.91 -7.24 -1.71 0.11 
-13.05 -6.99 -1.71 0.11 
-13.17 -6.74 -1.71 0.11 
-13.30 -6.49 -1.71 0.11 
-13.41 -6.24 -1.71 0.11 
-13.53 -5.98 -1.70 0.11 
-13.63 -5.72 -1.70 0.11 
-13.74 -5.46 -1.70 0.11 
-13.83 -5.20 -1.70 0.11 
-13.93 -4.94 -1.70 0.11 
-14.01 -4.67 -1.70 0.11 
-14.10 -4.40 -1.70 0.11 
-14.17 -4.14 -1.70 0.11 
-14.25 -3.87 -1.70 0.11 
-14.31 -3.59 -1.70 0.11 
-14.38 -3.32 -1.70 0.11 
-14.43 -3.05 -1.70 0.11 
-14.48 -2.77 -1.70 0.11 
-10.31 -1.77 -1.21 0.62 
-10.22 -1.56 -1.19 0.93 
-10.21 -1.36 -1.19 0.94 
-10.21 -1.16 -1.18 0.96 
-10.23 -0.97 -1.18 0.95 
-10.25 -0.78 -1.19 0.94 
-10.30 -0.59 -1.19 0.94 
-10.35 -0.39 -1.19 0.93 
-10.44 -0.20 -1.20 0.88 
-10.52 -0.00 -1.23 0.87 
-14.54 0.28 -1.69 0.11 
-14.53 0.55 -1.69 0.11 
-14.51 0.82 -1.69 0.11 
-14.49 1.10 -1.69 0.11 
-14.46 1.37 -1.69 0.11 
-14.43 1.65 -1.69 0.11 
-14.39 1.92 -1.69 0.11 
-14.35 2.19 -1.69 0.11 
-14.30 2.46 -1.69 0.11 
-14.24 2.73 -1.69 0.11 
-14.19 3.00 -1.69 0.11 
-14.12 3.26 -1.69 0.11 
-14.05 3.53 -1.69 0.11 
-13.98 3.79 -1.69 0.11 
-13.90 4.06 -1.69 0.11 
-13.82 4.32 -1.69 0.11 
-13.73 4.58 -1.69 0.11 
-13.63 4.83 -1.68 0.11 
-13.53 5.09 -1.68 0.11 
-12.25 4.87 -1.54 0.50 
-11.84 4.97 -1.50 0.60 
-13.21 5.84 -1.68 0.11 
-13.09 6.09 -1.68 0.11 
-12.97 6.33 -1.68 0.11 
-12.85 6.58 -1.68 0.11 
-12.47 6.69 -1.65 0.58 
-12.58 7.05 -1.68 0.11 
-12.44 7.29 -1.68 0.11 
-12.29 7.52 -1.68 0.11 
-12.15 7.75 -1.68 0.11 
-11.99 7.97 -1.68 0.11 
-11.84 8.20 -1.68 0.11 
-11.68 8.42 -1.68 0.11 
-11.51 8.63 -1.68 0.11 
-11.34 8.85 -1.68 0.11 
-11.17 9.06 -1.67 0.11 
-10.99 9.26 -1.67 0.11 
-10.81 9.47 -1.67 0.11 
-10.63 9.67 -1.67 0.11 
-10.44 9.86 -1.67 0.11 
-10.25 10.05 -1.67 0.11 
-10.04 10.23 -1.67 0.12 
-9.83 10.41 -1.67 0.12 
-9.62 10.57 -1.66 0.12 
-9.39 10.73 -1.66 0.81 
-9.08 10.78 -1.64 0.81 
-8.78 10.83 -1.62 0.81 
-8.48 10.88 -1.61 0.82 
-8.19 10.92 -1.59 0.83 
-7.90 10.96 -1.57 0.83 
-7.62 11.00 -1.56 0.84 
-7.34 11.04 -1.54 0.85 
-7.07 11.08 -1.53 0.86 
-6.80 11.12 -1.52 0.68 
-6.57 11.22 -1.51 0.11 
-6.36 11.34 -1.51 0.11 
-6.14 11.45 -1.51 0.11 
-5.92 11.56 -1.51 0.11 
-5.70 11.67 -1.51 0.11 
-5.47 11.77 -1.51 0.11 
-5.25 11.87 -1.51 0.11 
-5.02 11.96 -1.51 0.11 
-4.79 12.05 -1.51 0.11 
-4.56 12.14 -1.51 0.11 
-4.33 12.22 -1.51 0.11 
-4.10 12.30 -1.51 0.11 
-3.86 12.37 -1.51 0.11 
-3.63 12.44 -1.51 0.11 
-3.39 12.50 -1.51 0.11 
-3.15 12.56 -1.51 0.11 
-2.92 12.62 -1.51 0.11 
-2.68 12.67 -1.51 0.11 
-2.43 12.71 -1.51 0.11 
-2.19 12.75 -1.51 0.11 
-1.95 12.79 -1.51 0.11 
-1.71 12.82 -1.51 0.11 
-1.47 12.85 -1.51 0.11 
-1.22 12.87 -1.51 0.11 
-0.98 12.89 -1.51 0.11 
-0.73 12.91 -1.51 0.11 
-0.49 12.91 -1.51 0.11 
-0.24 12.92 -1.51 0.11 
0.00 12.92 -1.50 0.11 
0.24 12.92 -1.50 0.11 
0.49 12.91 -1.50 0.11 
0.73 12.89 -1.50 0.11 
0.98 12.88 -1.50 0.11 
1.22 12.85 -1.50 0.11 
1.46 12.83 -1.50 0.11 
1.71 12.80 -1.50 0.11 
1.95 12.76 -1.50 0.11 
2.19 12.72 -1.50 0.11 
2.43 12.67 -1.50 0.11 
2.67 12.63 -1.50 0.11 
2.91 12.57 -1.50 0.11 
3.14 12.51 -1.50 0.11 
3.38 12.45 -1.50 0.11 
3.61 12.38 -1.50 0.11 
3.85 12.31 -1.50 0.11 
4.08 12.24 -1.50 0.11 
4.31 12.16 -1.50 0.11 
4.54 12.07 -1.50 0.11 
4.77 11.98 -1.50 0.11 
4.99 11.89 -1.50 0.11 
5.22 11.80 -1.50 0.11 
5.44 11.69 -1.50 0.11 
5.66 11.59 -1.50 0.11 
5.88 11.48 -1.50 0.11 
6.09 11.37 -1.50 0.11 
6.31 11.25 -1.50 0.11 
6.52 11.13 -1.50 0.11 
6.73 11.00 -1.50 0.11 
6.99 10.96 -1.51 0.86 
7.26 10.92 -1.53 0.85 
7.53 10.87 -1.54 0.85 
7.81 10.83 -1.55 0.84 
8.09 10.78 -1.57 0.84 
8.37 10.74 -1.59 0.83 
