VERSION 0.7
FIELDS x y z intensity
SIZE 4 4 4 8
TYPE F F F F
COUNT 1 1 1 1
WIDTH 1951
HEIGHT 1
VIEWPOINT 0.0 0.0 0.0 1.0 0.0 0.0 0.0
POINTS 1951
DATA ascii
-15.64 -53.60 -1.00 0.76 
-16.77 -53.69 -1.01 0.21 
-28.48 -85.44 -1.62 0.01 
-30.09 -84.89 -1.62 0.01 
-18.33 -48.75 -0.93 0.70 
-33.28 -83.69 -1.62 0.01 
-34.86 -83.04 -1.62 0.01 
-35.06 -79.27 -1.55 0.29 
-20.56 -44.22 -0.87 0.20 
-36.33 -74.41 -1.49 0.69 
-41.04 -80.17 -1.62 0.01 
-42.55 -79.38 -1.62 0.01 
-44.04 -78.56 -1.62 0.01 
-45.11 -77.00 -1.60 0.36 
-46.99 -76.84 -1.62 0.01 
-7.92 -12.42 -0.26 0.88 
-8.30 -12.49 -0.27 0.63 
-28.49 -41.14 -0.90 0.47 
-28.50 -39.54 -0.87 0.49 
-28.76 -38.35 -0.86 0.54 
-29.18 -37.41 -0.85 0.69 
-30.36 -37.45 -0.86 0.58 
-58.04 -68.87 -1.62 0.01 
-59.33 -67.76 -1.62 0.01 
-28.78 -31.64 -0.77 0.51 
-8.15 -8.63 -0.21 0.89 
-28.76 -29.31 -0.74 0.60 
-28.77 -28.23 -0.72 0.61 
-28.79 -27.20 -0.71 0.66 
-28.94 -26.32 -0.70 0.75 
-29.89 -26.17 -0.71 0.35 
-54.16 -45.64 -1.27 0.33 
-52.97 -42.95 -1.22 0.35 
-40.30 -31.43 -0.92 0.68 
-40.30 -30.22 -0.90 0.65 
-32.35 -23.32 -0.72 0.68 
-29.09 -20.14 -0.63 0.66 
-29.11 -19.35 -0.63 0.66 
-29.13 -18.58 -0.62 0.65 
-29.82 -18.24 -0.63 0.13 
-43.96 -25.75 -0.91 0.81 
-52.68 -29.53 -1.08 0.69 
-40.42 -21.66 -0.82 0.65 
-40.39 -20.68 -0.81 0.59 
-18.10 -8.84 -0.36 0.62 
-40.49 -18.83 -0.80 0.78 
-40.47 -17.89 -0.79 0.71 
-41.55 -17.44 -0.81 0.19 
-44.59 -17.73 -0.86 0.76 
-44.64 -16.78 -0.86 0.55 
-52.84 -18.73 -1.01 0.76 
-52.85 -17.62 -1.00 0.76 
-53.15 -16.60 -1.00 0.80 
-53.54 -15.62 -1.00 0.80 
-53.93 -14.63 -1.00 0.79 
-54.32 -13.64 -1.00 0.79 
-54.74 -12.65 -1.01 0.48 
-56.41 -11.91 -1.03 0.46 
-58.16 -11.14 -1.06 0.45 
-62.49 -10.75 -1.14 0.12 
-71.21 -10.86 -1.29 0.10 
-80.85 -10.77 -1.46 0.01 
-11.39 -1.30 -0.21 0.85 
-11.35 -1.08 -0.20 0.33 
-11.10 -0.84 -0.20 0.54 
-11.03 -0.63 -0.20 0.54 
-10.98 -0.42 -0.20 0.49 
-10.90 -0.21 -0.20 0.50 
-10.88 -0.00 -0.21 0.50 
-10.96 0.21 -0.21 0.50 
-11.01 0.42 -0.21 0.55 
-11.08 0.63 -0.21 0.54 
-84.19 6.39 -1.62 0.01 
-11.38 1.08 -0.22 0.78 
-58.68 6.69 -1.13 0.78 
-83.30 11.10 -1.61 0.10 
-75.59 11.53 -1.46 0.01 
-75.36 12.96 -1.46 0.01 
-70.34 13.47 -1.37 0.74 
-74.82 15.80 -1.46 0.01 
-51.87 11.99 -1.02 0.39 
-74.62 18.74 -1.47 0.01 
-74.72 20.28 -1.48 0.01 
-42.91 12.52 -0.86 0.77 
-43.77 13.67 -0.88 0.31 
-39.39 13.13 -0.79 0.54 
-74.87 26.54 -1.52 0.01 
-7.52 2.83 -0.15 0.30 
-7.10 2.83 -0.15 0.31 
-6.73 2.83 -0.14 0.34 
-6.40 2.83 -0.13 0.36 
-6.10 2.84 -0.13 0.37 
-5.85 2.85 -0.12 0.45 
-5.63 2.88 -0.12 0.58 
-5.50 2.95 -0.12 0.78 
-5.48 3.07 -0.12 0.86 
-5.46 3.20 -0.12 0.85 
-5.44 3.32 -0.12 0.84 
-5.41 3.45 -0.12 0.84 
-5.44 3.61 -0.12 0.66 
-5.46 3.78 -0.13 0.65 
-5.49 3.96 -0.13 0.67 
-67.55 50.66 -1.62 0.01 
-38.32 29.89 -0.93 0.74 
-65.58 53.18 -1.62 0.01 
-64.57 54.41 -1.62 0.01 
-63.52 55.62 -1.62 0.01 
-13.53 12.31 -0.35 0.92 
-13.29 12.55 -0.35 0.92 
-13.02 12.78 -0.35 0.93 
-13.13 13.38 -0.36 0.92 
-12.51 13.24 -0.35 0.93 
-12.28 13.50 -0.35 0.02 
-12.32 14.07 -0.36 0.93 
-11.70 13.88 -0.35 0.93 
-53.18 65.58 -1.62 0.01 
-51.93 66.58 -1.62 0.01 
-50.66 67.55 -1.62 0.01 
-49.37 68.50 -1.62 0.01 
-48.06 69.42 -1.62 0.01 
-46.74 70.31 -1.62 0.01 
-45.40 71.19 -1.62 0.01 
-44.05 72.03 -1.62 0.01 
-78.76 134.45 -2.98 0.47 
-7.34 13.10 -0.29 0.48 
-7.05 13.15 -0.29 0.94 
-6.85 13.38 -0.29 0.43 
-35.28 72.26 -1.54 0.58 
-21.14 45.46 -0.96 0.67 
-2.88 6.51 -0.14 0.07 
-2.71 6.45 -0.13 0.13 
-2.55 6.42 -0.13 0.13 
-2.41 6.41 -0.13 0.77 
-2.27 6.42 -0.13 0.77 
-2.14 6.42 -0.13 0.78 
-2.01 6.42 -0.13 0.79 
-1.88 6.45 -0.13 0.15 
-1.77 6.51 -0.13 0.17 
-1.65 6.55 -0.13 0.22 
-1.53 6.61 -0.13 0.22 
-1.41 6.66 -0.13 0.22 
-1.31 6.82 -0.13 0.06 
-2.53 14.73 -0.29 0.90 
-12.43 81.49 -1.58 0.71 
-11.01 82.59 -1.59 0.49 
-9.51 83.36 -1.60 0.16 
-8.12 85.56 -1.64 0.61 
-6.58 86.73 -1.66 0.59 
-5.00 87.97 -1.69 0.57 
-0.47 12.43 -0.24 0.73 
-0.23 12.32 -0.24 0.95 
-0.00 12.51 -0.24 0.46 
1.66 87.47 -1.67 0.48 
3.30 87.24 -1.67 0.65 
4.95 87.01 -1.67 0.62 
6.64 87.53 -1.68 0.70 
8.33 87.81 -1.69 0.61 
10.07 88.32 -1.70 0.54 
11.93 89.52 -1.73 0.45 
13.87 90.89 -1.76 0.64 
15.57 90.54 -1.76 0.50 
2.68 14.01 -0.27 0.91 
3.00 14.20 -0.28 0.64 
21.10 91.31 -1.79 0.50 
23.13 92.11 -1.82 0.27 
49.66 183.03 -3.63 0.01 
53.12 182.05 -3.63 0.01 
56.55 181.01 -3.63 0.01 
59.97 179.91 -3.63 0.01 
63.36 178.75 -3.63 0.01 
4.40 11.71 -0.24 0.69 
70.08 176.22 -3.63 0.01 
5.65 13.46 -0.28 0.32 
5.81 13.15 -0.28 0.93 
6.08 13.07 -0.28 0.58 
83.21 170.41 -3.63 0.01 
86.42 168.81 -3.63 0.01 
89.59 167.14 -3.63 0.01 
92.74 165.42 -3.63 0.01 
42.68 72.85 -1.62 0.01 
44.05 72.03 -1.62 0.01 
12.47 19.55 -0.44 0.76 
46.74 70.31 -1.62 0.01 
48.06 69.42 -1.62 0.01 
49.37 68.50 -1.62 0.01 
50.66 67.55 -1.62 0.01 
16.93 21.70 -0.53 0.04 
13.17 16.25 -0.40 0.91 
54.41 64.57 -1.62 0.01 
55.62 63.52 -1.62 0.01 
56.81 62.46 -1.62 0.01 
57.98 61.37 -1.62 0.01 
59.14 60.27 -1.62 0.01 
60.27 59.14 -1.62 0.01 
61.37 57.98 -1.62 0.01 
62.46 56.81 -1.62 0.01 
8.22 7.20 -0.21 0.23 
8.21 6.92 -0.21 0.32 
8.22 6.66 -0.20 0.33 
8.26 6.44 -0.20 0.39 
8.33 6.25 -0.20 0.45 
8.59 6.19 -0.20 0.38 
9.00 6.23 -0.21 0.47 
9.36 6.22 -0.22 0.43 
9.76 6.22 -0.22 0.42 
72.03 44.05 -1.62 0.01 
72.68 42.58 -1.61 0.01 
73.26 41.07 -1.61 0.01 
73.80 39.56 -1.60 0.01 
74.31 38.04 -1.60 0.01 
74.92 36.58 -1.59 0.01 
20.39 9.48 -0.43 0.79 
42.10 18.62 -0.88 0.75 
76.54 32.13 -1.59 0.01 
25.11 9.99 -0.52 0.63 
25.08 9.43 -0.51 0.86 
77.86 27.60 -1.58 0.01 
78.24 26.08 -1.58 0.01 
78.58 24.55 -1.57 0.01 
50.27 14.67 -1.00 0.48 
79.16 21.48 -1.57 0.01 
79.41 19.94 -1.57 0.01 
79.61 18.40 -1.56 0.01 
79.79 16.85 -1.56 0.01 
79.93 15.31 -1.56 0.01 
80.04 13.77 -1.55 0.01 
39.87 6.08 -0.77 0.35 
40.22 5.36 -0.78 0.20 
80.46 9.18 -1.55 0.01 
80.58 7.65 -1.55 0.01 
37.81 2.87 -0.73 0.81 
45.30 2.57 -0.87 0.34 
45.03 1.71 -0.86 0.69 
80.90 1.53 -1.55 0.01 
39.42 0.00 -0.75 0.25 
80.77 -1.53 -1.55 0.01 
49.59 -1.88 -0.95 0.30 
49.57 -2.82 -0.95 0.44 
45.16 -3.42 -0.87 0.74 
80.15 -7.61 -1.54 0.01 
79.95 -9.12 -1.54 0.01 
52.95 -7.06 -1.02 0.44 
79.33 -12.10 -1.54 0.01 
79.03 -13.59 -1.53 0.01 
78.61 -15.06 -1.53 0.01 
51.25 -10.83 -1.00 0.78 
77.75 -17.97 -1.53 0.01 
77.26 -19.40 -1.52 0.01 
76.74 -20.82 -1.52 0.01 
76.24 -22.24 -1.52 0.01 
75.64 -23.63 -1.52 0.01 
75.02 -25.01 -1.51 0.01 
53.66 -19.02 -1.09 0.61 
73.75 -27.73 -1.51 0.01 
73.06 -29.06 -1.50 0.01 
65.33 -27.42 -1.36 0.64 
61.67 -27.27 -1.29 0.59 
70.86 -32.95 -1.50 0.01 
70.08 -34.22 -1.49 0.01 
56.84 -29.10 -1.22 0.69 
58.31 -31.26 -1.27 0.69 
67.59 -37.90 -1.48 0.01 
66.71 -39.08 -1.48 0.01 
65.81 -40.24 -1.48 0.01 
64.88 -41.38 -1.47 0.01 
63.92 -42.49 -1.47 0.01 
62.95 -43.59 -1.46 0.01 
34.32 -24.74 -0.81 0.74 
51.30 -38.47 -1.23 0.62 
11.81 -9.21 -0.29 0.46 
48.29 -39.15 -1.19 0.58 
47.61 -40.12 -1.19 0.61 
47.58 -41.66 -1.21 0.58 
32.75 -29.79 -0.85 0.28 
23.62 -22.31 -0.62 0.84 
23.27 -22.83 -0.62 0.62 
56.29 -57.36 -1.54 0.50 
56.28 -59.57 -1.57 0.49 
36.53 -40.16 -1.04 0.53 
55.62 -63.52 -1.62 0.01 
54.41 -64.57 -1.62 0.01 
11.63 -14.35 -0.35 0.73 
11.28 -14.46 -0.35 0.56 
11.29 -15.05 -0.36 0.55 
28.08 -38.95 -0.92 0.38 
5.98 -8.63 -0.20 0.65 
46.74 -70.31 -1.62 0.01 
45.40 -71.19 -1.62 0.01 
44.05 -72.03 -1.62 0.01 
42.68 -72.85 -1.62 0.01 
41.29 -73.65 -1.62 0.01 
39.89 -74.42 -1.62 0.01 
38.47 -75.16 -1.62 0.01 
34.72 -71.11 -1.51 0.27 
24.75 -53.23 -1.12 0.72 
20.33 -45.96 -0.96 0.35 
22.33 -53.20 -1.10 0.73 
21.54 -54.18 -1.12 0.31 
24.26 -64.55 -1.32 0.71 
21.38 -60.31 -1.22 0.73 
20.10 -60.31 -1.22 0.74 
17.72 -56.72 -1.14 0.75 
16.54 -56.70 -1.13 0.75 
15.39 -56.71 -1.12 0.75 
14.23 -56.68 -1.12 0.77 
12.47 -53.95 -1.06 0.58 
11.46 -54.25 -1.06 0.16 
12.22 -63.79 -1.24 0.74 
10.38 -60.34 -1.17 0.77 
9.21 -60.36 -1.17 0.77 
8.04 -60.35 -1.16 0.78 
6.99 -61.32 -1.18 0.08 
7.22 -76.12 -1.46 0.01 
5.78 -76.25 -1.46 0.01 
4.34 -76.34 -1.46 0.01 
2.16 -56.91 -1.09 0.80 
0.90 -47.49 -0.91 0.49 
-0.00 -53.70 -1.03 0.28 
-1.01 -53.45 -1.02 0.81 
-1.75 -46.19 -0.88 0.63 
-3.04 -53.48 -1.02 0.80 
-4.05 -53.46 -1.03 0.80 
-5.77 -60.82 -1.17 0.78 
-6.90 -60.48 -1.16 0.68 
-8.53 -64.04 -1.24 0.76 
-7.46 -48.92 -0.95 0.63 
-9.81 -57.03 -1.11 0.78 
-10.92 -57.00 -1.11 0.78 
-12.05 -57.03 -1.12 0.76 
-12.46 -53.91 -1.06 0.48 
-13.44 -53.53 -1.06 0.77 
-14.55 -53.62 -1.06 0.76 
-15.64 -53.61 -1.07 0.76 
-16.74 -53.59 -1.07 0.76 
-26.70 -80.10 -1.62 0.01 
-28.21 -79.58 -1.62 0.01 
-18.35 -48.81 -1.00 0.21 
-31.20 -78.46 -1.62 0.01 
-32.68 -77.85 -1.62 0.01 
-34.15 -77.22 -1.62 0.01 
-35.15 -75.60 -1.59 0.45 
-36.32 -74.40 -1.58 0.69 
-38.47 -75.16 -1.62 0.01 
-39.89 -74.42 -1.62 0.01 
-41.29 -73.65 -1.62 0.01 
-42.68 -72.85 -1.62 0.01 
-44.05 -72.03 -1.62 0.01 
-7.92 -12.42 -0.28 0.87 
-8.31 -12.49 -0.29 0.65 
-28.49 -41.15 -0.96 0.47 
-28.50 -39.54 -0.93 0.49 
-28.79 -38.39 -0.92 0.47 
-29.18 -37.41 -0.91 0.69 
-30.37 -37.45 -0.92 0.58 
-54.41 -64.57 -1.62 0.01 
-55.62 -63.52 -1.62 0.01 
-28.78 -31.64 -0.82 0.51 
-8.15 -8.63 -0.23 0.89 
-28.77 -29.32 -0.79 0.60 
-28.78 -28.24 -0.77 0.61 
-28.80 -27.21 -0.76 0.66 
-28.93 -26.31 -0.75 0.75 
-29.84 -26.13 -0.76 0.35 
-45.36 -38.23 -1.13 0.50 
-52.97 -42.95 -1.30 0.35 
-40.30 -31.43 -0.98 0.68 
-40.29 -30.22 -0.96 0.65 
-32.33 -23.30 -0.76 0.68 
-29.08 -20.13 -0.68 0.72 
-29.09 -19.34 -0.67 0.73 
-29.11 -18.56 -0.66 0.65 
-29.59 -18.09 -0.66 0.13 
-43.97 -25.75 -0.97 0.81 
-52.68 -29.53 -1.16 0.69 
-40.40 -21.65 -0.88 0.65 
-40.37 -20.67 -0.87 0.59 
-18.10 -8.84 -0.39 0.62 
-40.48 -18.82 -0.85 0.58 
-40.45 -17.89 -0.85 0.71 
-41.54 -17.44 -0.86 0.27 
-44.59 -17.73 -0.92 0.74 
-44.64 -16.78 -0.91 0.58 
-52.84 -18.73 -1.07 0.76 
-52.85 -17.62 -1.07 0.76 
-53.15 -16.60 -1.07 0.80 
-53.54 -15.62 -1.07 0.80 
-53.93 -14.63 -1.07 0.79 
-54.32 -13.64 -1.07 0.79 
-54.74 -12.65 -1.07 0.48 
-56.41 -11.91 -1.10 0.46 
-58.16 -11.14 -1.13 0.45 
-62.49 -10.75 -1.21 0.12 
-71.21 -10.86 -1.38 0.10 
-75.80 -10.10 -1.46 0.01 
-11.39 -1.30 -0.22 0.77 
-11.32 -1.07 -0.22 0.36 
-11.09 -0.84 -0.21 0.54 
-11.01 -0.63 -0.21 0.54 
-10.96 -0.41 -0.21 0.50 
-10.88 -0.21 -0.21 0.50 
-10.86 -0.00 -0.22 0.50 
-10.94 0.21 -0.22 0.50 
-10.99 0.42 -0.22 0.55 
-11.06 0.63 -0.23 0.54 
-11.34 0.86 -0.23 0.35 
-11.38 1.08 -0.23 0.78 
-58.67 6.69 -1.20 0.68 
-78.77 10.50 -1.62 0.01 
-72.88 11.12 -1.50 0.11 
-70.93 12.20 -1.46 0.02 
-70.34 13.47 -1.46 0.74 
-70.41 14.87 -1.46 0.02 
-70.12 16.20 -1.46 0.02 
-69.88 17.55 -1.46 0.01 
-69.95 18.98 -1.47 0.01 
-43.54 12.70 -0.92 0.77 
-43.77 13.67 -0.93 0.31 
-39.38 13.13 -0.84 0.62 
-69.96 24.80 -1.51 0.01 
-7.50 2.82 -0.16 0.30 
-7.09 2.82 -0.16 0.31 
-6.72 2.82 -0.15 0.34 
-6.39 2.83 -0.14 0.36 
-6.09 2.83 -0.14 0.37 
-5.84 2.85 -0.13 0.45 
-5.62 2.88 -0.13 0.58 
-5.49 2.94 -0.13 0.78 
-5.48 3.07 -0.13 0.86 
-5.46 3.20 -0.13 0.85 
-5.43 3.32 -0.13 0.84 
-5.41 3.45 -0.13 0.84 
-5.43 3.61 -0.13 0.66 
-5.46 3.78 -0.14 0.65 
-5.48 3.95 -0.14 0.67 
-63.57 47.68 -1.62 0.01 
-38.32 29.89 -0.99 0.74 
-61.72 50.05 -1.62 0.01 
-60.77 51.21 -1.62 0.01 
-59.79 52.35 -1.62 0.01 
-13.52 12.30 -0.37 0.92 
-13.26 12.52 -0.37 0.92 
-12.99 12.75 -0.37 0.93 
-12.73 12.97 -0.37 0.93 
-12.47 13.20 -0.37 0.93 
-12.21 13.42 -0.37 0.93 
-11.95 13.65 -0.37 0.93 
-11.69 13.87 -0.37 0.93 
-50.05 61.72 -1.62 0.01 
-48.87 62.66 -1.62 0.01 
-47.68 63.57 -1.62 0.01 
-46.47 64.47 -1.62 0.01 
-45.24 65.33 -1.62 0.01 
-43.99 66.18 -1.62 0.01 
-42.73 67.00 -1.62 0.01 
-41.46 67.79 -1.62 0.01 
-40.17 68.57 -1.62 0.01 
-7.34 13.10 -0.31 0.48 
-7.05 13.15 -0.30 0.94 
-6.85 13.38 -0.31 0.43 
-34.87 71.41 -1.62 0.01 
-21.14 45.46 -1.02 0.82 
-2.84 6.42 -0.14 0.14 
-2.69 6.40 -0.14 0.76 
-2.55 6.41 -0.14 0.77 
-2.41 6.41 -0.14 0.77 
-2.27 6.41 -0.14 0.77 
-2.14 6.41 -0.14 0.78 
-2.01 6.42 -0.14 0.79 
-1.87 6.43 -0.14 0.79 
-1.75 6.47 -0.14 0.17 
-1.64 6.52 -0.14 0.22 
-1.52 6.58 -0.14 0.22 
-1.40 6.62 -0.14 0.22 
-1.28 6.70 -0.14 0.07 
-1.21 7.04 -0.15 0.01 
-12.43 81.50 -1.68 0.71 
-11.01 82.61 -1.69 0.49 
-9.49 83.25 -1.70 0.31 
-8.12 85.56 -1.75 0.61 
-6.58 86.73 -1.77 0.58 
-5.00 87.95 -1.79 0.43 
-0.47 12.44 -0.25 0.93 
-0.23 12.32 -0.25 0.95 
-0.00 12.53 -0.25 0.62 
1.66 87.56 -1.78 0.60 
3.30 87.19 -1.77 0.65 
4.94 86.95 -1.77 0.62 
6.64 87.51 -1.78 0.70 
8.34 87.84 -1.79 0.69 
10.07 88.31 -1.81 0.57 
11.92 89.46 -1.83 0.45 
13.87 90.93 -1.87 0.64 
15.59 90.63 -1.87 0.50 
2.68 14.01 -0.29 0.88 
3.00 14.20 -0.29 0.72 
21.09 91.26 -1.90 0.67 
23.09 91.95 -1.93 0.27 
46.74 172.26 -3.63 0.01 
49.99 171.34 -3.63 0.01 
53.22 170.36 -3.63 0.01 
56.44 169.33 -3.63 0.01 
59.63 168.23 -3.63 0.01 
4.40 11.71 -0.25 0.69 
65.96 165.85 -3.63 0.01 
5.65 13.45 -0.30 0.32 
5.81 13.15 -0.29 0.93 
6.08 13.07 -0.29 0.58 
34.87 71.41 -1.62 0.01 
36.21 70.74 -1.62 0.01 
37.54 70.04 -1.62 0.01 
38.86 69.32 -1.62 0.01 
40.17 68.57 -1.62 0.01 
41.46 67.79 -1.62 0.01 
12.47 19.55 -0.47 0.76 
43.99 66.18 -1.62 0.01 
45.24 65.33 -1.62 0.01 
46.47 64.47 -1.62 0.01 
47.68 63.57 -1.62 0.01 
16.92 21.69 -0.56 0.67 
13.17 16.25 -0.43 0.91 
51.21 60.77 -1.62 0.01 
52.35 59.79 -1.62 0.01 
53.47 58.79 -1.62 0.01 
54.57 57.76 -1.62 0.01 
55.66 56.72 -1.62 0.01 
56.72 55.66 -1.62 0.01 
57.76 54.57 -1.62 0.01 
58.79 53.47 -1.62 0.01 
8.18 7.16 -0.22 0.24 
8.18 6.90 -0.22 0.32 
8.19 6.64 -0.21 0.33 
8.23 6.42 -0.21 0.40 
8.31 6.23 -0.21 0.45 
8.58 6.18 -0.21 0.38 
8.99 6.22 -0.22 0.47 
9.35 6.21 -0.23 0.43 
9.74 6.21 -0.23 0.42 
67.46 41.25 -1.61 0.01 
68.03 39.85 -1.60 0.01 
68.58 38.45 -1.60 0.01 
69.10 37.04 -1.59 0.01 
69.61 35.63 -1.59 0.01 
70.07 34.21 -1.59 0.01 
20.38 9.48 -0.46 0.79 
42.12 18.63 -0.94 0.67 
71.41 29.97 -1.57 0.01 
25.11 9.99 -0.55 0.63 
25.08 9.43 -0.54 0.86 
72.66 25.76 -1.57 0.01 
73.02 24.34 -1.56 0.01 
73.35 22.92 -1.56 0.01 
50.33 14.68 -1.07 0.48 
73.91 20.06 -1.56 0.01 
35.30 8.86 -0.74 0.82 
35.73 8.26 -0.75 0.31 
74.53 15.74 -1.55 0.01 
74.67 14.30 -1.55 0.01 
74.78 12.86 -1.54 0.01 
39.92 6.09 -0.82 0.68 
40.29 5.37 -0.83 0.38 
74.95 8.55 -1.53 0.01 
75.06 7.12 -1.53 0.01 
37.81 2.87 -0.77 0.81 
45.35 2.58 -0.92 0.34 
45.06 1.71 -0.92 0.69 
75.27 1.42 -1.53 0.01 
39.32 0.00 -0.80 0.54 
75.17 -1.42 -1.53 0.01 
49.69 -1.88 -1.01 0.27 
49.65 -2.82 -1.01 0.06 
45.15 -3.42 -0.92 0.74 
74.56 -7.08 -1.52 0.01 
74.35 -8.48 -1.52 0.01 
53.01 -7.06 -1.09 0.44 
73.83 -11.26 -1.52 0.01 
73.46 -12.63 -1.51 0.01 
73.13 -14.01 -1.51 0.01 
51.25 -10.83 -1.06 0.78 
72.29 -16.70 -1.51 0.01 
71.82 -18.04 -1.51 0.01 
71.39 -19.37 -1.50 0.01 
70.86 -20.67 -1.50 0.01 
70.33 -21.97 -1.50 0.01 
69.78 -23.26 -1.50 0.01 
53.66 -19.02 -1.16 0.61 
68.56 -25.77 -1.49 0.01 
67.93 -27.02 -1.49 0.01 
65.26 -27.39 -1.44 0.69 
61.64 -27.26 -1.37 0.70 
65.88 -30.64 -1.48 0.01 
65.15 -31.81 -1.47 0.01 
56.83 -29.09 -1.30 0.69 
58.31 -31.25 -1.34 0.69 
62.84 -35.23 -1.46 0.01 
62.10 -36.38 -1.46 0.02 
61.40 -37.54 -1.46 0.02 
60.68 -38.70 -1.46 0.02 
59.93 -39.84 -1.46 0.02 
59.17 -40.97 -1.46 0.02 
34.32 -24.74 -0.86 0.74 
51.30 -38.47 -1.30 0.62 
11.81 -9.21 -0.30 0.46 
48.29 -39.16 -1.26 0.58 
47.61 -40.12 -1.27 0.61 
47.57 -41.65 -1.28 0.58 
47.65 -43.34 -1.31 0.52 
23.62 -22.31 -0.66 0.84 
23.26 -22.83 -0.66 0.62 
55.66 -56.72 -1.62 0.01 
54.57 -57.76 -1.62 0.01 
36.53 -40.16 -1.10 0.53 
52.35 -59.79 -1.62 0.01 
51.21 -60.77 -1.62 0.01 
11.63 -14.35 -0.38 0.73 
11.28 -14.46 -0.37 0.56 
11.29 -15.05 -0.38 0.55 
28.07 -38.95 -0.98 0.38 
5.97 -8.63 -0.21 0.65 
43.99 -66.18 -1.62 0.01 
42.73 -67.00 -1.62 0.01 
41.46 -67.79 -1.62 0.01 
40.17 -68.57 -1.62 0.01 
38.86 -69.32 -1.62 0.01 
37.54 -70.04 -1.62 0.01 
36.21 -70.74 -1.62 0.01 
34.70 -71.07 -1.61 0.27 
24.75 -53.23 -1.19 0.72 
20.34 -45.99 -1.02 0.79 
22.33 -53.20 -1.17 0.73 
21.53 -54.15 -1.18 0.31 
24.25 -64.51 -1.40 0.72 
21.38 -60.31 -1.30 0.74 
20.10 -60.30 -1.29 0.74 
17.72 -56.72 -1.21 0.74 
16.54 -56.70 -1.20 0.75 
15.39 -56.71 -1.19 0.77 
14.23 -56.68 -1.19 0.77 
12.47 -53.96 -1.13 0.56 
11.45 -54.21 -1.13 0.10 
12.51 -65.30 -1.35 0.75 
10.38 -60.34 -1.24 0.77 
9.21 -60.36 -1.24 0.77 
8.04 -60.35 -1.24 0.78 
6.95 -60.97 -1.25 0.08 
6.80 -71.65 -1.46 0.02 
5.44 -71.76 -1.46 0.02 
4.08 -71.85 -1.46 0.02 
2.16 -56.91 -1.16 0.80 
0.90 -47.51 -0.97 0.69 
-0.00 -53.56 -1.09 0.68 
-1.01 -53.45 -1.09 0.81 
-1.75 -46.20 -0.94 0.61 
-3.04 -53.48 -1.09 0.80 
-4.05 -53.46 -1.09 0.80 
-5.77 -60.82 -1.24 0.78 
-6.90 -60.50 -1.24 0.74 
-9.51 -71.34 -1.46 0.02 
-7.46 -48.90 -1.01 0.74 
-9.81 -57.04 -1.18 0.77 
-10.92 -57.00 -1.18 0.78 
-12.05 -57.04 -1.18 0.76 
-12.46 -53.91 -1.12 0.48 
-13.44 -53.53 -1.12 0.77 
-14.55 -53.62 -1.13 0.76 
-15.64 -53.61 -1.14 0.77 
-16.74 -53.59 -1.14 0.76 
-25.13 -75.39 -1.62 0.01 
-26.55 -74.90 -1.62 0.01 
-18.35 -48.81 -1.06 0.81 
-29.36 -73.84 -1.62 0.01 
-30.76 -73.27 -1.62 0.01 
-32.14 -72.68 -1.62 0.01 
-33.51 -72.06 -1.62 0.01 
-34.87 -71.41 -1.62 0.01 
-36.21 -70.74 -1.62 0.01 
-37.54 -70.04 -1.62 0.01 
-38.86 -69.32 -1.62 0.01 
-40.17 -68.57 -1.62 0.01 
-41.46 -67.79 -1.62 0.01 
-7.92 -12.42 -0.30 0.85 
-8.31 -12.50 -0.31 0.66 
-28.49 -41.15 -1.02 0.47 
-28.50 -39.54 -0.99 0.49 
-28.82 -38.42 -0.98 0.62 
-29.18 -37.42 -0.96 0.67 
-30.37 -37.46 -0.98 0.56 
-51.21 -60.77 -1.62 0.01 
-52.35 -59.79 -1.62 0.01 
-28.78 -31.64 -0.87 0.51 
-8.15 -8.63 -0.24 0.89 
-28.77 -29.32 -0.83 0.60 
-28.78 -28.24 -0.82 0.61 
-28.80 -27.21 -0.81 0.66 
-28.92 -26.30 -0.79 0.77 
-29.79 -26.08 -0.80 0.37 
-45.37 -38.23 -1.21 0.50 
-52.97 -42.95 -1.39 0.35 
-40.26 -31.40 -1.04 0.65 
-17.67 -13.25 -0.45 0.90 
-29.14 -21.00 -0.73 0.06 
-29.07 -20.13 -0.72 0.72 
-29.09 -19.34 -0.71 0.73 
-29.10 -18.56 -0.70 0.74 
-21.05 -12.88 -0.50 0.19 
-43.96 -25.75 -1.04 0.81 
-52.68 -29.53 -1.23 0.69 
-40.38 -21.64 -0.93 0.65 
-40.36 -20.66 -0.92 0.75 
-18.10 -8.84 -0.41 0.62 
-40.46 -18.82 -0.91 0.58 
-40.43 -17.88 -0.90 0.71 
-41.52 -17.43 -0.92 0.28 
-44.59 -17.73 -0.98 0.73 
-44.62 -16.77 -0.97 0.78 
-52.84 -18.73 -1.14 0.76 
-52.85 -17.62 -1.13 0.76 
-53.15 -16.60 -1.13 0.80 
-53.54 -15.62 -1.13 0.80 
-53.93 -14.63 -1.14 0.79 
-54.32 -13.64 -1.14 0.79 
-14.93 -3.45 -0.31 0.42 
-56.41 -11.91 -1.17 0.46 
-58.16 -11.14 -1.20 0.45 
-62.49 -10.75 -1.29 0.12 
-71.14 -10.85 -1.46 0.02 
-71.34 -9.51 -1.46 0.02 
-11.39 -1.30 -0.23 0.77 
-11.31 -1.07 -0.23 0.36 
-11.07 -0.84 -0.23 0.54 
-11.00 -0.62 -0.22 0.54 
-10.94 -0.41 -0.22 0.50 
-10.86 -0.21 -0.22 0.50 
-10.84 0.00 -0.23 0.51 
-10.91 0.21 -0.23 0.50 
-10.97 0.42 -0.24 0.55 
-11.05 0.63 -0.24 0.54 
-11.32 0.86 -0.24 0.35 
-11.38 1.08 -0.25 0.78 
-58.72 6.70 -1.27 0.68 
-74.39 9.91 -1.62 0.02 
-72.78 11.10 -1.58 0.11 
-66.98 11.52 -1.46 0.02 
-66.75 12.79 -1.46 0.02 
-66.50 14.05 -1.46 0.02 
-66.22 15.30 -1.46 0.02 
-65.92 16.55 -1.46 0.02 
-65.75 17.84 -1.47 0.02 
-43.54 12.70 -0.98 0.77 
-43.77 13.67 -0.99 0.31 
-39.39 13.13 -0.89 0.52 
-65.67 23.28 -1.50 0.01 
-7.49 2.82 -0.17 0.30 
-7.08 2.82 -0.16 0.31 
-6.71 2.82 -0.16 0.34 
-6.38 2.82 -0.15 0.36 
-6.08 2.83 -0.14 0.37 
-5.83 2.85 -0.14 0.45 
-5.62 2.88 -0.14 0.58 
-5.49 2.94 -0.13 0.78 
-5.47 3.07 -0.14 0.86 
-5.45 3.19 -0.14 0.85 
-5.43 3.32 -0.14 0.84 
-5.41 3.45 -0.14 0.84 
-5.43 3.61 -0.14 0.66 
-5.46 3.78 -0.14 0.65 
-5.48 3.95 -0.15 0.67 
-60.04 45.03 -1.62 0.02 
-38.32 29.89 -1.05 0.74 
-58.29 47.27 -1.62 0.02 
-57.39 48.36 -1.62 0.02 
-56.46 49.44 -1.62 0.02 
-13.51 12.29 -0.39 0.92 
-13.26 12.52 -0.39 0.92 
-12.99 12.75 -0.39 0.93 
-12.73 12.97 -0.39 0.93 
-12.47 13.20 -0.39 0.93 
-12.21 13.42 -0.39 0.93 
-11.95 13.65 -0.39 0.93 
-11.68 13.86 -0.39 0.93 
-47.27 58.29 -1.62 0.02 
-46.16 59.18 -1.62 0.02 
-45.03 60.04 -1.62 0.02 
-43.88 60.88 -1.62 0.02 
-42.72 61.70 -1.62 0.02 
-41.55 62.50 -1.62 0.02 
-40.36 63.28 -1.62 0.02 
-39.15 64.03 -1.62 0.02 
-37.93 64.76 -1.62 0.02 
-7.34 13.10 -0.32 0.48 
-7.05 13.15 -0.32 0.94 
-6.85 13.38 -0.32 0.43 
-32.93 67.44 -1.62 0.02 
-21.14 45.46 -1.08 0.82 
-2.83 6.40 -0.15 0.75 
-2.69 6.40 -0.15 0.76 
-2.55 6.40 -0.15 0.77 
-2.41 6.40 -0.15 0.77 
-2.27 6.41 -0.15 0.77 
-2.14 6.41 -0.15 0.78 
-2.00 6.41 -0.14 0.79 
-1.87 6.42 -0.14 0.79 
-1.74 6.43 -0.14 0.22 
-1.63 6.49 -0.14 0.22 
-1.51 6.54 -0.14 0.22 
-1.39 6.59 -0.14 0.28 
-1.27 6.65 -0.15 0.47 
-1.18 6.87 -0.15 0.07 
-12.44 81.52 -1.77 0.68 
-11.01 82.64 -1.79 0.43 
-9.49 83.21 -1.80 0.31 
-8.12 85.57 -1.85 0.62 
-6.58 86.75 -1.87 0.58 
-4.99 87.82 -1.89 0.43 
-0.47 12.44 -0.27 0.92 
-0.23 12.32 -0.27 0.95 
-0.00 12.53 -0.27 0.70 
1.66 87.67 -1.89 0.67 
3.30 87.15 -1.88 0.65 
4.94 86.91 -1.87 0.67 
6.64 87.49 -1.89 0.36 
8.34 87.84 -1.90 0.69 
10.07 88.31 -1.91 0.57 
11.91 89.40 -1.94 0.49 
13.88 90.97 -1.98 0.64 
15.58 90.59 -1.98 0.55 
2.69 14.02 -0.31 0.90 
3.00 14.20 -0.31 0.78 
21.08 91.24 -2.02 0.67 
18.28 72.79 -1.62 0.02 
19.65 72.43 -1.62 0.02 
21.02 72.05 -1.62 0.02 
22.38 71.64 -1.62 0.02 
23.73 71.20 -1.62 0.02 
25.07 70.74 -1.62 0.02 
4.40 11.71 -0.27 0.69 
27.73 69.74 -1.62 0.02 
5.65 13.45 -0.31 0.32 
5.81 13.15 -0.31 0.93 
6.08 13.07 -0.31 0.58 
32.93 67.44 -1.62 0.02 
34.20 66.81 -1.62 0.02 
35.46 66.15 -1.62 0.02 
36.70 65.46 -1.62 0.02 
37.93 64.76 -1.62 0.02 
39.15 64.03 -1.62 0.02 
12.47 19.55 -0.50 0.76 
41.55 62.50 -1.62 0.02 
42.72 61.70 -1.62 0.02 
43.88 60.88 -1.62 0.02 
45.03 60.04 -1.62 0.02 
16.98 21.77 -0.59 0.72 
13.18 16.25 -0.45 0.91 
48.36 57.39 -1.62 0.02 
49.44 56.46 -1.62 0.02 
50.50 55.52 -1.62 0.02 
51.54 54.55 -1.62 0.02 
52.56 53.57 -1.62 0.02 
53.57 52.56 -1.62 0.02 
54.55 51.54 -1.62 0.02 
8.27 7.52 -0.24 0.21 
8.15 7.14 -0.23 0.32 
8.16 6.87 -0.23 0.32 
8.16 6.62 -0.23 0.33 
8.21 6.41 -0.22 0.40 
8.29 6.22 -0.22 0.45 
8.57 6.17 -0.23 0.48 
8.97 6.21 -0.23 0.46 
9.33 6.20 -0.24 0.43 
9.73 6.20 -0.25 0.42 
63.40 38.77 -1.60 0.01 
63.95 37.46 -1.60 0.01 
64.47 36.15 -1.59 0.01 
64.97 34.83 -1.59 0.01 
65.44 33.50 -1.58 0.01 
65.88 32.17 -1.58 0.01 
20.38 9.48 -0.48 0.79 
42.16 18.64 -0.99 0.67 
67.09 28.16 -1.57 0.02 
25.11 9.99 -0.58 0.63 
25.08 9.43 -0.58 0.86 
68.12 24.15 -1.56 0.01 
68.46 22.82 -1.55 0.01 
68.77 21.49 -1.55 0.01 
50.38 14.70 -1.13 0.48 
69.32 18.81 -1.55 0.01 
35.37 8.88 -0.78 0.40 
35.94 8.31 -0.79 0.24 
69.91 14.77 -1.54 0.01 
70.06 13.42 -1.54 0.01 
70.17 12.07 -1.53 0.01 
39.94 6.09 -0.87 0.68 
40.33 5.37 -0.88 0.38 
70.35 8.02 -1.52 0.01 
70.35 6.68 -1.52 0.01 
37.82 2.87 -0.82 0.81 
70.42 4.00 -1.52 0.01 
39.79 1.51 -0.86 0.19 
70.45 1.33 -1.52 0.01 
39.32 0.00 -0.85 0.54 
70.36 -1.33 -1.51 0.01 
49.79 -1.89 -1.07 0.26 
70.09 -3.98 -1.51 0.01 
45.15 -3.42 -0.97 0.74 
69.76 -6.62 -1.51 0.01 
69.50 -7.93 -1.51 0.01 
53.09 -7.07 -1.15 0.29 
69.00 -10.53 -1.50 0.01 
68.73 -11.82 -1.50 0.01 
68.37 -13.10 -1.50 0.01 
51.25 -10.83 -1.13 0.78 
67.63 -15.63 -1.49 0.01 
67.18 -16.87 -1.49 0.01 
66.71 -18.10 -1.49 0.01 
66.23 -19.32 -1.48 0.01 
65.75 -20.54 -1.48 0.01 
65.21 -21.74 -1.48 0.01 
53.66 -19.02 -1.23 0.61 
64.09 -24.09 -1.47 0.01 
63.49 -25.25 -1.47 0.01 
62.87 -26.39 -1.47 0.01 
61.68 -27.27 -1.45 0.58 
61.63 -28.66 -1.46 0.02 
61.08 -29.82 -1.46 0.02 
56.83 -29.09 -1.37 0.69 
58.30 -31.25 -1.42 0.69 
59.29 -33.24 -1.46 0.02 
58.65 -34.35 -1.46 0.02 
57.99 -35.46 -1.46 0.02 
57.30 -36.55 -1.46 0.02 
56.60 -37.63 -1.46 0.02 
56.28 -38.97 -1.47 0.62 
34.32 -24.73 -0.91 0.74 
51.30 -38.47 -1.38 0.63 
11.81 -9.21 -0.32 0.46 
48.30 -39.16 -1.34 0.58 
47.61 -40.12 -1.34 0.62 
47.56 -41.65 -1.36 0.59 
47.66 -43.35 -1.39 0.52 
23.61 -22.31 -0.70 0.84 
23.26 -22.83 -0.70 0.62 
52.56 -53.57 -1.62 0.02 
51.54 -54.55 -1.62 0.02 
36.52 -40.15 -1.17 0.53 
49.44 -56.46 -1.62 0.02 
48.36 -57.39 -1.62 0.02 
11.63 -14.35 -0.40 0.73 
11.28 -14.46 -0.39 0.56 
11.29 -15.05 -0.40 0.55 
28.07 -38.94 -1.03 0.38 
5.97 -8.63 -0.23 0.65 
41.55 -62.50 -1.62 0.02 
40.36 -63.28 -1.62 0.02 
39.15 -64.03 -1.62 0.02 
37.93 -64.76 -1.62 0.02 
36.70 -65.46 -1.62 0.02 
35.46 -66.15 -1.62 0.02 
34.20 -66.81 -1.62 0.02 
32.93 -67.44 -1.62 0.02 
24.75 -53.23 -1.26 0.72 
20.33 -45.98 -1.08 0.79 
22.33 -53.20 -1.24 0.73 
21.52 -54.12 -1.25 0.31 
24.26 -64.55 -1.48 0.71 
21.38 -60.31 -1.38 0.74 
20.10 -60.30 -1.37 0.74 
17.72 -56.73 -1.28 0.73 
16.54 -56.70 -1.27 0.76 
15.39 -56.71 -1.26 0.77 
14.23 -56.68 -1.26 0.77 
12.47 -53.95 -1.19 0.56 
11.43 -54.11 -1.19 0.78 
12.51 -65.30 -1.43 0.75 
10.38 -60.34 -1.32 0.77 
10.53 -68.99 -1.50 0.74 
8.04 -60.35 -1.31 0.78 
7.87 -69.00 -1.49 0.74 
6.55 -69.00 -1.49 0.74 
5.23 -69.01 -1.49 0.75 
3.92 -69.01 -1.49 0.75 
2.16 -56.91 -1.23 0.80 
0.90 -47.52 -1.02 0.70 
-0.00 -53.53 -1.15 0.58 
-1.01 -53.45 -1.15 0.81 
-1.75 -46.21 -1.00 0.60 
-3.04 -53.47 -1.15 0.80 
-4.05 -53.46 -1.15 0.80 
-5.90 -62.17 -1.34 0.77 
-7.29 -63.97 -1.39 0.77 
-9.21 -69.15 -1.50 0.74 
-7.46 -48.90 -1.06 0.75 
-9.81 -57.05 -1.25 0.76 
-10.92 -57.00 -1.25 0.77 
-12.05 -57.04 -1.25 0.76 
-12.46 -53.92 -1.19 0.40 
-13.44 -53.53 -1.19 0.77 
-14.55 -53.62 -1.20 0.75 
-15.64 -53.62 -1.20 0.77 
-16.74 -53.59 -1.21 0.76 
-23.73 -71.20 -1.62 0.02 
-25.07 -70.74 -1.62 0.02 
-18.35 -48.82 -1.12 0.79 
-27.73 -69.74 -1.62 0.02 
-29.05 -69.20 -1.62 0.02 
-30.35 -68.64 -1.62 0.02 
-31.65 -68.05 -1.62 0.02 
-32.93 -67.44 -1.62 0.02 
-34.20 -66.81 -1.62 0.02 
-35.46 -66.15 -1.62 0.02 
-36.70 -65.46 -1.62 0.02 
-37.93 -64.76 -1.62 0.02 
-39.15 -64.03 -1.62 0.02 
-7.93 -12.43 -0.32 0.82 
-8.31 -12.50 -0.32 0.67 
-28.49 -41.15 -1.08 0.47 
-28.50 -39.54 -1.05 0.49 
-28.83 -38.44 -1.03 0.62 
-29.20 -37.43 -1.02 0.67 
-30.39 -37.48 -1.04 0.56 
-48.36 -57.39 -1.62 0.02 
-49.44 -56.46 -1.62 0.02 
-28.78 -31.65 -0.92 0.51 
-8.15 -8.63 -0.26 0.89 
-28.77 -29.32 -0.88 0.60 
-28.78 -28.24 -0.87 0.61 
-28.80 -27.21 -0.85 0.66 
-28.91 -26.30 -0.84 0.85 
-29.76 -26.06 -0.85 0.49 
-51.97 -43.80 -1.46 0.02 
-52.79 -42.81 -1.46 0.02 
-40.26 -31.40 -1.10 0.65 
-17.66 -13.25 -0.48 0.90 
-29.08 -20.96 -0.77 0.64 
-29.07 -20.13 -0.76 0.73 
-29.08 -19.33 -0.75 0.73 
-29.10 -18.56 -0.74 0.74 
-21.05 -12.87 -0.53 0.21 
-30.37 -17.79 -0.76 0.20 
-52.68 -29.53 -1.30 0.69 
-40.48 -21.70 -0.99 0.32 
-40.37 -20.66 -0.98 0.75 
-18.10 -8.84 -0.43 0.62 
-40.45 -18.81 -0.96 0.58 
-40.42 -17.87 -0.95 0.81 
-41.29 -17.33 -0.96 0.40 
-44.60 -17.74 -1.03 0.73 
-44.62 -16.77 -1.03 0.77 
-52.84 -18.73 -1.21 0.76 
-52.85 -17.62 -1.20 0.76 
-53.15 -16.60 -1.20 0.80 
-53.54 -15.62 -1.20 0.80 
-53.93 -14.63 -1.20 0.79 
-54.32 -13.64 -1.21 0.79 
-14.91 -3.45 -0.33 0.72 
-56.41 -11.91 -1.24 0.46 
-58.16 -11.14 -1.27 0.45 
-62.49 -10.75 -1.36 0.12 
-67.19 -10.25 -1.46 0.02 
-67.37 -8.98 -1.46 0.02 
-11.39 -1.30 -0.25 0.77 
-11.29 -1.07 -0.24 0.36 
-11.05 -0.84 -0.24 0.54 
-10.98 -0.62 -0.24 0.54 
-10.92 -0.41 -0.24 0.50 
-10.84 -0.21 -0.23 0.50 
-10.82 -0.00 -0.25 0.51 
-10.89 0.21 -0.25 0.50 
-10.96 0.41 -0.25 0.55 
-11.03 0.63 -0.25 0.54 
-11.31 0.86 -0.26 0.35 
-11.38 1.08 -0.26 0.78 
-59.08 6.74 -1.35 0.14 
-70.48 9.39 -1.62 0.02 
-70.24 10.72 -1.61 0.02 
-64.66 11.12 -1.49 0.13 
-63.24 12.11 -1.46 0.02 
-63.00 13.31 -1.46 0.02 
-62.74 14.50 -1.46 0.02 
-62.45 15.68 -1.46 0.02 
-62.14 16.86 -1.46 0.02 
-43.17 12.60 -1.02 0.77 
-43.77 13.67 -1.04 0.31 
-39.51 13.17 -0.95 0.70 
-61.87 21.93 -1.49 0.02 
-7.47 2.81 -0.18 0.30 
-7.07 2.81 -0.17 0.31 
-6.70 2.81 -0.17 0.34 
-6.37 2.82 -0.16 0.36 
-6.07 2.82 -0.15 0.37 
-5.83 2.84 -0.15 0.45 
-5.61 2.87 -0.14 0.58 
-5.49 2.94 -0.14 0.78 
-5.47 3.07 -0.14 0.86 
-5.45 3.19 -0.14 0.85 
-5.43 3.32 -0.14 0.84 
-5.40 3.45 -0.15 0.84 
-5.42 3.61 -0.15 0.66 
-5.45 3.78 -0.15 0.65 
-5.48 3.95 -0.15 0.67 
-56.88 42.66 -1.62 0.02 
-38.32 29.89 -1.10 0.74 
-55.23 44.78 -1.62 0.02 
-54.37 45.82 -1.62 0.02 
-53.49 46.84 -1.62 0.02 
-13.51 12.29 -0.41 0.92 
-13.25 12.52 -0.41 0.92 
-12.99 12.74 -0.41 0.93 
-12.73 12.97 -0.41 0.93 
-12.47 13.20 -0.41 0.93 
-12.20 13.42 -0.41 0.93 
-11.95 13.65 -0.41 0.93 
-11.68 13.86 -0.41 0.93 
-44.78 55.23 -1.62 0.02 
-43.73 56.06 -1.62 0.02 
-42.66 56.88 -1.62 0.02 
-41.57 57.68 -1.62 0.02 
-40.47 58.45 -1.62 0.02 
-39.36 59.21 -1.62 0.02 
-38.23 59.94 -1.62 0.02 
-37.09 60.66 -1.62 0.02 
-35.94 61.35 -1.62 0.02 
-7.34 13.09 -0.34 0.48 
-7.05 13.15 -0.34 0.94 
-6.85 13.38 -0.34 0.43 
-31.19 63.89 -1.62 0.02 
-21.14 45.45 -1.14 0.82 
-2.83 6.39 -0.16 0.75 
-2.68 6.39 -0.16 0.76 
-2.54 6.40 -0.16 0.77 
-2.40 6.40 -0.16 0.77 
-2.27 6.40 -0.15 0.77 
-2.13 6.40 -0.15 0.78 
-2.00 6.41 -0.15 0.79 
-1.87 6.42 -0.15 0.79 
-1.74 6.42 -0.15 0.78 
-1.62 6.45 -0.15 0.22 
-1.50 6.51 -0.15 0.22 
-1.39 6.56 -0.15 0.29 
-1.27 6.64 -0.15 0.47 
-1.16 6.75 -0.16 0.06 
-1.10 7.18 -0.17 0.02 
-9.39 70.48 -1.62 0.02 
-8.06 70.64 -1.62 0.02 
-6.72 70.78 -1.62 0.02 
-5.38 70.89 -1.62 0.02 
-4.03 70.98 -1.62 0.02 
-0.47 12.43 -0.28 0.91 
-0.23 12.32 -0.28 0.94 
-0.00 12.52 -0.28 0.76 
1.35 71.09 -1.62 0.02 
2.69 71.05 -1.62 0.02 
4.03 70.98 -1.62 0.02 
5.38 70.89 -1.62 0.02 
6.72 70.78 -1.62 0.02 
8.06 70.64 -1.62 0.02 
9.39 70.48 -1.62 0.02 
10.72 70.29 -1.62 0.02 
12.05 70.07 -1.62 0.02 
2.68 14.02 -0.32 0.92 
3.00 14.20 -0.33 0.83 
16.01 69.27 -1.62 0.02 
17.32 68.96 -1.62 0.02 
18.62 68.62 -1.62 0.02 
19.91 68.25 -1.62 0.02 
21.20 67.86 -1.62 0.02 
22.48 67.45 -1.62 0.02 
23.75 67.01 -1.62 0.02 
4.40 11.71 -0.28 0.69 
26.27 66.07 -1.62 0.02 
5.65 13.45 -0.33 0.32 
5.81 13.15 -0.33 0.93 
6.08 13.07 -0.33 0.58 
31.19 63.89 -1.62 0.02 
32.40 63.29 -1.62 0.02 
33.59 62.66 -1.62 0.02 
34.77 62.02 -1.62 0.02 
35.94 61.35 -1.62 0.02 
37.09 60.66 -1.62 0.02 
12.47 19.55 -0.53 0.76 
39.36 59.21 -1.62 0.02 
40.47 58.45 -1.62 0.02 
41.57 57.68 -1.62 0.02 
42.66 56.88 -1.62 0.02 
16.98 21.77 -0.63 0.72 
13.18 16.25 -0.48 0.90 
45.82 54.37 -1.62 0.02 
46.84 53.49 -1.62 0.02 
47.84 52.60 -1.62 0.02 
48.83 51.68 -1.62 0.02 
49.80 50.75 -1.62 0.02 
50.75 49.80 -1.62 0.02 
51.68 48.83 -1.62 0.02 
8.23 7.49 -0.25 0.21 
8.12 7.11 -0.25 0.32 
8.13 6.85 -0.24 0.33 
8.14 6.60 -0.24 0.33 
8.19 6.39 -0.24 0.45 
8.27 6.20 -0.23 0.45 
8.56 6.17 -0.24 0.48 
8.96 6.20 -0.25 0.46 
9.32 6.20 -0.25 0.43 
9.71 6.20 -0.26 0.42 
59.77 36.55 -1.59 0.02 
60.30 35.32 -1.59 0.02 
60.83 34.10 -1.58 0.02 
61.31 32.86 -1.58 0.02 
61.76 31.62 -1.58 0.02 
62.19 30.36 -1.57 0.02 
20.37 9.47 -0.51 0.79 
42.19 18.66 -1.05 0.67 
63.31 26.58 -1.56 0.02 
25.11 9.99 -0.61 0.63 
25.08 9.43 -0.61 0.86 
30.69 10.88 -0.74 0.63 
64.52 21.50 -1.54 0.02 
64.74 20.23 -1.54 0.02 
50.48 14.73 -1.19 0.32 
65.26 17.71 -1.54 0.02 
35.39 8.89 -0.83 0.76 
36.00 8.32 -0.84 0.24 
65.84 13.91 -1.53 0.02 
65.98 12.64 -1.53 0.02 
66.10 11.37 -1.52 0.02 
39.96 6.10 -0.92 0.68 
40.37 5.38 -0.93 0.38 
66.28 7.56 -1.52 0.02 
66.29 6.29 -1.51 0.02 
37.82 2.87 -0.86 0.81 
66.23 3.76 -1.51 0.02 
39.78 1.51 -0.90 0.32 
66.24 1.25 -1.50 0.02 
39.31 0.00 -0.89 0.54 
66.14 -1.25 -1.50 0.02 
66.01 -2.50 -1.50 0.02 
65.93 -3.75 -1.50 0.01 
45.16 -3.43 -1.03 0.60 
65.53 -6.22 -1.50 0.01 
65.36 -7.45 -1.49 0.02 
65.10 -8.67 -1.49 0.02 
64.81 -9.89 -1.49 0.01 
64.55 -11.10 -1.49 0.02 
64.22 -12.30 -1.49 0.01 
51.25 -10.83 -1.19 0.78 
63.50 -14.67 -1.48 0.02 
63.11 -15.85 -1.48 0.01 
62.68 -17.01 -1.48 0.02 
62.23 -18.16 -1.47 0.02 
61.75 -19.29 -1.47 0.02 
61.26 -20.42 -1.47 0.01 
53.66 -19.02 -1.29 0.61 
60.27 -22.66 -1.46 0.02 
59.83 -23.79 -1.46 0.02 
59.37 -24.92 -1.46 0.02 
58.89 -26.04 -1.46 0.02 
58.39 -27.15 -1.46 0.02 
57.86 -28.25 -1.46 0.02 
56.83 -29.09 -1.45 0.69 
56.75 -30.42 -1.46 0.02 
56.16 -31.49 -1.46 0.02 
56.19 -32.92 -1.48 0.63 
56.26 -34.40 -1.50 0.63 
56.27 -35.89 -1.52 0.64 
56.27 -37.41 -1.53 0.63 
56.27 -38.96 -1.55 0.62 
34.31 -24.73 -0.96 0.74 
51.30 -38.47 -1.46 0.63 
11.81 -9.21 -0.34 0.46 
48.57 -39.39 -1.42 0.10 
47.61 -40.12 -1.41 0.61 
47.57 -41.65 -1.44 0.59 
52.60 -47.84 -1.62 0.02 
23.61 -22.31 -0.74 0.84 
23.26 -22.83 -0.74 0.62 
49.80 -50.75 -1.62 0.02 
48.83 -51.68 -1.62 0.02 
36.52 -40.15 -1.23 0.53 
46.84 -53.49 -1.62 0.02 
45.82 -54.37 -1.62 0.02 
11.63 -14.35 -0.42 0.73 
11.28 -14.46 -0.42 0.56 
11.29 -15.05 -0.43 0.55 
28.06 -38.93 -1.09 0.38 
5.97 -8.63 -0.24 0.65 
39.36 -59.21 -1.62 0.02 
38.23 -59.94 -1.62 0.02 
37.09 -60.66 -1.62 0.02 
35.94 -61.35 -1.62 0.02 
34.77 -62.02 -1.62 0.02 
33.59 -62.66 -1.62 0.02 
32.40 -63.29 -1.62 0.02 
31.19 -63.89 -1.62 0.02 
24.75 -53.23 -1.33 0.72 
20.33 -45.97 -1.14 0.78 
22.33 -53.20 -1.31 0.73 
21.51 -54.10 -1.32 0.32 
25.02 -66.55 -1.62 0.02 
21.38 -60.31 -1.45 0.73 
20.10 -60.30 -1.44 0.74 
17.73 -56.76 -1.35 0.71 
16.54 -56.71 -1.34 0.74 
15.39 -56.71 -1.33 0.74 
14.23 -56.68 -1.33 0.77 
12.47 -53.95 -1.26 0.57 
11.43 -54.11 -1.26 0.78 
12.51 -65.30 -1.51 0.75 
10.38 -60.34 -1.39 0.77 
10.52 -68.97 -1.59 0.74 
8.04 -60.35 -1.38 0.78 
7.87 -68.98 -1.58 0.74 
6.55 -68.99 -1.57 0.75 
5.23 -68.99 -1.57 0.75 
3.92 -69.00 -1.57 0.75 
2.16 -56.91 -1.29 0.80 
0.90 -47.52 -1.08 0.71 
-0.00 -53.52 -1.22 0.77 
-1.01 -53.45 -1.21 0.81 
-1.75 -46.21 -1.05 0.59 
-3.04 -53.46 -1.22 0.80 
-4.05 -53.46 -1.22 0.80 
-5.90 -62.17 -1.42 0.77 
-7.30 -64.02 -1.46 0.09 
-9.21 -69.13 -1.58 0.74 
-7.46 -48.89 -1.12 0.76 
-9.81 -57.06 -1.32 0.76 
-10.92 -57.01 -1.32 0.76 
-12.05 -57.04 -1.32 0.76 
-12.47 -53.98 -1.26 0.28 
-13.44 -53.53 -1.25 0.77 
-14.55 -53.62 -1.26 0.75 
-15.65 -53.62 -1.27 0.77 
-16.74 -53.59 -1.28 0.76 
-22.48 -67.45 -1.62 0.02 
-23.75 -67.01 -1.62 0.02 
-18.36 -48.84 -1.19 0.80 
-26.27 -66.07 -1.62 0.02 
-27.52 -65.56 -1.62 0.02 
-28.75 -65.02 -1.62 0.02 
-29.98 -64.47 -1.62 0.02 
-31.19 -63.89 -1.62 0.02 
-32.40 -63.29 -1.62 0.02 
-33.59 -62.66 -1.62 0.02 
-34.77 -62.02 -1.62 0.02 
-35.94 -61.35 -1.62 0.02 
-37.09 -60.66 -1.62 0.02 
-7.93 -12.43 -0.34 0.77 
-8.31 -12.50 -0.34 0.69 
-28.49 -41.14 -1.14 0.47 
-28.50 -39.54 -1.11 0.49 
-28.71 -38.28 -1.09 0.50 
-29.21 -37.45 -1.08 0.67 
-30.44 -37.54 -1.10 0.29 
-45.82 -54.37 -1.62 0.02 
-46.84 -53.49 -1.62 0.02 
-28.78 -31.65 -0.97 0.51 
-8.15 -8.62 -0.27 0.89 
-28.77 -29.32 -0.93 0.60 
-28.78 -28.24 -0.92 0.61 
-28.80 -27.21 -0.90 0.66 
-28.91 -26.30 -0.89 0.85 
-29.75 -26.05 -0.90 0.49 
-49.34 -41.58 -1.47 0.43 
-50.01 -40.55 -1.46 0.02 
-40.26 -31.40 -1.16 0.65 
-17.66 -13.24 -0.50 0.90 
-29.07 -20.95 -0.81 0.64 
-29.07 -20.13 -0.80 0.73 
-29.08 -19.33 -0.79 0.73 
-29.09 -18.56 -0.78 0.75 
-21.06 -12.88 -0.56 0.12 
-30.19 -17.69 -0.79 0.18 
-52.68 -29.53 -1.37 0.69 
-40.35 -21.63 -1.04 0.74 
-40.37 -20.67 -1.03 0.75 
-18.10 -8.84 -0.46 0.62 
-40.43 -18.80 -1.01 0.58 
-40.42 -17.87 -1.00 0.81 
-41.29 -17.33 -1.02 0.33 
-44.60 -17.74 -1.09 0.73 
-44.70 -16.80 -1.08 0.12 
-52.84 -18.73 -1.27 0.76 
-52.85 -17.62 -1.27 0.76 
-53.15 -16.60 -1.26 0.80 
-53.54 -15.62 -1.27 0.80 
-53.93 -14.63 -1.27 0.79 
-14.94 -3.75 -0.35 0.37 
-14.90 -3.44 -0.35 0.77 
-56.41 -11.91 -1.31 0.46 
-58.16 -11.14 -1.35 0.45 
-62.49 -10.75 -1.44 0.12 
-63.65 -9.71 -1.46 0.02 
-63.83 -8.51 -1.46 0.02 
-68.46 -7.81 -1.57 0.09 
-11.27 -1.07 -0.26 0.80 
-11.03 -0.84 -0.25 0.54 
-10.96 -0.62 -0.25 0.54 
-10.90 -0.41 -0.25 0.50 
-10.82 -0.20 -0.25 0.50 
-10.80 -0.00 -0.26 0.51 
-10.87 0.21 -0.26 0.50 
-10.94 0.41 -0.26 0.55 
-11.01 0.63 -0.26 0.55 
-11.29 0.86 -0.27 0.35 
-11.38 1.08 -0.27 0.78 
-67.11 7.65 -1.62 0.02 
-66.95 8.92 -1.62 0.02 
-66.77 10.19 -1.62 0.02 
-64.58 11.11 -1.57 0.13 
-60.08 11.51 -1.46 0.02 
-59.85 12.64 -1.46 0.02 
-59.60 13.77 -1.46 0.02 
-59.33 14.90 -1.46 0.02 
-59.03 16.02 -1.46 0.02 
-43.04 12.56 -1.07 0.72 
-43.77 13.67 -1.10 0.31 
-39.42 13.14 -0.99 0.06 
-58.48 20.73 -1.48 0.02 
-7.46 2.80 -0.19 0.30 
-7.05 2.81 -0.18 0.32 
-6.69 2.81 -0.17 0.34 
-6.36 2.81 -0.17 0.36 
-6.06 2.82 -0.16 0.37 
-5.82 2.84 -0.15 0.45 
-5.60 2.87 -0.15 0.58 
-5.48 2.94 -0.15 0.79 
-5.47 3.07 -0.15 0.86 
-5.45 3.19 -0.15 0.85 
-5.42 3.32 -0.15 0.85 
-5.40 3.45 -0.15 0.84 
-5.42 3.60 -0.16 0.66 
-5.45 3.77 -0.16 0.65 
-5.47 3.94 -0.16 0.67 
-53.59 40.19 -1.60 0.02 
-38.32 29.89 -1.16 0.74 
-52.46 42.54 -1.62 0.02 
-51.65 43.52 -1.62 0.02 
-50.82 44.49 -1.62 0.02 
-13.51 12.29 -0.44 0.92 
-13.25 12.52 -0.44 0.92 
-12.99 12.74 -0.44 0.93 
-12.73 12.97 -0.43 0.93 
-12.47 13.20 -0.43 0.93 
-12.20 13.42 -0.43 0.93 
-11.95 13.65 -0.43 0.93 
-11.68 13.86 -0.43 0.93 
-42.54 52.46 -1.62 0.02 
-41.54 53.26 -1.62 0.02 
-40.52 54.04 -1.62 0.02 
-39.49 54.79 -1.62 0.02 
-38.45 55.53 -1.62 0.02 
-37.39 56.25 -1.62 0.02 
-36.32 56.95 -1.62 0.02 
-35.24 57.62 -1.62 0.02 
-34.14 58.28 -1.62 0.02 
-7.34 13.09 -0.36 0.48 
-7.05 13.15 -0.36 0.94 
-6.85 13.38 -0.36 0.43 
-29.63 60.69 -1.62 0.02 
-21.14 45.45 -1.20 0.82 
-2.82 6.38 -0.17 0.75 
-2.68 6.39 -0.17 0.76 
-2.54 6.39 -0.16 0.77 
-2.40 6.39 -0.16 0.77 
-2.27 6.39 -0.16 0.77 
-2.13 6.40 -0.16 0.78 
-2.00 6.40 -0.16 0.79 
-1.87 6.41 -0.16 0.79 
-1.74 6.42 -0.16 0.78 
-1.61 6.42 -0.16 0.23 
-1.50 6.48 -0.16 0.22 
-1.38 6.53 -0.16 0.29 
-1.27 6.62 -0.16 0.47 
-1.14 6.65 -0.16 0.47 
-1.05 6.88 -0.17 0.07 
-8.92 66.95 -1.62 0.02 
-7.65 67.11 -1.62 0.02 
-6.38 67.24 -1.62 0.02 
-5.11 67.35 -1.62 0.02 
-3.83 67.43 -1.62 0.02 
-0.47 12.43 -0.30 0.90 
-0.23 12.32 -0.29 0.93 
-0.00 12.52 -0.30 0.81 
1.28 67.53 -1.62 0.02 
2.56 67.49 -1.62 0.02 
3.83 67.43 -1.62 0.02 
5.11 67.35 -1.62 0.02 
6.38 67.24 -1.62 0.02 
7.65 67.11 -1.62 0.02 
8.92 66.95 -1.62 0.02 
10.19 66.77 -1.62 0.02 
11.45 66.56 -1.62 0.02 
2.68 14.01 -0.34 0.93 
3.00 14.20 -0.35 0.87 
15.21 65.81 -1.62 0.02 
16.45 65.51 -1.62 0.02 
17.69 65.19 -1.62 0.02 
18.92 64.84 -1.62 0.02 
20.14 64.47 -1.62 0.02 
21.36 64.08 -1.62 0.02 
22.57 63.66 -1.62 0.02 
4.40 11.71 -0.30 0.69 
24.96 62.76 -1.62 0.02 
5.65 13.45 -0.35 0.32 
5.81 13.14 -0.34 0.93 
6.08 13.07 -0.34 0.58 
29.63 60.69 -1.62 0.02 
30.78 60.12 -1.62 0.02 
31.91 59.53 -1.62 0.02 
33.03 58.91 -1.62 0.02 
34.14 58.28 -1.62 0.02 
35.24 57.62 -1.62 0.02 
12.47 19.55 -0.55 0.76 
37.39 56.25 -1.62 0.02 
38.45 55.53 -1.62 0.02 
39.49 54.79 -1.62 0.02 
16.46 21.95 -0.66 0.58 
16.67 21.37 -0.65 0.85 
13.18 16.25 -0.50 0.87 
43.52 51.65 -1.62 0.02 
44.49 50.82 -1.62 0.02 
45.45 49.96 -1.62 0.02 
46.38 49.10 -1.62 0.02 
47.31 48.21 -1.62 0.02 
48.21 47.31 -1.62 0.02 
49.10 46.38 -1.62 0.02 
8.19 7.45 -0.26 0.21 
8.10 7.09 -0.26 0.33 
8.11 6.83 -0.25 0.33 
8.11 6.58 -0.25 0.33 
8.18 6.38 -0.25 0.45 
8.25 6.19 -0.25 0.45 
8.54 6.16 -0.25 0.48 
8.95 6.20 -0.26 0.46 
9.31 6.19 -0.27 0.44 
9.70 6.19 -0.28 0.42 
56.56 34.58 -1.59 0.02 
57.06 33.43 -1.58 0.02 
57.54 32.26 -1.58 0.02 
58.00 31.09 -1.57 0.02 
58.43 29.91 -1.57 0.02 
58.86 28.74 -1.57 0.02 
20.36 9.47 -0.54 0.79 
42.23 18.67 -1.10 0.67 
59.97 25.17 -1.56 0.02 
25.11 9.99 -0.65 0.63 
25.08 9.43 -0.64 0.86 
30.78 10.91 -0.78 0.30 
61.09 20.36 -1.54 0.02 
61.31 19.15 -1.54 0.02 
50.66 14.78 -1.26 0.11 
61.75 16.75 -1.53 0.02 
35.41 8.89 -0.87 0.76 
36.05 8.33 -0.88 0.23 
62.21 13.14 -1.52 0.02 
62.35 11.94 -1.52 0.02 
62.47 10.74 -1.52 0.02 
39.99 6.10 -0.97 0.60 
62.62 8.34 -1.51 0.02 
62.66 7.15 -1.51 0.02 
62.68 5.95 -1.51 0.02 
37.82 2.87 -0.91 0.81 
62.63 3.56 -1.50 0.02 
45.17 1.71 -1.08 0.37 
53.44 1.01 -1.28 0.27 
39.31 -0.00 -0.94 0.54 
62.40 -1.18 -1.49 0.02 
62.29 -2.36 -1.49 0.02 
62.19 -3.53 -1.49 0.02 
45.30 -3.44 -1.09 0.50 
61.87 -5.87 -1.49 0.02 
61.65 -7.03 -1.48 0.02 
61.42 -8.18 -1.48 0.02 
61.18 -9.33 -1.48 0.02 
60.88 -10.47 -1.48 0.02 
60.58 -11.60 -1.47 0.02 
51.25 -10.83 -1.25 0.78 
59.91 -13.84 -1.47 0.02 
59.52 -14.95 -1.47 0.02 
59.12 -16.04 -1.46 0.02 
58.72 -17.13 -1.46 0.02 
58.39 -18.24 -1.46 0.02 
58.03 -19.34 -1.46 0.02 
53.62 -19.01 -1.36 0.58 
57.26 -21.52 -1.46 0.02 
56.84 -22.60 -1.46 0.02 
56.40 -23.68 -1.46 0.02 
55.94 -24.74 -1.46 0.02 
55.47 -25.79 -1.46 0.02 
55.44 -27.07 -1.48 0.61 
55.69 -28.51 -1.50 0.62 
55.90 -29.97 -1.52 0.63 
56.06 -31.43 -1.54 0.63 
56.18 -32.91 -1.56 0.63 
56.24 -34.39 -1.58 0.63 
56.26 -35.88 -1.60 0.64 
56.08 -37.28 -1.61 0.03 
55.53 -38.45 -1.62 0.02 
34.31 -24.73 -1.01 0.74 
54.04 -40.52 -1.62 0.02 
11.81 -9.21 -0.36 0.46 
49.26 -39.94 -1.52 0.60 
47.61 -40.12 -1.49 0.61 
49.26 -43.13 -1.57 0.59 
49.96 -45.45 -1.62 0.02 
23.61 -22.31 -0.78 0.84 
23.26 -22.83 -0.78 0.62 
47.31 -48.21 -1.62 0.02 
46.38 -49.10 -1.62 0.02 
36.52 -40.15 -1.30 0.54 
44.49 -50.82 -1.62 0.02 
43.52 -51.65 -1.62 0.02 
11.63 -14.35 -0.44 0.73 
11.28 -14.46 -0.44 0.56 
11.29 -15.05 -0.45 0.55 
28.06 -38.93 -1.15 0.38 
5.97 -8.63 -0.25 0.65 
37.39 -56.25 -1.62 0.02 
36.32 -56.95 -1.62 0.02 
35.24 -57.62 -1.62 0.02 
34.14 -58.28 -1.62 0.02 
33.03 -58.91 -1.62 0.02 
31.91 -59.53 -1.62 0.02 
30.78 -60.12 -1.62 0.02 
29.63 -60.69 -1.62 0.02 
24.75 -53.23 -1.40 0.72 
20.32 -45.96 -1.20 0.78 
22.33 -53.20 -1.38 0.73 
21.51 -54.08 -1.39 0.33 
23.77 -63.22 -1.62 0.02 
21.38 -60.31 -1.53 0.73 
21.36 -64.08 -1.62 0.02 
18.84 -60.32 -1.51 0.74 
16.55 -56.72 -1.41 0.74 
15.39 -56.73 -1.41 0.74 
14.23 -56.68 -1.40 0.77 
12.47 -53.95 -1.32 0.57 
11.43 -54.11 -1.32 0.78 
12.71 -66.34 -1.62 0.02 
10.38 -60.34 -1.46 0.77 
10.19 -66.77 -1.62 0.02 
8.04 -60.35 -1.46 0.78 
7.65 -67.11 -1.62 0.02 
6.38 -67.24 -1.62 0.02 
5.11 -67.35 -1.62 0.02 
3.83 -67.43 -1.62 0.02 
2.16 -56.91 -1.36 0.80 
0.90 -47.53 -1.14 0.64 
-0.00 -53.53 -1.28 0.77 
-1.01 -53.45 -1.28 0.81 
-1.75 -46.22 -1.11 0.51 
-3.04 -53.45 -1.28 0.80 
-4.05 -53.46 -1.28 0.80 
-5.90 -62.17 -1.49 0.77 
-7.48 -65.55 -1.58 0.76 
-8.92 -66.95 -1.62 0.02 
-7.46 -48.88 -1.18 0.77 
-9.82 -57.08 -1.38 0.76 
-10.92 -57.03 -1.39 0.76 
-12.05 -57.05 -1.39 0.76 
-12.50 -54.08 -1.33 0.24 
-13.44 -53.53 -1.32 0.77 
-14.55 -53.62 -1.33 0.75 
-15.65 -53.63 -1.34 0.77 
-16.74 -53.59 -1.34 0.76 
-21.36 -64.08 -1.62 0.02 
-22.57 -63.66 -1.62 0.02 
-18.36 -48.83 -1.25 0.80 
-24.96 -62.76 -1.62 0.02 
-26.14 -62.28 -1.62 0.02 
-27.32 -61.77 -1.62 0.02 
-28.48 -61.24 -1.62 0.02 
-29.63 -60.69 -1.62 0.02 
-30.78 -60.12 -1.62 0.02 
-31.91 -59.53 -1.62 0.02 
-33.03 -58.91 -1.62 0.02 
-34.14 -58.28 -1.62 0.02 
-35.24 -57.62 -1.62 0.02 
-7.93 -12.44 -0.35 0.85 
-8.31 -12.51 -0.36 0.70 
-28.49 -41.14 -1.20 0.47 
-28.50 -39.54 -1.17 0.49 
-28.71 -38.28 -1.14 0.50 
-29.22 -37.46 -1.14 0.67 
-32.91 -40.58 -1.25 0.64 
-43.52 -51.65 -1.62 0.02 
-44.49 -50.82 -1.62 0.02 
-28.78 -31.65 -1.02 0.51 
-8.15 -8.62 -0.28 0.89 
-28.77 -29.32 -0.98 0.60 
-28.78 -28.24 -0.96 0.61 
-28.84 -27.24 -0.95 0.44 
-28.91 -26.29 -0.93 0.85 
-29.74 -26.04 -0.95 0.50 
-49.32 -41.57 -1.54 0.59 
-49.34 -40.01 -1.52 0.60 
-40.26 -31.40 -1.22 0.65 
-17.66 -13.24 -0.53 0.90 
-29.07 -20.95 -0.86 0.64 
-29.06 -20.12 -0.85 0.73 
-29.08 -19.33 -0.83 0.73 
-29.09 -18.56 -0.83 0.75 
-29.17 -17.84 -0.82 0.78 
-30.12 -17.65 -0.83 0.39 
-52.68 -29.53 -1.44 0.69 
-40.35 -21.63 -1.09 0.74 
-40.38 -20.67 -1.08 0.75 
-18.10 -8.84 -0.48 0.62 
-40.42 -18.79 -1.07 0.58 
-40.41 -17.87 -1.06 0.81 
-41.29 -17.33 -1.07 0.33 
-44.69 -17.77 -1.15 0.78 
-44.99 -16.91 -1.15 0.75 
-52.84 -18.73 -1.34 0.76 
-52.85 -17.62 -1.33 0.76 
-53.15 -16.60 -1.33 0.80 
-53.54 -15.62 -1.33 0.80 
-53.93 -14.63 -1.34 0.79 
-14.91 -3.74 -0.37 0.67 
-14.89 -3.44 -0.37 0.76 
-56.41 -11.91 -1.38 0.46 
-58.16 -11.14 -1.42 0.45 
-60.28 -10.37 -1.46 0.02 
-60.47 -9.23 -1.46 0.02 
-60.63 -8.08 -1.46 0.02 
-66.91 -7.63 -1.61 0.02 
-11.28 -1.07 -0.27 0.80 
-11.01 -0.84 -0.26 0.54 
-10.94 -0.62 -0.26 0.55 
-10.87 -0.41 -0.26 0.50 
-10.80 -0.20 -0.26 0.50 
-10.78 -0.00 -0.27 0.51 
-10.85 0.21 -0.27 0.50 
-10.92 0.41 -0.27 0.55 
-10.99 0.62 -0.28 0.55 
-11.27 0.86 -0.28 0.81 
-11.38 1.08 -0.29 0.78 
-63.91 7.29 -1.62 0.02 
-63.76 8.50 -1.62 0.02 
-63.59 9.70 -1.62 0.02 
-63.24 10.88 -1.61 0.02 
-58.07 11.12 -1.48 0.15 
-57.00 12.04 -1.46 0.02 
-56.76 13.12 -1.46 0.02 
-56.50 14.19 -1.46 0.02 
-56.22 15.26 -1.46 0.02 
-43.54 12.70 -1.14 0.77 
-43.77 13.67 -1.15 0.31 
-39.50 13.17 -1.05 0.81 
-55.45 19.66 -1.48 0.02 
-7.45 2.80 -0.20 0.30 
-7.04 2.80 -0.19 0.32 
-6.68 2.80 -0.18 0.34 
-6.35 2.81 -0.17 0.36 
-6.05 2.81 -0.17 0.38 
-5.81 2.84 -0.16 0.46 
-5.60 2.87 -0.16 0.58 
-5.48 2.94 -0.16 0.79 
-5.47 3.06 -0.16 0.86 
-5.44 3.19 -0.16 0.85 
-5.42 3.32 -0.16 0.85 
-5.40 3.44 -0.16 0.84 
-5.42 3.60 -0.16 0.66 
-5.45 3.77 -0.17 0.65 
-5.47 3.94 -0.17 0.67 
-50.60 37.95 -1.59 0.02 
-38.32 29.89 -1.22 0.74 
-49.54 40.17 -1.60 0.02 
-48.98 41.27 -1.61 0.02 
-48.38 42.36 -1.61 0.02 
-13.51 12.29 -0.46 0.92 
-13.25 12.52 -0.46 0.92 
-12.99 12.74 -0.46 0.93 
-12.73 12.97 -0.46 0.93 
-12.47 13.20 -0.46 0.93 
-12.20 13.42 -0.46 0.93 
-11.95 13.65 -0.46 0.93 
-11.68 13.86 -0.46 0.93 
-40.51 49.96 -1.62 0.02 
-39.56 50.72 -1.62 0.02 
-38.59 51.46 -1.62 0.02 
-37.61 52.18 -1.62 0.02 
-36.62 52.89 -1.62 0.02 
-35.61 53.57 -1.62 0.02 
-34.59 54.23 -1.62 0.02 
-33.56 54.88 -1.62 0.02 
-32.51 55.50 -1.62 0.02 
-7.34 13.09 -0.38 0.48 
-7.05 13.14 -0.37 0.94 
-6.85 13.38 -0.38 0.43 
-28.22 57.80 -1.62 0.02 
-3.03 6.51 -0.18 0.07 
-2.82 6.38 -0.18 0.75 
-2.68 6.38 -0.17 0.76 
-2.54 6.38 -0.17 0.77 
-2.40 6.39 -0.17 0.77 
-2.26 6.39 -0.17 0.78 
-2.13 6.39 -0.17 0.78 
-2.00 6.40 -0.17 0.79 
-1.87 6.40 -0.17 0.79 
-1.74 6.41 -0.17 0.78 
-1.61 6.41 -0.17 0.78 
-1.49 6.44 -0.17 0.29 
-1.38 6.51 -0.17 0.29 
-1.27 6.61 -0.17 0.47 
-1.14 6.63 -0.17 0.47 
-1.03 6.78 -0.17 0.08 
-4.86 36.49 -0.92 0.69 
-7.29 63.91 -1.62 0.02 
-6.08 64.04 -1.62 0.02 
-4.86 64.14 -1.62 0.02 
-3.65 64.22 -1.62 0.02 
-0.47 12.43 -0.31 0.88 
-0.23 12.33 -0.31 0.90 
-0.00 12.52 -0.31 0.85 
1.22 64.31 -1.62 0.02 
2.43 64.28 -1.62 0.02 
3.65 64.22 -1.62 0.02 
4.86 64.14 -1.62 0.02 
6.08 64.04 -1.62 0.02 
7.29 63.91 -1.62 0.02 
8.50 63.76 -1.62 0.02 
9.70 63.59 -1.62 0.02 
10.90 63.39 -1.62 0.02 
2.68 14.01 -0.36 0.93 
3.00 14.20 -0.36 0.90 
14.48 62.67 -1.62 0.02 
15.67 62.39 -1.62 0.02 
16.84 62.08 -1.62 0.02 
18.02 61.75 -1.62 0.02 
19.18 61.40 -1.62 0.02 
20.34 61.02 -1.62 0.02 
21.49 60.63 -1.62 0.02 
4.40 11.71 -0.31 0.69 
23.77 59.77 -1.62 0.02 
5.65 13.45 -0.37 0.32 
5.81 13.14 -0.36 0.93 
6.08 13.07 -0.36 0.58 
28.22 57.80 -1.62 0.02 
29.31 57.26 -1.62 0.02 
30.39 56.69 -1.62 0.02 
31.46 56.11 -1.62 0.02 
32.51 55.50 -1.62 0.02 
33.56 54.88 -1.62 0.02 
12.47 19.55 -0.58 0.76 
35.61 53.57 -1.62 0.02 
36.62 52.89 -1.62 0.02 
37.61 52.18 -1.62 0.02 
16.49 21.99 -0.69 0.27 
16.68 21.39 -0.68 0.41 
13.19 16.26 -0.53 0.80 
41.45 49.19 -1.62 0.02 
42.37 48.40 -1.62 0.02 
43.28 47.58 -1.62 0.02 
44.18 46.76 -1.62 0.02 
45.05 45.91 -1.62 0.02 
45.91 45.05 -1.62 0.02 
46.76 44.18 -1.62 0.02 
8.15 7.42 -0.28 0.21 
8.07 7.07 -0.27 0.32 
8.08 6.81 -0.27 0.33 
8.09 6.56 -0.26 0.33 
8.16 6.36 -0.26 0.45 
8.23 6.18 -0.26 0.45 
8.53 6.15 -0.26 0.48 
8.93 6.19 -0.27 0.46 
9.29 6.18 -0.28 0.44 
9.68 6.18 -0.29 0.42 
10.13 6.19 -0.30 0.32 
54.12 31.70 -1.57 0.02 
54.58 30.60 -1.57 0.02 
25.71 13.78 -0.73 0.41 
25.69 13.15 -0.72 0.89 
26.18 12.78 -0.73 0.45 
20.36 9.47 -0.56 0.79 
42.26 18.69 -1.16 0.44 
56.91 23.89 -1.55 0.02 
25.11 9.99 -0.68 0.63 
25.08 9.43 -0.67 0.86 
30.81 10.92 -0.82 0.58 
58.06 19.35 -1.54 0.02 
58.27 18.20 -1.53 0.02 
50.65 14.78 -1.32 0.63 
58.63 15.91 -1.53 0.02 
35.42 8.90 -0.92 0.76 
58.92 13.62 -1.52 0.02 
59.10 12.48 -1.52 0.02 
59.18 11.34 -1.51 0.02 
59.24 10.19 -1.51 0.02 
40.02 6.11 -1.02 0.60 
59.37 7.91 -1.50 0.02 
59.41 6.78 -1.50 0.02 
59.43 5.64 -1.50 0.02 
37.82 2.87 -0.95 0.81 
59.40 3.38 -1.49 0.02 
45.24 1.71 -1.14 0.37 
53.39 1.01 -1.34 0.26 
39.31 0.00 -0.99 0.54 
59.09 -1.12 -1.48 0.02 
59.00 -2.23 -1.48 0.02 
58.88 -3.35 -1.48 0.02 
58.76 -4.46 -1.48 0.02 
58.58 -5.56 -1.48 0.02 
58.40 -6.66 -1.48 0.02 
58.17 -7.75 -1.47 0.02 
57.92 -8.84 -1.47 0.02 
57.66 -9.92 -1.47 0.02 
57.37 -10.99 -1.47 0.02 
51.25 -10.83 -1.32 0.78 
56.76 -13.12 -1.46 0.02 
56.50 -14.19 -1.46 0.02 
56.22 -15.26 -1.46 0.02 
55.92 -16.32 -1.46 0.02 
55.60 -17.37 -1.46 0.02 
55.27 -18.42 -1.46 0.02 
53.62 -19.01 -1.43 0.61 
54.44 -20.47 -1.46 0.54 
54.13 -21.53 -1.46 0.02 
54.37 -22.82 -1.48 0.60 
54.77 -24.22 -1.50 0.61 
55.12 -25.63 -1.53 0.61 
55.42 -27.06 -1.55 0.61 
55.68 -28.50 -1.57 0.62 
55.89 -29.96 -1.59 0.63 
55.92 -31.35 -1.61 0.03 
55.50 -32.51 -1.62 0.02 
54.88 -33.56 -1.62 0.02 
54.23 -34.59 -1.62 0.02 
53.57 -35.61 -1.62 0.02 
52.89 -36.62 -1.62 0.02 
34.31 -24.73 -1.06 0.74 
51.46 -38.59 -1.62 0.02 
11.81 -9.21 -0.38 0.46 
49.26 -39.94 -1.59 0.60 
47.61 -40.12 -1.56 0.61 
48.40 -42.37 -1.62 0.02 
47.58 -43.28 -1.62 0.02 
23.61 -22.31 -0.82 0.84 
23.26 -22.83 -0.82 0.62 
45.05 -45.91 -1.62 0.02 
44.18 -46.76 -1.62 0.02 
36.51 -40.14 -1.36 0.54 
42.37 -48.40 -1.62 0.02 
41.45 -49.19 -1.62 0.02 
11.63 -14.35 -0.46 0.73 
11.28 -14.46 -0.46 0.56 
11.29 -15.05 -0.47 0.55 
28.05 -38.92 -1.20 0.38 
5.97 -8.63 -0.26 0.65 
32.25 -48.51 -1.46 0.02 
31.33 -49.12 -1.46 0.02 
30.39 -49.70 -1.46 0.02 
32.51 -55.50 -1.62 0.02 
31.46 -56.11 -1.62 0.02 
