VERSION 0.7
FIELDS x y z intensity
SIZE 4 4 4 8
TYPE F F F F
COUNT 1 1 1 1
WIDTH 1986
HEIGHT 1
VIEWPOINT 0.0 0.0 0.0 1.0 0.0 0.0 0.0
POINTS 1986
DATA ascii
-21.45 -6.70 -1.70 0.07 
-13.44 -3.92 -1.06 0.91 
-13.73 -3.72 -1.07 0.45 
-14.65 -3.68 -1.14 0.26 
-21.90 -5.06 -1.70 0.07 
-21.99 -4.64 -1.70 0.07 
-22.07 -4.23 -1.70 0.07 
-22.15 -3.81 -1.70 0.07 
-22.22 -3.39 -1.70 0.07 
-9.97 -1.33 -0.76 0.15 
-9.69 -1.11 -0.74 0.71 
-9.63 -0.91 -0.73 0.88 
-9.59 -0.73 -0.73 0.91 
-9.58 -0.54 -0.72 0.92 
-9.57 -0.36 -0.72 0.92 
-9.57 -0.18 -0.72 0.92 
-9.60 -0.00 -0.74 0.92 
-9.62 0.18 -0.74 0.91 
-9.67 0.37 -0.74 0.88 
-9.75 0.55 -0.75 0.70 
-22.04 1.67 -1.69 0.07 
-22.00 2.09 -1.69 0.07 
-17.52 2.00 -1.35 0.15 
-15.79 2.10 -1.22 0.92 
-15.55 2.37 -1.21 0.93 
-15.56 2.68 -1.21 0.91 
-15.57 2.98 -1.21 0.91 
-15.58 3.29 -1.22 0.89 
-15.61 3.61 -1.23 0.88 
-15.66 3.93 -1.24 0.74 
-21.32 5.78 -1.69 0.07 
-21.20 6.19 -1.69 0.07 
-21.08 6.59 -1.69 0.07 
-20.95 6.98 -1.69 0.07 
-20.81 7.38 -1.69 0.07 
-14.94 5.62 -1.22 0.37 
-14.16 5.63 -1.17 0.38 
-6.77 2.84 -0.56 0.39 
-6.47 2.86 -0.54 0.48 
-6.23 2.90 -0.53 0.52 
-6.04 2.95 -0.52 0.62 
-5.93 3.04 -0.51 0.80 
-5.91 3.17 -0.51 0.63 
-5.90 3.31 -0.52 0.62 
-5.91 3.46 -0.52 0.60 
-5.91 3.62 -0.53 0.52 
-11.09 7.07 -1.01 0.72 
-16.70 11.10 -1.54 0.07 
-16.48 11.41 -1.54 0.07 
-16.26 11.72 -1.54 0.07 
-16.03 12.02 -1.54 0.07 
-15.80 12.32 -1.54 0.07 
-15.56 12.62 -1.54 0.07 
-15.32 12.91 -1.54 0.07 
-15.07 13.19 -1.54 0.07 
-14.82 13.48 -1.54 0.07 
-14.56 13.75 -1.53 0.07 
-13.08 12.84 -1.41 0.27 
-12.58 12.82 -1.38 0.91 
-12.40 13.13 -1.38 0.61 
-13.47 14.80 -1.53 0.07 
-13.18 15.05 -1.53 0.07 
-12.89 15.30 -1.53 0.07 
-12.60 15.54 -1.53 0.07 
-12.30 15.77 -1.53 0.07 
-12.00 16.00 -1.53 0.07 
-11.69 16.22 -1.53 0.07 
-11.38 16.44 -1.53 0.07 
-11.07 16.65 -1.53 0.07 
-10.75 16.85 -1.53 0.07 
-10.42 17.05 -1.53 0.07 
-10.10 17.25 -1.53 0.07 
-9.78 17.45 -1.53 0.07 
-9.45 17.64 -1.53 0.07 
-9.12 17.82 -1.53 0.07 
-8.79 18.00 -1.54 0.07 
-8.45 18.17 -1.54 0.07 
-7.62 17.24 -1.45 0.80 
-7.76 18.49 -1.54 0.07 
-7.41 18.65 -1.54 0.07 
-7.06 18.79 -1.54 0.07 
-6.71 18.92 -1.54 0.07 
-2.28 6.83 -0.55 0.05 
-2.05 6.56 -0.53 0.16 
-1.88 6.46 -0.52 0.16 
-1.71 6.29 -0.50 0.14 
-1.55 6.19 -0.49 0.79 
-1.37 5.93 -0.47 0.95 
-1.26 5.97 -0.47 0.17 
-1.19 6.19 -0.48 0.85 
-1.07 6.19 -0.48 0.85 
-0.94 6.19 -0.48 0.85 
-0.83 6.20 -0.48 0.86 
-0.71 6.20 -0.48 0.86 
-0.59 6.22 -0.48 0.84 
-0.47 6.23 -0.48 0.83 
-0.35 6.23 -0.48 0.83 
-0.24 6.23 -0.48 0.84 
-0.12 6.24 -0.48 0.84 
-0.00 6.24 -0.48 0.84 
0.12 6.25 -0.48 0.83 
0.24 6.25 -0.48 0.83 
0.36 6.25 -0.48 0.81 
0.47 6.25 -0.48 0.81 
0.59 6.26 -0.48 0.79 
0.72 6.27 -0.48 0.74 
0.83 6.26 -0.48 0.74 
0.96 6.30 -0.49 0.68 
1.09 6.33 -0.49 0.65 
1.22 6.38 -0.50 0.55 
1.37 6.47 -0.51 0.51 
3.94 17.06 -1.34 0.81 
4.87 19.40 -1.53 0.07 
5.24 19.30 -1.53 0.07 
5.60 19.19 -1.53 0.07 
5.96 19.07 -1.53 0.07 
6.31 18.94 -1.53 0.07 
6.67 18.81 -1.53 0.07 
7.02 18.67 -1.53 0.07 
7.37 18.52 -1.53 0.07 
7.71 18.37 -1.53 0.07 
8.05 18.21 -1.53 0.07 
8.39 18.04 -1.53 0.07 
8.73 17.87 -1.52 0.07 
9.06 17.69 -1.52 0.07 
9.14 17.06 -1.48 0.56 
9.29 16.57 -1.46 0.71 
10.02 17.11 -1.52 0.07 
10.34 16.91 -1.52 0.07 
10.65 16.70 -1.52 0.07 
10.97 16.50 -1.52 0.07 
11.28 16.29 -1.52 0.07 
10.55 14.64 -1.38 0.81 
11.88 15.84 -1.52 0.07 
12.18 15.62 -1.52 0.07 
12.47 15.38 -1.52 0.07 
12.76 15.14 -1.52 0.07 
13.04 14.90 -1.52 0.07 
13.32 14.65 -1.52 0.07 
13.59 14.39 -1.52 0.07 
13.86 14.13 -1.52 0.07 
14.13 13.86 -1.52 0.07 
14.39 13.59 -1.52 0.07 
14.64 13.32 -1.52 0.07 
14.89 13.04 -1.52 0.07 
15.13 12.75 -1.52 0.07 
15.37 12.46 -1.52 0.07 
15.60 12.17 -1.52 0.07 
15.83 11.87 -1.52 0.07 
16.05 11.57 -1.52 0.07 
16.26 11.26 -1.52 0.07 
16.47 10.95 -1.52 0.07 
15.87 10.12 -1.44 0.66 
16.87 10.32 -1.52 0.07 
17.07 10.00 -1.52 0.07 
17.25 9.67 -1.52 0.07 
17.43 9.34 -1.52 0.07 
17.60 9.01 -1.52 0.07 
18.03 8.80 -1.54 0.63 
18.56 8.63 -1.57 0.63 
19.10 8.45 -1.60 0.62 
19.65 8.25 -1.63 0.62 
20.13 8.01 -1.66 0.08 
20.33 7.64 -1.67 0.08 
20.50 7.27 -1.67 0.07 
20.63 6.88 -1.67 0.07 
20.76 6.48 -1.67 0.07 
20.88 6.09 -1.67 0.07 
20.99 5.69 -1.67 0.07 
21.09 5.30 -1.67 0.07 
21.19 4.90 -1.67 0.07 
21.28 4.49 -1.67 0.07 
21.36 4.09 -1.67 0.07 
21.43 3.69 -1.67 0.07 
21.50 3.28 -1.67 0.07 
21.56 2.87 -1.67 0.07 
21.61 2.46 -1.67 0.07 
21.65 2.06 -1.67 0.07 
21.69 1.65 -1.67 0.07 
21.72 1.23 -1.67 0.07 
21.74 0.82 -1.67 0.07 
21.75 0.41 -1.67 0.07 
21.76 -0.00 -1.67 0.07 
21.75 -0.41 -1.67 0.07 
21.74 -0.82 -1.67 0.07 
21.72 -1.23 -1.67 0.07 
21.70 -1.65 -1.67 0.07 
21.67 -2.06 -1.67 0.07 
21.62 -2.47 -1.67 0.07 
21.57 -2.88 -1.67 0.07 
21.52 -3.28 -1.67 0.07 
21.45 -3.69 -1.67 0.07 
21.38 -4.10 -1.67 0.07 
21.30 -4.50 -1.67 0.07 
21.21 -4.90 -1.67 0.07 
21.12 -5.30 -1.67 0.07 
21.02 -5.70 -1.67 0.07 
20.91 -6.10 -1.67 0.07 
20.79 -6.50 -1.67 0.07 
20.67 -6.89 -1.67 0.07 
20.53 -7.28 -1.67 0.07 
20.39 -7.67 -1.67 0.07 
20.25 -8.05 -1.67 0.07 
20.09 -8.43 -1.67 0.07 
19.93 -8.81 -1.67 0.07 
19.76 -9.19 -1.67 0.07 
19.59 -9.56 -1.67 0.07 
19.41 -9.93 -1.67 0.07 
19.22 -10.30 -1.67 0.07 
19.02 -10.66 -1.67 0.07 
5.77 -3.38 -0.51 0.41 
5.51 -3.37 -0.49 0.44 
5.28 -3.37 -0.48 0.50 
5.11 -3.39 -0.47 0.59 
4.98 -3.45 -0.46 0.60 
4.93 -3.56 -0.47 0.63 
4.91 -3.68 -0.47 0.62 
4.89 -3.82 -0.48 0.59 
4.88 -3.96 -0.48 0.57 
15.18 -12.79 -1.52 0.07 
14.94 -13.08 -1.52 0.07 
14.69 -13.36 -1.52 0.07 
14.44 -13.64 -1.52 0.07 
14.18 -13.91 -1.52 0.07 
13.92 -14.18 -1.52 0.07 
13.65 -14.44 -1.52 0.07 
13.37 -14.70 -1.52 0.07 
13.09 -14.96 -1.52 0.07 
12.81 -15.20 -1.52 0.07 
6.98 -8.61 -0.85 0.77 
12.23 -15.68 -1.52 0.07 
11.93 -15.91 -1.52 0.07 
11.63 -16.14 -1.52 0.07 
11.33 -16.36 -1.53 0.07 
11.02 -16.57 -1.53 0.07 
10.70 -16.78 -1.53 0.07 
10.38 -16.98 -1.53 0.07 
10.06 -17.18 -1.53 0.07 
9.74 -17.37 -1.53 0.07 
6.18 -11.53 -1.00 0.88 
5.82 -11.38 -0.98 0.75 
6.80 -13.93 -1.19 0.86 
6.76 -14.53 -1.23 0.35 
8.06 -18.22 -1.53 0.07 
7.71 -18.38 -1.53 0.07 
7.37 -18.52 -1.53 0.07 
7.02 -18.66 -1.53 0.07 
6.66 -18.79 -1.53 0.07 
6.31 -18.92 -1.53 0.07 
5.95 -19.04 -1.53 0.07 
5.59 -19.15 -1.53 0.07 
5.22 -19.26 -1.53 0.07 
4.86 -19.35 -1.53 0.07 
4.49 -19.45 -1.53 0.07 
4.13 -19.53 -1.53 0.07 
3.76 -19.61 -1.53 0.07 
3.38 -19.68 -1.53 0.07 
3.01 -19.74 -1.53 0.07 
2.64 -19.80 -1.53 0.07 
2.26 -19.85 -1.53 0.07 
1.89 -19.89 -1.53 0.07 
1.51 -19.93 -1.53 0.07 
1.13 -19.96 -1.53 0.07 
0.76 -19.98 -1.53 0.07 
0.38 -19.99 -1.53 0.07 
-0.00 -20.00 -1.53 0.07 
-0.38 -20.00 -1.53 0.07 
-0.76 -19.99 -1.53 0.07 
-0.71 -12.44 -0.96 0.50 
-1.51 -19.95 -1.53 0.07 
-1.89 -19.92 -1.53 0.07 
-2.27 -19.89 -1.53 0.07 
-2.64 -19.84 -1.53 0.07 
-3.02 -19.79 -1.53 0.07 
-3.39 -19.73 -1.53 0.07 
-3.77 -19.67 -1.54 0.07 
-4.14 -19.60 -1.54 0.07 
-4.51 -19.52 -1.54 0.07 
-4.88 -19.43 -1.54 0.07 
-5.25 -19.34 -1.54 0.07 
-5.61 -19.24 -1.54 0.07 
-5.98 -19.13 -1.54 0.07 
-6.34 -19.02 -1.54 0.07 
-6.70 -18.90 -1.54 0.07 
-7.06 -18.77 -1.54 0.07 
-7.41 -18.63 -1.54 0.07 
-7.76 -18.49 -1.54 0.07 
-8.11 -18.34 -1.54 0.07 
-8.46 -18.19 -1.54 0.07 
-8.80 -18.03 -1.54 0.07 
-9.14 -17.86 -1.54 0.07 
-9.48 -17.69 -1.54 0.07 
-7.11 -12.69 -1.12 0.20 
-10.15 -17.32 -1.54 0.07 
-10.47 -17.13 -1.54 0.07 
-10.80 -16.93 -1.54 0.07 
-11.12 -16.72 -1.54 0.07 
-11.43 -16.51 -1.54 0.07 
-11.74 -16.29 -1.54 0.07 
-12.05 -16.07 -1.54 0.07 
-12.35 -15.84 -1.54 0.07 
-12.65 -15.60 -1.54 0.07 
-12.95 -15.36 -1.54 0.07 
-13.23 -15.12 -1.54 0.07 
-13.52 -14.86 -1.54 0.07 
-13.80 -14.61 -1.54 0.07 
-14.07 -14.34 -1.54 0.07 
-14.34 -14.08 -1.54 0.07 
-14.61 -13.80 -1.54 0.07 
-14.87 -13.52 -1.54 0.07 
-15.12 -13.24 -1.54 0.07 
-15.37 -12.95 -1.54 0.07 
-15.62 -12.66 -1.54 0.07 
-15.85 -12.36 -1.54 0.07 
-16.08 -12.06 -1.54 0.07 
-16.31 -11.76 -1.54 0.07 
-12.77 -8.84 -1.19 0.50 
-16.75 -11.13 -1.54 0.07 
-16.95 -10.81 -1.54 0.07 
-17.16 -10.49 -1.54 0.07 
-17.35 -10.16 -1.54 0.07 
-17.54 -9.84 -1.54 0.07 
-17.73 -9.50 -1.54 0.07 
-17.90 -9.16 -1.54 0.07 
-18.07 -8.82 -1.54 0.07 
-18.24 -8.48 -1.54 0.07 
-18.86 -8.34 -1.58 0.35 
-19.93 -8.37 -1.66 0.33 
-20.51 -8.16 -1.69 0.07 
-20.70 -7.78 -1.70 0.07 
-20.85 -7.39 -1.70 0.07 
-20.98 -6.99 -1.70 0.07 
-21.11 -6.60 -1.70 0.07 
-13.44 -3.92 -1.07 0.91 
-13.75 -3.73 -1.09 0.45 
-14.67 -3.68 -1.16 0.11 
-21.55 -4.98 -1.70 0.07 
-21.64 -4.57 -1.70 0.07 
-21.72 -4.16 -1.70 0.07 
-21.80 -3.75 -1.70 0.07 
-21.86 -3.34 -1.70 0.07 
-9.97 -1.33 -0.77 0.15 
-9.68 -1.10 -0.75 0.71 
-9.62 -0.91 -0.74 0.88 
-9.59 -0.73 -0.74 0.91 
-9.57 -0.54 -0.74 0.92 
-9.56 -0.36 -0.73 0.92 
-9.57 -0.18 -0.73 0.92 
-9.59 -0.00 -0.75 0.92 
-9.62 0.18 -0.75 0.91 
-9.67 0.37 -0.75 0.88 
-9.74 0.55 -0.76 0.70 
-21.70 1.65 -1.69 0.07 
-21.66 2.06 -1.69 0.07 
-17.52 2.00 -1.37 0.15 
-15.79 2.10 -1.24 0.92 
-15.55 2.37 -1.22 0.93 
-15.56 2.68 -1.23 0.90 
-15.57 2.98 -1.23 0.91 
-15.58 3.29 -1.24 0.89 
-15.61 3.61 -1.25 0.88 
-15.66 3.93 -1.26 0.74 
-20.99 5.69 -1.69 0.07 
-20.87 6.09 -1.69 0.07 
-20.75 6.48 -1.69 0.07 
-20.62 6.87 -1.69 0.07 
-20.49 7.26 -1.69 0.07 
-14.94 5.62 -1.24 0.37 
-7.07 2.81 -0.59 0.34 
-6.76 2.84 -0.57 0.39 
-6.47 2.86 -0.55 0.48 
-6.22 2.89 -0.53 0.52 
-6.03 2.95 -0.52 0.62 
-5.92 3.03 -0.52 0.80 
-5.90 3.16 -0.52 0.63 
-5.90 3.31 -0.53 0.62 
-5.90 3.45 -0.53 0.60 
-5.90 3.61 -0.54 0.52 
-11.09 7.07 -1.02 0.75 
-16.44 10.93 -1.54 0.07 
-16.23 11.23 -1.54 0.07 
-16.01 11.54 -1.54 0.07 
-15.78 11.84 -1.54 0.07 
-15.56 12.13 -1.54 0.07 
-15.32 12.42 -1.54 0.07 
-15.08 12.71 -1.54 0.07 
-14.84 12.99 -1.54 0.07 
-14.59 13.27 -1.54 0.07 
-14.33 13.54 -1.53 0.07 
-13.08 12.84 -1.43 0.27 
-12.58 12.82 -1.40 0.91 
-12.40 13.13 -1.41 0.61 
-13.26 14.58 -1.53 0.07 
-12.98 14.82 -1.53 0.07 
-12.69 15.06 -1.53 0.07 
-12.40 15.30 -1.53 0.07 
-12.11 15.53 -1.53 0.07 
-11.81 15.75 -1.53 0.07 
-11.51 15.97 -1.53 0.07 
-11.20 16.18 -1.53 0.07 
-10.89 16.39 -1.53 0.07 
-10.58 16.59 -1.53 0.07 
-10.26 16.78 -1.53 0.07 
-9.94 16.97 -1.53 0.07 
-9.62 17.16 -1.53 0.07 
-9.30 17.35 -1.53 0.07 
-8.97 17.53 -1.53 0.07 
-8.64 17.70 -1.53 0.07 
-8.31 17.87 -1.53 0.07 
-7.62 17.24 -1.47 0.62 
-7.63 18.19 -1.54 0.07 
-7.29 18.33 -1.54 0.07 
-6.95 18.48 -1.54 0.07 
-6.60 18.61 -1.54 0.07 
-2.23 6.68 -0.55 0.05 
-2.04 6.52 -0.53 0.16 
-1.87 6.41 -0.52 0.16 
-1.69 6.25 -0.50 0.14 
-1.55 6.18 -0.50 0.79 
-1.37 5.93 -0.47 0.95 
-1.26 5.97 -0.48 0.17 
-1.19 6.19 -0.49 0.85 
-1.06 6.19 -0.49 0.85 
-0.94 6.19 -0.49 0.85 
-0.82 6.19 -0.49 0.86 
-0.71 6.20 -0.49 0.86 
-0.59 6.21 -0.49 0.84 
-0.47 6.22 -0.49 0.83 
-0.35 6.23 -0.49 0.83 
-0.24 6.23 -0.49 0.84 
-0.12 6.23 -0.49 0.84 
0.00 6.24 -0.49 0.84 
0.12 6.24 -0.49 0.83 
0.24 6.25 -0.49 0.83 
0.36 6.25 -0.49 0.81 
0.47 6.25 -0.49 0.81 
0.59 6.25 -0.49 0.79 
0.71 6.26 -0.49 0.74 
0.83 6.26 -0.49 0.74 
0.96 6.29 -0.50 0.68 
1.09 6.33 -0.50 0.65 
1.22 6.37 -0.51 0.55 
1.36 6.46 -0.51 0.51 
3.94 17.05 -1.36 0.81 
4.79 19.08 -1.53 0.07 
5.15 18.98 -1.53 0.07 
5.51 18.87 -1.53 0.07 
5.86 18.75 -1.53 0.07 
6.21 18.63 -1.53 0.07 
6.56 18.50 -1.53 0.07 
6.90 18.36 -1.53 0.07 
7.24 18.22 -1.53 0.07 
7.58 18.07 -1.53 0.07 
7.92 17.91 -1.52 0.07 
8.25 17.74 -1.52 0.07 
8.58 17.57 -1.52 0.07 
8.91 17.40 -1.52 0.07 
9.23 17.22 -1.52 0.07 
9.32 16.62 -1.48 0.03 
9.86 16.84 -1.52 0.07 
10.18 16.65 -1.52 0.07 
10.49 16.45 -1.52 0.07 
10.80 16.25 -1.52 0.07 
11.10 16.04 -1.52 0.07 
10.55 14.64 -1.41 0.72 
11.70 15.60 -1.52 0.07 
11.99 15.38 -1.52 0.07 
12.28 15.15 -1.52 0.07 
12.56 14.91 -1.52 0.07 
12.84 14.67 -1.52 0.07 
13.12 14.42 -1.52 0.07 
13.39 14.17 -1.52 0.07 
13.65 13.91 -1.52 0.07 
13.91 13.65 -1.52 0.07 
14.17 13.38 -1.52 0.07 
14.42 13.11 -1.52 0.07 
14.66 12.84 -1.52 0.07 
14.90 12.56 -1.52 0.07 
15.13 12.27 -1.52 0.07 
15.36 11.98 -1.52 0.07 
15.59 11.69 -1.52 0.07 
15.80 11.39 -1.52 0.07 
16.01 11.09 -1.52 0.07 
16.22 10.78 -1.52 0.07 
15.87 10.12 -1.47 0.66 
16.12 9.86 -1.47 0.64 
16.81 9.84 -1.52 0.07 
16.99 9.52 -1.52 0.07 
17.16 9.20 -1.52 0.07 
17.51 8.96 -1.53 0.64 
18.03 8.80 -1.56 0.63 
18.55 8.63 -1.59 0.63 
19.09 8.44 -1.63 0.62 
19.65 8.25 -1.66 0.62 
19.86 7.90 -1.66 0.08 
20.04 7.54 -1.67 0.07 
20.18 7.15 -1.67 0.07 
20.32 6.77 -1.67 0.07 
20.44 6.39 -1.67 0.07 
20.56 6.00 -1.67 0.07 
20.67 5.61 -1.67 0.07 
20.77 5.22 -1.67 0.07 
20.86 4.82 -1.67 0.07 
20.95 4.43 -1.67 0.07 
21.03 4.03 -1.67 0.07 
21.11 3.63 -1.67 0.07 
21.17 3.23 -1.67 0.07 
21.23 2.83 -1.67 0.07 
21.28 2.43 -1.67 0.07 
21.32 2.02 -1.67 0.07 
21.36 1.62 -1.67 0.07 
21.39 1.22 -1.67 0.07 
21.41 0.81 -1.67 0.07 
21.42 0.41 -1.67 0.07 
21.42 0.00 -1.67 0.07 
21.42 -0.41 -1.67 0.07 
21.41 -0.81 -1.67 0.07 
21.39 -1.22 -1.67 0.07 
21.37 -1.62 -1.67 0.07 
21.33 -2.02 -1.67 0.07 
21.29 -2.43 -1.67 0.07 
21.24 -2.83 -1.67 0.07 
21.19 -3.23 -1.67 0.07 
21.12 -3.63 -1.67 0.07 
21.05 -4.03 -1.67 0.07 
20.98 -4.43 -1.67 0.07 
20.89 -4.83 -1.67 0.07 
20.80 -5.22 -1.67 0.07 
20.69 -5.62 -1.67 0.07 
20.59 -6.01 -1.67 0.07 
20.47 -6.40 -1.67 0.07 
20.35 -6.78 -1.67 0.07 
20.22 -7.17 -1.67 0.07 
20.08 -7.55 -1.67 0.07 
19.94 -7.93 -1.67 0.07 
19.79 -8.31 -1.67 0.07 
19.63 -8.68 -1.67 0.07 
19.46 -9.05 -1.67 0.07 
19.29 -9.42 -1.67 0.07 
19.11 -9.78 -1.67 0.07 
18.92 -10.14 -1.67 0.07 
18.73 -10.50 -1.67 0.07 
5.76 -3.38 -0.52 0.41 
5.50 -3.36 -0.50 0.44 
5.28 -3.37 -0.49 0.50 
5.10 -3.39 -0.48 0.59 
4.97 -3.44 -0.47 0.81 
4.93 -3.55 -0.47 0.64 
4.91 -3.68 -0.48 0.62 
4.89 -3.81 -0.48 0.59 
4.87 -3.95 -0.49 0.57 
14.95 -12.60 -1.52 0.07 
14.71 -12.88 -1.52 0.07 
14.47 -13.16 -1.52 0.07 
14.22 -13.43 -1.52 0.07 
13.96 -13.70 -1.52 0.07 
13.70 -13.96 -1.52 0.07 
13.44 -14.22 -1.52 0.07 
13.17 -14.48 -1.52 0.07 
12.89 -14.73 -1.52 0.07 
12.61 -14.97 -1.52 0.07 
6.98 -8.61 -0.86 0.77 
12.04 -15.44 -1.52 0.07 
11.75 -15.67 -1.52 0.07 
11.45 -15.89 -1.52 0.07 
11.15 -16.11 -1.53 0.07 
10.85 -16.32 -1.53 0.07 
10.54 -16.52 -1.53 0.07 
10.22 -16.72 -1.53 0.07 
9.91 -16.91 -1.53 0.07 
9.59 -17.10 -1.53 0.07 
6.18 -11.54 -1.02 0.81 
5.83 -11.39 -1.00 0.61 
6.80 -13.93 -1.21 0.86 
6.76 -14.53 -1.25 0.35 
7.93 -17.94 -1.53 0.07 
7.59 -18.09 -1.53 0.07 
7.25 -18.24 -1.53 0.07 
6.91 -18.37 -1.53 0.07 
6.56 -18.50 -1.53 0.07 
6.21 -18.63 -1.53 0.07 
5.86 -18.74 -1.53 0.07 
5.50 -18.86 -1.53 0.07 
5.14 -18.96 -1.53 0.07 
4.79 -19.06 -1.53 0.07 
4.42 -19.15 -1.53 0.07 
4.06 -19.23 -1.53 0.07 
3.70 -19.31 -1.53 0.07 
3.33 -19.38 -1.53 0.07 
2.97 -19.44 -1.53 0.07 
2.60 -19.49 -1.53 0.07 
2.23 -19.54 -1.53 0.07 
1.86 -19.58 -1.53 0.07 
1.49 -19.62 -1.53 0.07 
1.12 -19.65 -1.53 0.07 
0.74 -19.67 -1.53 0.07 
0.37 -19.68 -1.53 0.07 
-0.00 -19.69 -1.53 0.07 
-0.37 -19.69 -1.53 0.07 
-0.47 -12.30 -0.96 0.47 
-0.71 -12.44 -0.97 0.52 
-1.49 -19.64 -1.53 0.07 
-1.86 -19.61 -1.53 0.07 
-2.23 -19.58 -1.53 0.07 
-2.60 -19.53 -1.53 0.07 
-2.97 -19.48 -1.53 0.07 
-3.34 -19.43 -1.53 0.07 
-3.71 -19.36 -1.54 0.07 
-4.08 -19.29 -1.54 0.07 
-4.44 -19.21 -1.54 0.07 
-4.80 -19.13 -1.54 0.07 
-5.17 -19.04 -1.54 0.07 
-5.53 -18.94 -1.54 0.07 
-5.88 -18.83 -1.54 0.07 
-6.24 -18.72 -1.54 0.07 
-6.59 -18.60 -1.54 0.07 
-6.95 -18.48 -1.54 0.07 
-7.30 -18.34 -1.54 0.07 
-7.64 -18.21 -1.54 0.07 
-7.99 -18.06 -1.54 0.07 
-8.33 -17.91 -1.54 0.07 
-8.67 -17.75 -1.54 0.07 
-9.00 -17.58 -1.54 0.07 
-9.33 -17.41 -1.54 0.07 
-7.11 -12.68 -1.13 0.37 
-9.99 -17.05 -1.54 0.07 
-10.31 -16.86 -1.54 0.07 
-10.63 -16.66 -1.54 0.07 
-10.94 -16.46 -1.54 0.07 
-11.25 -16.25 -1.54 0.07 
-11.56 -16.04 -1.54 0.07 
-11.86 -15.82 -1.54 0.07 
-12.16 -15.59 -1.54 0.07 
-12.45 -15.36 -1.54 0.07 
-12.74 -15.12 -1.54 0.07 
-13.03 -14.88 -1.54 0.07 
-13.31 -14.63 -1.54 0.07 
-13.58 -14.38 -1.54 0.07 
-13.86 -14.12 -1.54 0.07 
-14.12 -13.86 -1.54 0.07 
-14.38 -13.59 -1.54 0.07 
-14.64 -13.31 -1.54 0.07 
-14.89 -13.04 -1.54 0.07 
-15.13 -12.75 -1.54 0.07 
-15.37 -12.46 -1.54 0.07 
-15.61 -12.17 -1.54 0.07 
-15.83 -11.87 -1.54 0.07 
-16.06 -11.57 -1.54 0.07 
-12.77 -8.84 -1.21 0.50 
-16.49 -10.96 -1.54 0.07 
-16.69 -10.65 -1.54 0.07 
-16.89 -10.33 -1.54 0.07 
-17.08 -10.01 -1.54 0.07 
-17.27 -9.68 -1.54 0.07 
-17.45 -9.35 -1.54 0.07 
-17.62 -9.02 -1.54 0.07 
-17.79 -8.69 -1.54 0.07 
-17.95 -8.35 -1.54 0.07 
-18.85 -8.34 -1.61 0.35 
-19.92 -8.36 -1.68 0.33 
-20.21 -8.04 -1.69 0.08 
-20.38 -7.66 -1.70 0.07 
-20.52 -7.28 -1.70 0.07 
-20.66 -6.89 -1.70 0.07 
-20.78 -6.49 -1.70 0.07 
-13.50 -3.94 -1.09 0.25 
-13.78 -3.74 -1.11 0.45 
-21.12 -5.30 -1.70 0.07 
-21.22 -4.90 -1.70 0.07 
-21.30 -4.50 -1.70 0.07 
-21.38 -4.10 -1.70 0.07 
-21.46 -3.69 -1.70 0.07 
-21.52 -3.28 -1.70 0.07 
-9.95 -1.33 -0.78 0.06 
-9.67 -1.10 -0.76 0.71 
-9.62 -0.91 -0.75 0.88 
-9.59 -0.73 -0.75 0.91 
-9.57 -0.54 -0.75 0.92 
-9.56 -0.36 -0.74 0.92 
-9.57 -0.18 -0.75 0.92 
-9.59 -0.00 -0.76 0.92 
-9.62 0.18 -0.76 0.91 
-9.66 0.37 -0.76 0.88 
-9.73 0.55 -0.77 0.70 
-10.15 0.77 -0.80 0.01 
-21.33 2.02 -1.69 0.07 
-17.52 2.00 -1.39 0.15 
-15.78 2.10 -1.26 0.92 
-15.55 2.37 -1.24 0.91 
-15.56 2.68 -1.25 0.90 
-15.57 2.98 -1.25 0.91 
-15.59 3.29 -1.26 0.89 
-15.61 3.61 -1.27 0.88 
-15.65 3.93 -1.28 0.74 
-20.66 5.61 -1.69 0.07 
-20.55 6.00 -1.69 0.07 
-20.43 6.38 -1.69 0.07 
-20.31 6.77 -1.69 0.07 
-20.17 7.15 -1.69 0.07 
-14.94 5.62 -1.26 0.37 
-7.06 2.81 -0.60 0.40 
-6.75 2.83 -0.58 0.39 
-6.46 2.86 -0.56 0.48 
-6.22 2.89 -0.54 0.53 
-6.03 2.94 -0.53 0.62 
-5.92 3.03 -0.53 0.80 
-5.89 3.16 -0.53 0.63 
-5.89 3.30 -0.53 0.62 
-5.89 3.45 -0.54 0.60 
-5.89 3.60 -0.55 0.52 
-11.08 7.07 -1.04 0.75 
-16.19 10.76 -1.54 0.07 
-15.98 11.06 -1.54 0.07 
-15.76 11.36 -1.54 0.07 
-15.54 11.66 -1.54 0.07 
-15.32 11.95 -1.54 0.07 
-15.09 12.23 -1.54 0.07 
-14.85 12.51 -1.54 0.07 
-14.61 12.79 -1.54 0.07 
-14.36 13.06 -1.53 0.07 
-14.11 13.33 -1.53 0.07 
-13.08 12.83 -1.45 0.27 
-12.58 12.82 -1.42 0.91 
-12.40 13.13 -1.43 0.61 
-13.05 14.35 -1.53 0.07 
-12.78 14.60 -1.53 0.07 
-12.50 14.83 -1.53 0.07 
-12.21 15.06 -1.53 0.07 
-11.93 15.29 -1.53 0.07 
-11.63 15.51 -1.53 0.07 
-11.33 15.73 -1.53 0.07 
-11.03 15.94 -1.53 0.07 
-10.73 16.14 -1.53 0.07 
-10.42 16.34 -1.53 0.07 
-10.11 16.53 -1.53 0.07 
-9.79 16.71 -1.53 0.07 
-9.47 16.89 -1.53 0.07 
-9.15 17.07 -1.53 0.07 
-8.83 17.24 -1.53 0.07 
-8.50 17.41 -1.53 0.07 
-8.17 17.58 -1.53 0.07 
-7.63 17.26 -1.49 0.62 
-7.51 17.89 -1.53 0.07 
-7.17 18.03 -1.53 0.07 
-6.83 18.17 -1.53 0.07 
-2.44 6.89 -0.58 0.04 
-2.19 6.58 -0.55 0.16 
-2.02 6.47 -0.54 0.16 
-1.86 6.37 -0.52 0.17 
-1.68 6.20 -0.51 0.14 
-1.55 6.18 -0.50 0.79 
-1.37 5.93 -0.48 0.95 
-1.26 5.97 -0.48 0.17 
-1.18 6.19 -0.50 0.85 
-1.06 6.18 -0.50 0.85 
-0.94 6.18 -0.49 0.85 
-0.82 6.19 -0.49 0.86 
-0.71 6.19 -0.49 0.86 
-0.59 6.21 -0.49 0.84 
-0.47 6.22 -0.49 0.83 
-0.35 6.22 -0.49 0.83 
-0.24 6.22 -0.49 0.84 
-0.12 6.23 -0.49 0.84 
0.00 6.23 -0.49 0.84 
0.12 6.24 -0.49 0.83 
0.24 6.24 -0.49 0.83 
0.35 6.24 -0.49 0.81 
0.47 6.24 -0.49 0.81 
0.59 6.25 -0.50 0.80 
0.71 6.26 -0.50 0.74 
0.83 6.25 -0.50 0.74 
0.96 6.29 -0.50 0.68 
1.09 6.32 -0.51 0.66 
1.22 6.36 -0.51 0.55 
1.36 6.45 -0.52 0.51 
3.94 17.03 -1.38 0.81 
4.71 18.77 -1.53 0.07 
5.07 18.67 -1.53 0.07 
5.42 18.56 -1.53 0.07 
5.76 18.45 -1.53 0.07 
6.11 18.32 -1.53 0.07 
6.45 18.20 -1.53 0.07 
6.79 18.06 -1.53 0.07 
7.13 17.92 -1.52 0.07 
7.46 17.77 -1.52 0.07 
7.79 17.62 -1.52 0.07 
8.12 17.46 -1.52 0.07 
8.44 17.29 -1.52 0.07 
8.76 17.12 -1.52 0.07 
9.08 16.94 -1.52 0.07 
9.40 16.76 -1.52 0.07 
9.71 16.58 -1.52 0.07 
10.02 16.39 -1.52 0.07 
10.33 16.20 -1.52 0.07 
10.64 16.00 -1.52 0.07 
10.94 15.79 -1.52 0.07 
10.56 14.66 -1.43 0.46 
11.52 15.37 -1.52 0.07 
11.81 15.14 -1.52 0.07 
12.09 14.92 -1.52 0.07 
12.37 14.68 -1.52 0.07 
12.65 14.45 -1.52 0.07 
12.92 14.20 -1.52 0.07 
13.18 13.95 -1.52 0.07 
13.44 13.70 -1.52 0.07 
13.70 13.44 -1.52 0.07 
13.95 13.18 -1.52 0.07 
14.20 12.91 -1.52 0.07 
14.44 12.64 -1.52 0.07 
14.67 12.37 -1.52 0.07 
14.90 12.09 -1.52 0.07 
15.13 11.80 -1.52 0.07 
15.35 11.51 -1.52 0.07 
15.56 11.22 -1.52 0.07 
15.77 10.92 -1.52 0.07 
15.98 10.62 -1.52 0.07 
15.87 10.12 -1.49 0.66 
16.12 9.86 -1.49 0.64 
16.55 9.70 -1.52 0.07 
16.73 9.38 -1.52 0.07 
17.01 9.12 -1.53 0.64 
17.50 8.96 -1.55 0.64 
18.02 8.80 -1.59 0.63 
18.55 8.62 -1.62 0.63 
19.09 8.44 -1.65 0.62 
19.40 8.14 -1.66 0.08 
19.60 7.79 -1.67 0.08 
19.74 7.42 -1.67 0.07 
19.88 7.05 -1.67 0.07 
20.01 6.67 -1.67 0.07 
20.13 6.29 -1.67 0.07 
20.25 5.91 -1.67 0.07 
20.35 5.52 -1.67 0.07 
20.46 5.14 -1.67 0.07 
20.55 4.75 -1.67 0.07 
20.64 4.36 -1.67 0.07 
20.72 3.97 -1.67 0.07 
20.79 3.58 -1.67 0.07 
20.85 3.18 -1.67 0.07 
20.91 2.79 -1.67 0.07 
20.96 2.39 -1.67 0.07 
21.00 1.99 -1.67 0.07 
21.04 1.60 -1.67 0.07 
21.06 1.20 -1.67 0.07 
21.08 0.80 -1.67 0.07 
21.09 0.40 -1.67 0.07 
21.10 0.00 -1.67 0.07 
21.10 -0.40 -1.67 0.07 
21.09 -0.80 -1.67 0.07 
21.07 -1.20 -1.67 0.07 
21.04 -1.60 -1.67 0.07 
21.01 -1.99 -1.67 0.07 
20.97 -2.39 -1.67 0.07 
20.92 -2.79 -1.67 0.07 
20.87 -3.18 -1.67 0.07 
20.81 -3.58 -1.67 0.07 
20.74 -3.97 -1.67 0.07 
20.66 -4.36 -1.67 0.07 
20.57 -4.75 -1.67 0.07 
20.48 -5.14 -1.67 0.07 
20.38 -5.53 -1.67 0.07 
20.28 -5.92 -1.67 0.07 
20.16 -6.30 -1.67 0.07 
20.04 -6.68 -1.67 0.07 
19.91 -7.06 -1.67 0.07 
19.78 -7.43 -1.67 0.07 
19.64 -7.81 -1.67 0.07 
19.49 -8.18 -1.67 0.07 
19.33 -8.55 -1.67 0.07 
19.17 -8.91 -1.67 0.07 
19.00 -9.28 -1.67 0.07 
18.82 -9.63 -1.67 0.07 
18.64 -9.99 -1.67 0.07 
18.45 -10.34 -1.67 0.07 
5.76 -3.37 -0.53 0.41 
5.49 -3.36 -0.51 0.44 
5.27 -3.36 -0.49 0.50 
5.09 -3.39 -0.48 0.63 
4.97 -3.44 -0.48 0.81 
4.92 -3.55 -0.48 0.64 
4.90 -3.67 -0.48 0.62 
4.88 -3.81 -0.49 0.59 
4.87 -3.95 -0.50 0.57 
14.72 -12.41 -1.52 0.07 
14.49 -12.69 -1.52 0.07 
14.25 -12.96 -1.52 0.07 
14.00 -13.23 -1.52 0.07 
13.75 -13.49 -1.52 0.07 
13.49 -13.75 -1.52 0.07 
13.23 -14.01 -1.52 0.07 
12.97 -14.26 -1.52 0.07 
12.70 -14.50 -1.52 0.07 
12.42 -14.74 -1.52 0.07 
6.98 -8.61 -0.88 0.77 
11.86 -15.21 -1.52 0.07 
11.57 -15.43 -1.52 0.07 
11.28 -15.65 -1.52 0.07 
10.98 -15.86 -1.53 0.07 
10.68 -16.07 -1.53 0.07 
10.38 -16.27 -1.53 0.07 
10.07 -16.47 -1.53 0.07 
9.76 -16.66 -1.53 0.07 
9.44 -16.84 -1.53 0.07 
6.19 -11.54 -1.04 0.82 
5.84 -11.41 -1.01 0.37 
6.80 -13.93 -1.23 0.86 
6.76 -14.53 -1.27 0.35 
7.81 -17.67 -1.53 0.07 
7.48 -17.82 -1.53 0.07 
7.14 -17.96 -1.53 0.07 
6.80 -18.09 -1.53 0.07 
6.46 -18.22 -1.53 0.07 
6.11 -18.34 -1.53 0.07 
5.77 -18.46 -1.53 0.07 
5.42 -18.57 -1.53 0.07 
5.07 -18.67 -1.53 0.07 
4.71 -18.77 -1.53 0.07 
4.36 -18.85 -1.53 0.07 
4.00 -18.94 -1.53 0.07 
3.64 -19.01 -1.53 0.07 
3.28 -19.08 -1.53 0.07 
2.92 -19.14 -1.53 0.07 
2.56 -19.20 -1.53 0.07 
2.19 -19.24 -1.53 0.07 
1.83 -19.29 -1.53 0.07 
1.47 -19.32 -1.53 0.07 
1.10 -19.35 -1.53 0.07 
0.73 -19.37 -1.53 0.07 
0.37 -19.38 -1.53 0.07 
0.00 -19.39 -1.53 0.07 
-0.37 -19.39 -1.53 0.07 
-0.47 -12.29 -0.97 0.71 
-0.71 -12.44 -0.99 0.55 
-1.47 -19.34 -1.53 0.07 
-1.83 -19.31 -1.53 0.07 
-2.20 -19.28 -1.53 0.07 
-2.56 -19.24 -1.53 0.07 
-2.93 -19.19 -1.53 0.07 
-3.29 -19.13 -1.53 0.07 
-3.65 -19.07 -1.53 0.07 
-4.01 -19.00 -1.54 0.07 
-4.37 -18.92 -1.54 0.07 
-4.73 -18.84 -1.54 0.07 
-5.09 -18.75 -1.54 0.07 
-5.44 -18.65 -1.54 0.07 
-5.79 -18.55 -1.54 0.07 
-6.14 -18.44 -1.54 0.07 
-6.49 -18.32 -1.54 0.07 
-6.84 -18.19 -1.54 0.07 
-7.18 -18.06 -1.54 0.07 
-7.53 -17.93 -1.54 0.07 
-7.86 -17.78 -1.54 0.07 
-8.20 -17.63 -1.54 0.07 
-8.53 -17.48 -1.54 0.07 
-8.86 -17.31 -1.54 0.07 
-9.19 -17.15 -1.54 0.07 
-7.11 -12.67 -1.15 0.48 
-9.83 -16.79 -1.54 0.07 
-10.15 -16.60 -1.54 0.07 
-10.47 -16.41 -1.54 0.07 
-10.77 -16.21 -1.54 0.07 
-11.08 -16.00 -1.54 0.07 
-11.38 -15.79 -1.54 0.07 
-11.68 -15.58 -1.54 0.07 
-11.97 -15.35 -1.54 0.07 
-12.26 -15.12 -1.54 0.07 
-12.55 -14.89 -1.54 0.07 
-12.83 -14.65 -1.54 0.07 
-13.11 -14.41 -1.54 0.07 
-13.38 -14.16 -1.54 0.07 
-13.64 -13.90 -1.54 0.07 
-13.90 -13.64 -1.54 0.07 
-14.16 -13.38 -1.54 0.07 
-14.41 -13.11 -1.54 0.07 
-14.66 -12.84 -1.54 0.07 
-14.90 -12.56 -1.54 0.07 
-15.14 -12.27 -1.54 0.07 
-15.37 -11.99 -1.54 0.07 
-15.59 -11.69 -1.54 0.07 
-15.81 -11.40 -1.54 0.07 
-12.77 -8.84 -1.23 0.50 
-16.23 -10.79 -1.54 0.07 
-16.43 -10.48 -1.54 0.07 
-16.63 -10.17 -1.54 0.07 
-16.82 -9.85 -1.54 0.07 
-17.00 -9.53 -1.54 0.07 
-17.18 -9.21 -1.54 0.07 
-17.35 -8.88 -1.54 0.07 
-17.52 -8.55 -1.54 0.07 
-17.87 -8.31 -1.56 0.36 
-18.84 -8.33 -1.63 0.35 
-19.70 -8.27 -1.69 0.08 
-19.92 -7.92 -1.70 0.08 
-20.07 -7.54 -1.70 0.07 
-20.21 -7.16 -1.70 0.07 
-20.34 -6.78 -1.70 0.07 
-20.47 -6.39 -1.70 0.07 
-13.46 -3.93 -1.11 0.57 
-13.81 -3.75 -1.13 0.52 
-20.79 -5.22 -1.70 0.07 
-20.89 -4.83 -1.70 0.07 
-20.98 -4.43 -1.70 0.07 
-21.06 -4.03 -1.70 0.07 
-21.13 -3.63 -1.70 0.07 
-21.19 -3.23 -1.70 0.07 
-9.93 -1.32 -0.79 0.06 
-9.67 -1.10 -0.77 0.71 
-9.62 -0.91 -0.76 0.88 
-9.58 -0.73 -0.76 0.91 
-9.57 -0.54 -0.76 0.92 
-9.56 -0.36 -0.76 0.92 
-9.56 -0.18 -0.76 0.92 
-9.58 0.00 -0.77 0.92 
-9.61 0.18 -0.77 0.91 
-9.66 0.37 -0.78 0.88 
-9.72 0.55 -0.78 0.71 
-10.13 0.77 -0.82 0.13 
-21.01 1.99 -1.69 0.07 
-17.52 2.00 -1.42 0.15 
-15.78 2.10 -1.28 0.92 
-15.55 2.37 -1.26 0.91 
-15.56 2.68 -1.27 0.90 
-15.57 2.98 -1.27 0.91 
-15.59 3.29 -1.28 0.89 
-15.61 3.61 -1.29 0.88 
-15.65 3.93 -1.30 0.74 
-20.35 5.52 -1.69 0.07 
-20.24 5.91 -1.69 0.07 
-20.13 6.29 -1.69 0.07 
-20.00 6.67 -1.69 0.07 
-19.87 7.04 -1.69 0.07 
-14.94 5.62 -1.28 0.38 
-7.05 2.80 -0.61 0.40 
-6.74 2.83 -0.59 0.39 
-6.45 2.85 -0.57 0.48 
-6.21 2.89 -0.55 0.53 
-6.02 2.94 -0.54 0.62 
-5.91 3.03 -0.53 0.80 
-5.88 3.15 -0.54 0.63 
-5.88 3.30 -0.54 0.62 
-5.88 3.44 -0.55 0.60 
-5.88 3.60 -0.55 0.56 
-11.08 7.07 -1.05 0.75 
-16.12 10.71 -1.55 0.54 
-15.74 10.90 -1.54 0.07 
-15.53 11.19 -1.54 0.07 
-15.31 11.48 -1.54 0.07 
-15.09 11.77 -1.54 0.07 
-14.86 12.05 -1.54 0.07 
-14.63 12.33 -1.54 0.07 
-14.39 12.60 -1.54 0.07 
-14.15 12.87 -1.53 0.07 
-13.90 13.13 -1.53 0.07 
-13.07 12.83 -1.47 0.27 
-12.58 12.82 -1.44 0.91 
-12.40 13.13 -1.45 0.61 
-12.86 14.14 -1.53 0.07 
-12.59 14.38 -1.53 0.07 
-12.31 14.61 -1.53 0.07 
-12.03 14.84 -1.53 0.07 
-11.75 15.06 -1.53 0.07 
-11.46 15.28 -1.53 0.07 
-11.16 15.49 -1.53 0.07 
-10.87 15.70 -1.53 0.07 
-10.57 15.90 -1.53 0.07 
-10.26 16.09 -1.53 0.07 
-9.95 16.28 -1.53 0.07 
-9.64 16.46 -1.53 0.07 
-9.33 16.64 -1.53 0.07 
-9.01 16.81 -1.53 0.07 
-8.69 16.98 -1.53 0.07 
-8.37 17.13 -1.53 0.07 
-8.04 17.29 -1.53 0.07 
-7.64 17.28 -1.52 0.62 
-7.39 17.60 -1.53 0.07 
-7.06 17.74 -1.53 0.07 
-6.72 17.88 -1.53 0.07 
-2.38 6.72 -0.57 0.05 
-2.18 6.53 -0.55 0.16 
-2.01 6.43 -0.54 0.16 
-1.85 6.33 -0.53 0.17 
-1.68 6.17 -0.51 0.79 
-1.55 6.17 -0.51 0.79 
-1.37 5.93 -0.49 0.95 
-1.26 5.97 -0.49 0.17 
-1.18 6.18 -0.51 0.82 
-1.06 6.18 -0.50 0.85 
-0.94 6.18 -0.50 0.85 
-0.82 6.18 -0.50 0.86 
-0.71 6.19 -0.50 0.87 
-0.59 6.20 -0.50 0.84 
-0.47 6.21 -0.50 0.83 
-0.35 6.22 -0.50 0.83 
-0.24 6.22 -0.50 0.84 
-0.12 6.22 -0.50 0.84 
0.00 6.23 -0.50 0.84 
0.12 6.23 -0.50 0.83 
0.24 6.24 -0.50 0.83 
0.35 6.24 -0.50 0.81 
0.47 6.24 -0.50 0.81 
0.59 6.24 -0.50 0.80 
0.71 6.25 -0.50 0.74 
0.83 6.24 -0.51 0.74 
0.96 6.28 -0.51 0.68 
1.09 6.31 -0.51 0.66 
1.22 6.35 -0.52 0.55 
1.36 6.44 -0.53 0.51 
3.94 17.03 -1.40 0.93 
4.64 18.47 -1.53 0.07 
4.98 18.37 -1.53 0.07 
5.33 18.26 -1.53 0.07 
5.67 18.15 -1.53 0.07 
6.01 18.03 -1.53 0.07 
6.35 17.90 -1.52 0.07 
6.68 17.77 -1.52 0.07 
7.01 17.63 -1.52 0.07 
7.34 17.49 -1.52 0.07 
7.67 17.34 -1.52 0.07 
7.99 17.18 -1.52 0.07 
8.31 17.02 -1.52 0.07 
8.63 16.86 -1.52 0.07 
8.95 16.69 -1.52 0.07 
9.26 16.52 -1.52 0.07 
9.57 16.34 -1.52 0.07 
9.88 16.15 -1.52 0.07 
10.18 15.96 -1.52 0.07 
10.48 15.76 -1.52 0.07 
10.77 15.56 -1.52 0.07 
11.06 15.35 -1.52 0.07 
11.35 15.14 -1.52 0.07 
11.64 14.92 -1.52 0.07 
11.91 14.69 -1.52 0.07 
12.19 14.47 -1.52 0.07 
12.46 14.23 -1.52 0.07 
12.73 13.99 -1.52 0.07 
12.99 13.75 -1.52 0.07 
13.24 13.50 -1.52 0.07 
13.50 13.24 -1.52 0.07 
13.74 12.99 -1.52 0.07 
13.99 12.72 -1.52 0.07 
14.22 12.45 -1.52 0.07 
14.46 12.18 -1.52 0.07 
14.68 11.91 -1.52 0.07 
14.91 11.63 -1.52 0.07 
15.12 11.34 -1.52 0.07 
15.33 11.05 -1.52 0.07 
15.54 10.76 -1.52 0.07 
15.74 10.46 -1.52 0.07 
15.87 10.12 -1.51 0.66 
16.12 9.86 -1.52 0.64 
16.31 9.55 -1.52 0.07 
16.52 9.26 -1.52 0.51 
17.00 9.11 -1.55 0.64 
17.50 8.96 -1.58 0.64 
18.01 8.80 -1.61 0.63 
18.54 8.62 -1.64 0.63 
18.94 8.37 -1.66 0.08 
19.14 8.04 -1.67 0.08 
19.31 7.68 -1.67 0.07 
19.45 7.31 -1.67 0.07 
19.58 6.94 -1.67 0.07 
19.71 6.57 -1.67 0.07 
19.83 6.20 -1.67 0.07 
19.95 5.82 -1.67 0.07 
20.05 5.44 -1.67 0.07 
20.15 5.06 -1.67 0.07 
20.24 4.68 -1.67 0.07 
20.33 4.29 -1.67 0.07 
20.41 3.91 -1.67 0.07 
20.48 3.52 -1.67 0.07 
20.54 3.13 -1.67 0.07 
20.60 2.74 -1.67 0.07 
20.65 2.35 -1.67 0.07 
20.69 1.96 -1.67 0.07 
20.72 1.57 -1.67 0.07 
20.75 1.18 -1.67 0.07 
20.77 0.79 -1.67 0.07 
20.78 0.39 -1.67 0.07 
20.79 0.00 -1.67 0.07 
20.78 -0.39 -1.67 0.07 
20.77 -0.79 -1.67 0.07 
20.76 -1.18 -1.67 0.07 
20.73 -1.57 -1.67 0.07 
20.70 -1.96 -1.67 0.07 
20.66 -2.36 -1.67 0.07 
20.61 -2.75 -1.67 0.07 
20.56 -3.14 -1.67 0.07 
20.50 -3.53 -1.67 0.07 
20.43 -3.91 -1.67 0.07 
20.35 -4.30 -1.67 0.07 
20.27 -4.68 -1.67 0.07 
20.18 -5.07 -1.67 0.07 
20.08 -5.45 -1.67 0.07 
19.97 -5.83 -1.67 0.07 
19.86 -6.20 -1.67 0.07 
19.74 -6.58 -1.67 0.07 
19.62 -6.95 -1.67 0.07 
19.48 -7.32 -1.67 0.07 
19.34 -7.69 -1.67 0.07 
19.20 -8.06 -1.67 0.07 
19.04 -8.42 -1.67 0.07 
18.88 -8.78 -1.67 0.07 
18.71 -9.14 -1.67 0.07 
18.54 -9.49 -1.67 0.07 
18.36 -9.84 -1.67 0.07 
6.02 -3.38 -0.55 0.57 
5.75 -3.37 -0.53 0.41 
5.49 -3.36 -0.52 0.49 
5.27 -3.36 -0.50 0.50 
5.09 -3.38 -0.49 0.63 
4.96 -3.44 -0.48 0.81 
4.91 -3.54 -0.49 0.64 
4.89 -3.67 -0.49 0.62 
4.87 -3.80 -0.50 0.60 
4.86 -3.94 -0.50 0.57 
14.50 -12.22 -1.52 0.07 
14.27 -12.50 -1.52 0.07 
14.03 -12.77 -1.52 0.07 
13.79 -13.03 -1.52 0.07 
13.54 -13.29 -1.52 0.07 
13.29 -13.55 -1.52 0.07 
13.04 -13.80 -1.52 0.07 
12.77 -14.04 -1.52 0.07 
12.51 -14.29 -1.52 0.07 
12.24 -14.52 -1.52 0.07 
6.98 -8.61 -0.89 0.77 
11.68 -14.98 -1.52 0.07 
11.40 -15.20 -1.52 0.07 
11.11 -15.41 -1.53 0.07 
10.82 -15.62 -1.53 0.07 
10.52 -15.83 -1.53 0.07 
10.22 -16.03 -1.53 0.07 
9.92 -16.22 -1.53 0.07 
9.61 -16.41 -1.53 0.07 
9.30 -16.59 -1.53 0.07 
6.19 -11.55 -1.05 0.82 
5.83 -11.39 -1.03 0.35 
6.80 -13.93 -1.24 0.86 
6.76 -14.53 -1.29 0.35 
7.70 -17.41 -1.53 0.07 
7.37 -17.55 -1.53 0.07 
7.03 -17.69 -1.53 0.07 
6.70 -17.82 -1.53 0.07 
6.36 -17.95 -1.53 0.07 
6.02 -18.07 -1.53 0.07 
5.68 -18.18 -1.53 0.07 
5.34 -18.29 -1.53 0.07 
4.99 -18.39 -1.53 0.07 
4.64 -18.48 -1.53 0.07 
4.29 -18.57 -1.53 0.07 
3.94 -18.65 -1.53 0.07 
3.59 -18.73 -1.53 0.07 
3.23 -18.79 -1.53 0.07 
2.88 -18.85 -1.53 0.07 
2.52 -18.91 -1.53 0.07 
2.16 -18.96 -1.53 0.07 
1.80 -19.00 -1.53 0.07 
1.44 -19.03 -1.53 0.07 
1.08 -19.06 -1.53 0.07 
0.72 -19.08 -1.53 0.07 
0.36 -19.09 -1.53 0.07 
0.00 -19.10 -1.53 0.07 
-0.36 -19.09 -1.53 0.07 
-0.47 -12.29 -0.99 0.69 
-0.71 -12.44 -1.00 0.57 
-1.45 -19.05 -1.53 0.07 
-1.81 -19.02 -1.53 0.07 
-2.17 -18.99 -1.53 0.07 
-2.52 -18.95 -1.53 0.07 
-2.88 -18.90 -1.53 0.07 
-3.24 -18.84 -1.53 0.07 
-3.60 -18.78 -1.53 0.07 
-3.95 -18.71 -1.54 0.07 
-4.31 -18.64 -1.54 0.07 
-4.66 -18.55 -1.54 0.07 
-5.01 -18.47 -1.54 0.07 
-5.36 -18.37 -1.54 0.07 
-5.71 -18.27 -1.54 0.07 
-6.05 -18.16 -1.54 0.07 
-6.40 -18.04 -1.54 0.07 
-6.74 -17.92 -1.54 0.07 
-7.08 -17.79 -1.54 0.07 
-7.41 -17.66 -1.54 0.07 
-7.75 -17.52 -1.54 0.07 
-8.08 -17.37 -1.54 0.07 
-8.40 -17.21 -1.54 0.07 
-8.73 -17.05 -1.54 0.07 
-9.05 -16.89 -1.54 0.07 
-7.10 -12.67 -1.17 0.56 
-9.69 -16.54 -1.54 0.07 
-10.00 -16.35 -1.54 0.07 
-10.31 -16.16 -1.54 0.07 
-10.61 -15.96 -1.54 0.07 
-10.91 -15.76 -1.54 0.07 
-11.21 -15.55 -1.54 0.07 
-11.50 -15.34 -1.54 0.07 
-11.79 -15.12 -1.54 0.07 
-12.08 -14.90 -1.54 0.07 
-12.36 -14.67 -1.54 0.07 
-12.64 -14.43 -1.54 0.07 
-12.91 -14.19 -1.54 0.07 
-13.17 -13.94 -1.54 0.07 
-13.44 -13.69 -1.54 0.07 
-13.69 -13.44 -1.54 0.07 
-13.95 -13.18 -1.54 0.07 
-14.20 -12.91 -1.54 0.07 
-14.44 -12.64 -1.54 0.07 
-14.68 -12.37 -1.54 0.07 
-14.91 -12.09 -1.54 0.07 
-15.13 -11.80 -1.54 0.07 
-15.36 -11.52 -1.54 0.07 
-15.57 -11.22 -1.54 0.07 
-12.77 -8.84 -1.25 0.50 
-15.99 -10.63 -1.54 0.07 
-16.19 -10.32 -1.54 0.07 
-16.38 -10.02 -1.54 0.07 
-16.57 -9.70 -1.54 0.07 
-16.75 -9.39 -1.54 0.07 
-16.92 -9.07 -1.54 0.07 
-17.09 -8.75 -1.54 0.07 
-17.25 -8.42 -1.54 0.07 
-17.86 -8.30 -1.58 0.36 
-18.83 -8.33 -1.65 0.35 
-19.42 -8.15 -1.69 0.08 
-19.62 -7.80 -1.69 0.07 
-19.77 -7.43 -1.70 0.07 
-19.90 -7.06 -1.70 0.07 
-20.03 -6.68 -1.70 0.07 
-20.16 -6.30 -1.70 0.07 
-13.44 -3.92 -1.12 0.57 
-13.83 -3.75 -1.15 0.52 
-14.73 -3.70 -1.22 0.19 
-20.57 -4.75 -1.69 0.07 
-20.66 -4.36 -1.69 0.07 
-20.74 -3.97 -1.69 0.07 
-20.81 -3.58 -1.69 0.07 
-20.87 -3.18 -1.69 0.07 
-9.91 -1.32 -0.80 0.06 
-9.66 -1.10 -0.78 0.71 
-9.61 -0.91 -0.77 0.88 
-9.58 -0.73 -0.77 0.91 
-9.56 -0.54 -0.77 0.92 
-9.55 -0.36 -0.77 0.92 
-9.56 -0.18 -0.77 0.92 
-9.58 -0.00 -0.78 0.92 
-9.61 0.18 -0.78 0.91 
-9.66 0.37 -0.79 0.88 
-9.71 0.55 -0.79 0.71 
-10.12 0.77 -0.83 0.13 
-20.70 1.96 -1.69 0.07 
-17.52 2.00 -1.44 0.15 
-15.77 2.10 -1.30 0.92 
-15.55 2.37 -1.28 0.91 
-15.56 2.68 -1.29 0.90 
-15.57 2.98 -1.29 0.91 
-15.59 3.29 -1.30 0.89 
-15.61 3.61 -1.31 0.88 
-15.65 3.93 -1.31 0.74 
-20.05 5.44 -1.69 0.07 
-19.94 5.82 -1.69 0.07 
-19.83 6.19 -1.69 0.07 
-19.70 6.57 -1.69 0.07 
-19.57 6.94 -1.69 0.07 
-14.94 5.62 -1.30 0.39 
-7.05 2.80 -0.62 0.40 
-6.73 2.83 -0.59 0.41 
-6.45 2.85 -0.57 0.48 
-6.21 2.89 -0.56 0.53 
-6.02 2.94 -0.55 0.62 
-5.91 3.02 -0.54 0.80 
-5.88 3.15 -0.54 0.63 
-5.87 3.29 -0.55 0.62 
-5.87 3.44 -0.55 0.60 
-5.88 3.59 -0.56 0.56 
-11.08 7.07 -1.07 0.75 
-16.11 10.71 -1.58 0.54 
-15.52 10.74 -1.54 0.44 
-15.30 11.02 -1.54 0.07 
-15.08 11.31 -1.54 0.07 
-14.86 11.59 -1.54 0.07 
-14.64 11.87 -1.54 0.07 
-14.41 12.14 -1.54 0.08 
-14.18 12.41 -1.53 0.08 
-13.94 12.68 -1.53 0.08 
-13.69 12.94 -1.53 0.08 
-13.07 12.83 -1.49 0.27 
-12.58 12.82 -1.46 0.91 
-12.40 13.13 -1.47 0.61 
-12.67 13.93 -1.53 0.08 
-12.40 14.16 -1.53 0.08 
-12.13 14.39 -1.53 0.08 
-11.85 14.62 -1.53 0.08 
-11.57 14.84 -1.53 0.08 
-11.29 15.05 -1.53 0.08 
-11.00 15.26 -1.53 0.08 
-10.71 15.46 -1.53 0.08 
-10.41 15.66 -1.53 0.08 
-10.11 15.85 -1.53 0.08 
-9.81 16.04 -1.53 0.08 
-9.50 16.22 -1.53 0.08 
-9.19 16.39 -1.53 0.08 
-8.88 16.56 -1.53 0.08 
-8.56 16.72 -1.53 0.08 
-8.24 16.88 -1.53 0.08 
-7.92 17.03 -1.53 0.08 
-7.60 17.18 -1.53 0.08 
-7.27 17.32 -1.53 0.07 
-6.94 17.46 -1.53 0.07 
-6.61 17.60 -1.53 0.07 
-2.33 6.59 -0.57 0.12 
-2.16 6.48 -0.56 0.13 
-1.99 6.38 -0.54 0.16 
-1.83 6.28 -0.53 0.17 
-1.67 6.17 -0.52 0.79 
-1.55 6.17 -0.52 0.79 
-1.37 5.93 -0.50 0.95 
-1.26 5.97 -0.50 0.17 
-1.18 6.18 -0.51 0.82 
-1.06 6.17 -0.51 0.85 
-0.94 6.17 -0.51 0.85 
-0.82 6.18 -0.51 0.86 
-0.71 6.18 -0.51 0.87 
-0.59 6.20 -0.51 0.84 
-0.47 6.21 -0.51 0.83 
-0.35 6.21 -0.51 0.83 
-0.24 6.21 -0.51 0.84 
-0.12 6.22 -0.51 0.84 
-0.00 6.22 -0.51 0.84 
0.12 6.23 -0.51 0.84 
0.24 6.23 -0.51 0.83 
0.35 6.23 -0.51 0.81 
0.47 6.23 -0.51 0.81 
0.59 6.24 -0.51 0.80 
0.71 6.24 -0.51 0.74 
0.83 6.24 -0.51 0.74 
0.96 6.27 -0.52 0.68 
1.08 6.30 -0.52 0.66 
1.22 6.34 -0.53 0.56 
1.36 6.43 -0.54 0.51 
3.94 17.03 -1.42 0.93 
4.56 18.18 -1.53 0.07 
4.91 18.08 -1.53 0.07 
5.24 17.97 -1.53 0.07 
5.58 17.86 -1.52 0.07 
5.91 17.75 -1.52 0.07 
6.25 17.62 -1.52 0.07 
6.58 17.49 -1.52 0.07 
6.90 17.36 -1.52 0.07 
7.22 17.21 -1.52 0.07 
7.55 17.07 -1.52 0.08 
7.87 16.92 -1.52 0.08 
8.19 16.77 -1.52 0.08 
8.50 16.61 -1.52 0.08 
8.81 16.44 -1.52 0.08 
9.12 16.27 -1.52 0.08 
9.43 16.10 -1.52 0.08 
9.73 15.91 -1.52 0.08 
10.03 15.72 -1.52 0.08 
10.32 15.53 -1.52 0.08 
10.61 15.33 -1.52 0.08 
10.90 15.13 -1.52 0.08 
11.19 14.92 -1.52 0.08 
11.46 14.70 -1.52 0.08 
11.74 14.48 -1.52 0.08 
12.01 14.25 -1.52 0.08 
12.28 14.02 -1.52 0.08 
12.54 13.79 -1.52 0.08 
12.80 13.55 -1.52 0.08 
13.05 13.30 -1.52 0.08 
13.30 13.05 -1.52 0.08 
13.54 12.79 -1.52 0.08 
13.78 12.54 -1.52 0.08 
14.02 12.27 -1.52 0.08 
14.24 12.00 -1.52 0.08 
14.47 11.73 -1.52 0.08 
14.69 11.45 -1.52 0.08 
14.90 11.17 -1.52 0.08 
15.11 10.89 -1.52 0.08 
15.31 10.60 -1.52 0.08 
15.51 10.31 -1.52 0.08 
15.70 10.01 -1.52 0.08 
15.89 9.71 -1.52 0.08 
16.07 9.41 -1.52 0.08 
16.51 9.25 -1.54 0.66 
17.00 9.11 -1.57 0.64 
17.49 8.96 -1.60 0.64 
18.01 8.79 -1.63 0.63 
18.49 8.60 -1.66 0.09 
18.69 8.27 -1.67 0.09 
18.88 7.92 -1.67 0.08 
19.02 7.57 -1.67 0.08 
19.16 7.20 -1.67 0.08 
19.30 6.84 -1.67 0.08 
19.42 6.47 -1.67 0.08 
19.54 6.11 -1.67 0.08 
19.65 5.73 -1.67 0.08 
19.76 5.36 -1.67 0.08 
19.86 4.99 -1.67 0.08 
19.95 4.61 -1.67 0.08 
20.03 4.23 -1.67 0.08 
20.11 3.85 -1.67 0.08 
20.18 3.47 -1.67 0.08 
20.24 3.09 -1.67 0.08 
20.30 2.70 -1.67 0.08 
20.34 2.32 -1.67 0.08 
20.39 1.93 -1.67 0.08 
20.42 1.55 -1.67 0.08 
20.45 1.16 -1.67 0.08 
20.46 0.77 -1.67 0.08 
20.48 0.39 -1.67 0.08 
20.48 0.00 -1.67 0.08 
20.48 -0.39 -1.67 0.08 
20.47 -0.78 -1.67 0.08 
20.45 -1.16 -1.67 0.08 
20.43 -1.55 -1.67 0.08 
20.39 -1.94 -1.67 0.08 
20.36 -2.32 -1.67 0.08 
20.31 -2.71 -1.67 0.08 
20.26 -3.09 -1.67 0.08 
20.20 -3.47 -1.67 0.08 
20.13 -3.86 -1.67 0.08 
20.05 -4.24 -1.67 0.08 
19.97 -4.61 -1.67 0.08 
19.88 -4.99 -1.67 0.08 
19.78 -5.37 -1.67 0.08 
19.68 -5.74 -1.67 0.08 
19.57 -6.11 -1.67 0.08 
19.45 -6.48 -1.67 0.08 
19.33 -6.85 -1.67 0.08 
19.20 -7.22 -1.67 0.08 
19.06 -7.58 -1.67 0.08 
18.91 -7.94 -1.67 0.08 
18.76 -8.30 -1.67 0.08 
18.60 -8.65 -1.67 0.08 
18.44 -9.00 -1.67 0.08 
18.27 -9.35 -1.67 0.08 
18.09 -9.70 -1.67 0.08 
6.02 -3.37 -0.56 0.43 
5.74 -3.36 -0.54 0.41 
5.48 -3.35 -0.52 0.49 
5.26 -3.36 -0.51 0.50 
5.08 -3.38 -0.50 0.64 
4.96 -3.43 -0.49 0.81 
4.91 -3.54 -0.49 0.64 
4.89 -3.66 -0.50 0.62 
4.87 -3.80 -0.50 0.61 
4.85 -3.93 -0.51 0.57 
4.89 -4.12 -0.52 0.37 
14.06 -12.31 -1.52 0.08 
13.83 -12.58 -1.52 0.08 
13.59 -12.84 -1.52 0.08 
13.35 -13.10 -1.52 0.08 
13.10 -13.35 -1.52 0.08 
12.84 -13.59 -1.52 0.08 
12.59 -13.84 -1.52 0.08 
12.32 -14.07 -1.52 0.08 
12.06 -14.31 -1.52 0.08 
6.98 -8.61 -0.90 0.77 
11.51 -14.76 -1.52 0.08 
11.23 -14.97 -1.52 0.08 
10.95 -15.19 -1.53 0.08 
10.66 -15.39 -1.53 0.08 
10.37 -15.59 -1.53 0.08 
10.07 -15.79 -1.53 0.08 
9.77 -15.98 -1.53 0.08 
9.47 -16.17 -1.53 0.08 
9.16 -16.34 -1.53 0.08 
6.19 -11.55 -1.07 0.83 
5.82 -11.38 -1.04 0.61 
6.80 -13.93 -1.26 0.86 
6.76 -14.53 -1.31 0.35 
7.58 -17.15 -1.53 0.08 
7.26 -17.29 -1.53 0.08 
6.93 -17.43 -1.53 0.08 
6.60 -17.56 -1.53 0.08 
6.27 -17.68 -1.53 0.08 
5.93 -17.80 -1.53 0.08 
5.60 -17.91 -1.53 0.08 
5.26 -18.02 -1.53 0.08 
4.92 -18.12 -1.53 0.08 
4.57 -18.21 -1.53 0.08 
4.23 -18.30 -1.53 0.08 
3.88 -18.38 -1.53 0.08 
3.53 -18.45 -1.53 0.08 
3.18 -18.52 -1.53 0.08 
2.83 -18.58 -1.53 0.08 
2.48 -18.63 -1.53 0.08 
2.13 -18.68 -1.53 0.08 
1.78 -18.72 -1.53 0.08 
1.42 -18.75 -1.53 0.08 
1.07 -18.77 -1.53 0.08 
0.71 -18.79 -1.53 0.08 
0.36 -18.81 -1.53 0.08 
-0.00 -18.81 -1.53 0.08 
-0.36 -18.81 -1.53 0.08 
-0.47 -12.30 -1.00 0.36 
-0.71 -12.44 -1.02 0.55 
-1.42 -18.77 -1.53 0.08 
-1.78 -18.74 -1.53 0.08 
-2.13 -18.71 -1.53 0.08 
-2.49 -18.67 -1.53 0.08 
-2.84 -18.62 -1.53 0.08 
-3.19 -18.56 -1.53 0.08 
-3.54 -18.50 -1.53 0.08 
-3.89 -18.43 -1.53 0.08 
-4.24 -18.36 -1.54 0.08 
-4.59 -18.28 -1.54 0.08 
-4.94 -18.19 -1.54 0.07 
-5.28 -18.10 -1.54 0.07 
-5.62 -18.00 -1.54 0.07 
-5.96 -17.89 -1.54 0.07 
-6.30 -17.77 -1.54 0.07 
-6.64 -17.65 -1.54 0.07 
-6.97 -17.53 -1.54 0.07 
-7.30 -17.39 -1.54 0.07 
-7.63 -17.26 -1.54 0.07 
-7.96 -17.11 -1.54 0.07 
-8.28 -16.96 -1.54 0.07 
-8.60 -16.80 -1.54 0.07 
-8.92 -16.64 -1.54 0.07 
-7.10 -12.67 -1.18 0.62 
-9.54 -16.29 -1.54 0.07 
-9.85 -16.11 -1.54 0.07 
-10.15 -15.92 -1.54 0.07 
-10.45 -15.73 -1.54 0.07 
-10.75 -15.53 -1.54 0.07 
-11.04 -15.32 -1.54 0.07 
-11.33 -15.11 -1.54 0.07 
-11.62 -14.90 -1.54 0.07 
-11.90 -14.68 -1.54 0.07 
-12.18 -14.45 -1.54 0.07 
-12.45 -14.22 -1.54 0.07 
-12.72 -13.98 -1.54 0.07 
-12.98 -13.74 -1.54 0.07 
-13.24 -13.49 -1.54 0.07 
-13.49 -13.24 -1.54 0.07 
-13.74 -12.98 -1.54 0.07 
-13.98 -12.72 -1.54 0.07 
-14.22 -12.45 -1.54 0.07 
-14.46 -12.18 -1.54 0.07 
-14.69 -11.91 -1.54 0.07 
-14.91 -11.63 -1.54 0.07 
-15.13 -11.34 -1.54 0.07 
-15.34 -11.06 -1.54 0.07 
-12.77 -8.84 -1.27 0.50 
-15.75 -10.47 -1.54 0.07 
-15.95 -10.17 -1.54 0.07 
-16.14 -9.87 -1.54 0.07 
-16.32 -9.56 -1.54 0.07 
-16.50 -9.25 -1.54 0.07 
-16.67 -8.94 -1.54 0.07 
-16.84 -8.62 -1.54 0.07 
-17.00 -8.30 -1.54 0.07 
-17.85 -8.30 -1.60 0.36 
-18.82 -8.32 -1.68 0.35 
-19.15 -8.04 -1.69 0.08 
-19.33 -7.69 -1.69 0.07 
-19.47 -7.32 -1.69 0.07 
-19.61 -6.95 -1.69 0.07 
-19.74 -6.58 -1.69 0.07 
-19.86 -6.20 -1.69 0.07 
-13.42 -3.91 -1.14 0.57 
-13.85 -3.76 -1.17 0.52 
-14.71 -3.69 -1.24 0.39 
-20.27 -4.68 -1.69 0.07 
-20.35 -4.30 -1.69 0.07 
-20.43 -3.91 -1.69 0.07 
-20.50 -3.53 -1.69 0.07 
-20.56 -3.14 -1.69 0.07 
-9.89 -1.32 -0.81 0.06 
-9.65 -1.10 -0.79 0.71 
-9.61 -0.91 -0.79 0.88 
-9.57 -0.73 -0.78 0.91 
-9.56 -0.54 -0.78 0.92 
-9.55 -0.36 -0.78 0.92 
-9.55 -0.18 -0.78 0.92 
-9.57 -0.00 -0.79 0.92 
-9.60 0.18 -0.79 0.91 
-9.65 0.37 -0.80 0.88 
-9.71 0.55 -0.80 0.71 
-10.11 0.77 -0.84 0.13 
-20.39 1.94 -1.69 0.08 
-17.52 2.00 -1.46 0.15 
-15.77 2.10 -1.32 0.89 
-15.56 2.37 -1.30 0.91 
-15.56 2.68 -1.31 0.90 
-15.57 2.98 -1.31 0.91 
-15.59 3.29 -1.32 0.89 
-15.62 3.61 -1.33 0.88 
-15.65 3.93 -1.33 0.74 
-19.76 5.36 -1.69 0.08 
-19.65 5.73 -1.69 0.08 
-19.54 6.10 -1.69 0.08 
-19.42 6.47 -1.69 0.08 
-19.29 6.84 -1.69 0.08 
-14.95 5.62 -1.32 0.40 
-7.04 2.80 -0.63 0.40 
-6.73 2.82 -0.60 0.41 
-6.44 2.85 -0.58 0.48 
-6.20 2.88 -0.57 0.53 
-6.01 2.94 -0.55 0.58 
-5.90 3.02 -0.55 0.80 
-5.87 3.15 -0.55 0.63 
-5.86 3.29 -0.56 0.62 
-5.86 3.43 -0.56 0.60 
-5.87 3.59 -0.57 0.56 
-11.08 7.06 -1.09 0.75 
-16.11 10.71 -1.60 0.54 
-15.51 10.74 -1.56 0.56 
-15.07 10.86 -1.54 0.08 
-14.86 11.15 -1.54 0.08 
-14.65 11.42 -1.54 0.08 
-14.43 11.70 -1.54 0.08 
-14.20 11.97 -1.54 0.08 
-13.97 12.23 -1.53 0.08 
-13.73 12.49 -1.53 0.08 
-13.49 12.75 -1.53 0.08 
-13.07 12.82 -1.51 0.27 
-12.58 12.82 -1.48 0.91 
-12.40 13.13 -1.49 0.61 
-12.48 13.72 -1.53 0.08 
-12.22 13.96 -1.53 0.08 
-11.95 14.18 -1.53 0.08 
-11.68 14.40 -1.53 0.08 
-11.40 14.62 -1.53 0.08 
-11.12 14.83 -1.53 0.08 
-10.84 15.04 -1.53 0.08 
-10.55 15.24 -1.53 0.08 
-10.26 15.43 -1.53 0.08 
-9.96 15.62 -1.53 0.08 
-9.66 15.80 -1.53 0.08 
-9.36 15.98 -1.53 0.08 
-9.06 16.15 -1.53 0.08 
-8.75 16.32 -1.53 0.08 
-8.44 16.48 -1.53 0.08 
-8.12 16.64 -1.53 0.08 
-7.80 16.78 -1.53 0.08 
-7.48 16.93 -1.53 0.08 
-7.16 17.06 -1.53 0.08 
-6.84 17.19 -1.53 0.08 
-2.55 6.78 -0.60 0.04 
-2.31 6.52 -0.57 0.12 
-2.14 6.42 -0.56 0.13 
-1.98 6.34 -0.55 0.14 
-1.82 6.24 -0.54 0.17 
-1.67 6.16 -0.53 0.79 
-1.55 6.16 -0.53 0.79 
-1.37 5.93 -0.50 0.95 
-1.26 5.97 -0.50 0.17 
-1.18 6.17 -0.52 0.82 
-1.06 6.17 -0.52 0.85 
-0.94 6.17 -0.52 0.85 
-0.82 6.17 -0.51 0.87 
-0.70 6.18 -0.51 0.87 
-0.59 6.19 -0.51 0.84 
-0.47 6.20 -0.51 0.83 
-0.35 6.21 -0.51 0.84 
-0.24 6.21 -0.51 0.84 
-0.12 6.21 -0.51 0.84 
-0.00 6.22 -0.51 0.84 
0.12 6.22 -0.51 0.84 
0.24 6.23 -0.52 0.84 
0.35 6.23 -0.52 0.81 
0.47 6.22 -0.52 0.81 
0.59 6.23 -0.52 0.80 
0.71 6.24 -0.52 0.74 
0.83 6.23 -0.52 0.74 
0.96 6.26 -0.52 0.68 
1.08 6.29 -0.53 0.66 
1.21 6.33 -0.53 0.56 
1.36 6.42 -0.54 0.51 
3.94 17.03 -1.45 0.93 
4.49 17.89 -1.53 0.07 
4.83 17.80 -1.52 0.07 
5.16 17.69 -1.52 0.07 
5.49 17.59 -1.52 0.07 
5.82 17.47 -1.52 0.07 
6.15 17.35 -1.52 0.07 
6.48 17.22 -1.52 0.08 
6.80 17.10 -1.52 0.08 
7.12 16.96 -1.52 0.08 
7.44 16.82 -1.52 0.08 
7.76 16.68 -1.52 0.08 
8.07 16.53 -1.52 0.08 
8.38 16.37 -1.52 0.08 
8.69 16.21 -1.52 0.08 
8.99 16.04 -1.52 0.08 
9.29 15.86 -1.52 0.08 
9.59 15.68 -1.52 0.08 
9.88 15.50 -1.52 0.08 
10.17 15.31 -1.52 0.08 
10.46 15.11 -1.52 0.08 
10.74 14.91 -1.52 0.08 
11.02 14.70 -1.52 0.08 
11.30 14.49 -1.52 0.08 
11.57 14.27 -1.52 0.08 
11.84 14.05 -1.52 0.08 
12.10 13.82 -1.52 0.08 
12.36 13.59 -1.52 0.08 
12.61 13.35 -1.52 0.08 
12.86 13.11 -1.52 0.08 
13.11 12.86 -1.52 0.08 
13.35 12.61 -1.52 0.08 
13.58 12.35 -1.52 0.08 
13.81 12.09 -1.52 0.08 
14.04 11.83 -1.52 0.08 
14.26 11.56 -1.52 0.08 
14.47 11.29 -1.52 0.08 
14.68 11.01 -1.52 0.08 
14.89 10.73 -1.52 0.08 
15.09 10.45 -1.52 0.08 
15.28 10.16 -1.52 0.08 
15.47 9.87 -1.52 0.08 
15.66 9.57 -1.52 0.08 
16.03 9.39 -1.54 0.67 
16.50 9.25 -1.56 0.66 
16.99 9.11 -1.59 0.64 
17.49 8.95 -1.62 0.64 
18.00 8.79 -1.66 0.63 
18.25 8.49 -1.66 0.09 
18.45 8.16 -1.67 0.08 
18.60 7.81 -1.67 0.08 
18.75 7.46 -1.67 0.08 
18.89 7.10 -1.67 0.08 
19.02 6.74 -1.67 0.08 
19.14 6.38 -1.67 0.08 
19.26 6.02 -1.67 0.08 
19.37 5.65 -1.67 0.08 
19.47 5.28 -1.67 0.08 
19.57 4.91 -1.67 0.08 
19.66 4.54 -1.67 0.08 
19.74 4.17 -1.67 0.08 
19.82 3.80 -1.67 0.08 
19.89 3.42 -1.67 0.08 
19.95 3.04 -1.67 0.08 
20.00 2.67 -1.67 0.08 
20.05 2.29 -1.67 0.08 
20.09 1.91 -1.67 0.08 
20.12 1.53 -1.67 0.08 
20.15 1.15 -1.67 0.08 
20.17 0.76 -1.67 0.08 
20.18 0.38 -1.67 0.08 
20.18 0.00 -1.67 0.08 
20.18 -0.38 -1.67 0.08 
20.17 -0.76 -1.67 0.08 
20.16 -1.15 -1.67 0.08 
20.13 -1.53 -1.67 0.08 
20.10 -1.91 -1.67 0.08 
20.06 -2.29 -1.67 0.08 
20.02 -2.67 -1.67 0.08 
19.96 -3.05 -1.67 0.08 
19.90 -3.42 -1.67 0.08 
19.84 -3.80 -1.67 0.08 
19.76 -4.17 -1.67 0.08 
19.68 -4.55 -1.67 0.08 
19.59 -4.92 -1.67 0.08 
19.50 -5.29 -1.67 0.08 
19.40 -5.66 -1.67 0.08 
19.29 -6.03 -1.67 0.08 
19.17 -6.39 -1.67 0.08 
19.05 -6.75 -1.67 0.08 
18.92 -7.11 -1.67 0.08 
18.78 -7.47 -1.67 0.08 
18.64 -7.82 -1.67 0.08 
18.49 -8.18 -1.67 0.08 
18.33 -8.53 -1.67 0.08 
18.17 -8.87 -1.67 0.08 
18.00 -9.22 -1.67 0.08 
17.83 -9.56 -1.67 0.08 
6.01 -3.37 -0.57 0.43 
5.74 -3.36 -0.55 0.41 
5.48 -3.35 -0.53 0.49 
5.26 -3.35 -0.52 0.50 
5.08 -3.38 -0.50 0.64 
4.95 -3.43 -0.50 0.81 
4.90 -3.53 -0.50 0.64 
4.88 -3.66 -0.50 0.62 
4.86 -3.79 -0.51 0.61 
4.84 -3.93 -0.52 0.58 
4.88 -4.11 -0.53 0.37 
13.86 -12.13 -1.52 0.08 
13.63 -12.40 -1.52 0.08 
13.39 -12.65 -1.52 0.08 
13.15 -12.91 -1.52 0.08 
12.91 -13.15 -1.52 0.08 
12.66 -13.40 -1.52 0.08 
12.40 -13.64 -1.52 0.08 
12.14 -13.87 -1.52 0.08 
11.88 -14.10 -1.52 0.08 
6.98 -8.61 -0.92 0.77 
11.34 -14.54 -1.52 0.08 
11.07 -14.76 -1.52 0.08 
10.79 -14.97 -1.53 0.08 
10.50 -15.17 -1.53 0.08 
10.22 -15.37 -1.53 0.08 
9.93 -15.56 -1.53 0.08 
9.63 -15.75 -1.53 0.08 
9.33 -15.93 -1.53 0.08 
9.03 -16.11 -1.53 0.08 
6.20 -11.56 -1.08 0.83 
5.82 -11.37 -1.06 0.69 
6.80 -13.93 -1.28 0.86 
6.76 -14.53 -1.32 0.35 
7.47 -16.90 -1.53 0.08 
7.15 -17.04 -1.53 0.08 
6.83 -17.18 -1.53 0.08 
6.51 -17.30 -1.53 0.08 
6.18 -17.43 -1.53 0.08 
5.85 -17.54 -1.53 0.08 
5.52 -17.65 -1.53 0.08 
5.18 -17.76 -1.53 0.08 
4.84 -17.85 -1.53 0.08 
4.51 -17.95 -1.53 0.08 
4.17 -18.03 -1.53 0.08 
3.83 -18.11 -1.53 0.08 
3.48 -18.18 -1.53 0.08 
3.14 -18.25 -1.53 0.08 
2.79 -18.31 -1.53 0.08 
2.45 -18.36 -1.53 0.08 
2.10 -18.40 -1.53 0.08 
1.75 -18.44 -1.53 0.08 
1.40 -18.47 -1.53 0.08 
1.05 -18.50 -1.53 0.08 
0.70 -18.52 -1.53 0.08 
0.35 -18.53 -1.53 0.08 
-0.00 -18.54 -1.53 0.08 
-0.35 -18.54 -1.53 0.08 
-0.70 -18.53 -1.53 0.08 
-0.71 -12.45 -1.03 0.49 
-1.40 -18.50 -1.53 0.08 
-1.75 -18.47 -1.53 0.08 
-2.10 -18.43 -1.53 0.08 
-2.45 -18.39 -1.53 0.08 
-2.80 -18.35 -1.53 0.08 
-3.15 -18.29 -1.53 0.08 
-3.49 -18.23 -1.53 0.08 
-3.84 -18.17 -1.53 0.08 
-4.18 -18.09 -1.54 0.08 
-4.52 -18.01 -1.54 0.08 
-4.86 -17.93 -1.54 0.08 
-5.20 -17.83 -1.54 0.08 
-5.54 -17.73 -1.54 0.08 
-5.88 -17.63 -1.54 0.08 
-6.21 -17.51 -1.54 0.08 
-6.54 -17.40 -1.54 0.08 
-6.87 -17.27 -1.54 0.08 
-7.19 -17.14 -1.54 0.08 
-7.52 -17.00 -1.54 0.08 
-7.84 -16.86 -1.54 0.08 
-8.16 -16.71 -1.54 0.08 
-8.47 -16.55 -1.54 0.08 
-8.79 -16.39 -1.54 0.08 
-7.10 -12.66 -1.20 0.68 
-9.40 -16.05 -1.54 0.08 
-9.71 -15.87 -1.54 0.08 
-10.01 -15.69 -1.54 0.08 
-10.30 -15.50 -1.54 0.08 
-10.59 -15.30 -1.54 0.08 
-10.88 -15.10 -1.54 0.08 
-11.17 -14.89 -1.54 0.08 
-11.45 -14.68 -1.54 0.08 
-11.72 -14.46 -1.54 0.08 
-12.00 -14.24 -1.54 0.08 
-12.27 -14.01 -1.54 0.08 
-12.53 -13.77 -1.54 0.08 
-12.79 -13.54 -1.54 0.08 
-13.04 -13.29 -1.54 0.08 
-13.29 -13.04 -1.54 0.08 
-13.54 -12.79 -1.54 0.08 
-13.78 -12.53 -1.54 0.08 
-14.01 -12.27 -1.54 0.08 
-14.25 -12.00 -1.54 0.08 
-14.47 -11.73 -1.54 0.08 
-14.69 -11.46 -1.54 0.08 
-14.91 -11.18 -1.54 0.08 
-15.12 -10.89 -1.54 0.08 
-12.77 -8.84 -1.28 0.50 
-15.52 -10.32 -1.54 0.08 
-15.71 -10.02 -1.54 0.08 
-15.90 -9.72 -1.54 0.08 
-16.08 -9.42 -1.54 0.08 
-16.26 -9.11 -1.54 0.08 
-16.43 -8.80 -1.54 0.08 
-16.59 -8.49 -1.54 0.08 
-16.95 -8.28 -1.56 0.38 
-17.84 -8.30 -1.63 0.37 
