VERSION 0.7
FIELDS x y z intensity
SIZE 4 4 4 8
TYPE F F F F
COUNT 1 1 1 1
WIDTH 1891
HEIGHT 1
VIEWPOINT 0.0 0.0 0.0 1.0 0.0 0.0 0.0
POINTS 1891
DATA ascii
20.17 10.32 2.36 0.89 
33.13 4.42 3.49 0.64 
47.17 -9.04 5.01 0.57 
149.06 -40.45 16.12 0.51 
149.21 -43.53 16.22 0.50 
50.34 -26.99 5.96 0.23 
19.79 -21.76 3.07 0.87 
7.63 -8.72 1.21 0.83 
24.42 -38.28 4.74 0.82 
58.21 -108.60 12.86 0.61 
62.56 -128.14 14.88 0.34 
59.43 -127.79 14.71 0.18 
60.96 -145.22 16.44 0.28 
59.06 -148.51 16.68 0.34 
34.00 -102.02 11.22 0.63 
30.75 -122.44 13.18 0.58 
33.61 -145.44 15.58 0.46 
-36.74 -117.59 12.86 0.59 
-37.55 -112.66 12.40 0.56 
-35.74 -95.08 10.60 0.48 
-37.88 -95.25 10.70 0.44 
-34.63 -74.47 8.57 0.28 
-35.70 -73.11 8.49 0.62 
-36.85 -71.99 8.44 0.41 
-39.34 -73.39 8.69 0.62 
-41.57 -74.14 8.87 0.31 
-76.68 -106.38 13.69 0.40 
-78.00 -104.01 13.57 0.55 
-57.33 -73.50 9.73 0.38 
-59.01 -72.77 9.78 0.53 
-60.28 -71.53 9.76 0.49 
-66.51 -75.96 10.54 0.42 
-66.54 -73.15 10.32 0.43 
-69.21 -73.26 10.52 0.55 
-75.85 -77.30 11.30 0.55 
-78.29 -76.83 11.45 0.25 
-123.26 -112.11 17.39 0.34 
-126.48 -110.74 17.55 0.30 
-132.67 -41.45 14.51 0.22 
-150.77 -17.19 15.84 0.50 
-152.71 -14.49 16.01 0.06 
-151.26 -11.47 15.83 0.53 
-135.43 -0.00 13.97 0.36 
-135.48 2.56 13.98 0.47 
-143.66 5.44 14.83 0.37 
-118.18 6.72 12.21 0.42 
-58.63 6.69 6.09 0.42 
-58.87 7.84 6.13 0.75 
-147.15 28.19 15.46 0.19 
-128.35 27.11 13.53 0.55 
-128.20 29.63 13.57 0.24 
-127.37 31.99 13.55 0.49 
-41.03 11.13 4.39 0.80 
-20.48 10.98 2.40 0.54 
-18.50 10.83 2.21 0.57 
-18.00 11.01 2.18 0.87 
-17.78 11.82 2.20 0.66 
-16.74 13.06 2.19 0.19 
-16.66 13.51 2.21 0.10 
-30.79 31.38 4.54 0.20 
-12.22 12.94 1.84 0.29 
-11.90 13.08 1.82 0.91 
-24.62 28.12 3.86 0.80 
-12.74 18.40 2.31 0.43 
-12.67 19.06 2.36 0.79 
-2.66 19.99 2.08 0.33 
0.77 13.52 1.40 0.83 
1.01 13.37 1.38 0.83 
1.28 13.46 1.40 0.77 
7.22 20.36 2.23 0.90 
7.30 19.43 2.14 0.74 
18.65 18.30 2.70 0.81 
20.17 10.32 2.34 0.89 
33.13 4.42 3.45 0.64 
47.17 -9.03 4.95 0.57 
149.06 -40.45 15.93 0.51 
149.21 -43.53 16.04 0.50 
149.35 -46.66 16.14 0.50 
50.45 -27.04 5.91 0.16 
19.79 -21.76 3.03 0.87 
7.63 -8.72 1.20 0.83 
24.42 -38.28 4.68 0.82 
58.21 -108.60 12.71 0.61 
62.46 -127.93 14.69 0.40 
59.16 -127.22 14.48 0.08 
60.85 -144.97 16.22 0.28 
59.04 -148.46 16.48 0.33 
34.00 -102.02 11.09 0.63 
30.74 -122.41 13.02 0.58 
33.60 -145.39 15.40 0.45 
-35.67 -114.17 12.34 0.29 
-16.54 -49.61 5.40 0.81 
-41.14 -116.06 12.70 0.43 
-35.77 -95.15 10.49 0.54 
-37.30 -93.79 10.41 0.65 
-33.43 -75.60 8.53 0.39 
-34.81 -74.86 8.52 0.55 
-35.73 -73.17 8.40 0.62 
-36.62 -71.53 8.29 0.40 
-39.35 -73.40 8.59 0.62 
-41.05 -73.22 8.66 0.24 
-76.77 -106.50 13.55 0.24 
-78.05 -104.07 13.42 0.46 
-57.28 -73.44 9.61 0.65 
-59.04 -72.82 9.67 0.53 
-60.40 -71.67 9.67 0.50 
-66.73 -76.21 10.45 0.19 
-66.69 -73.31 10.22 0.58 
-69.28 -73.33 10.41 0.55 
-75.74 -77.19 11.16 0.37 
-78.13 -76.66 11.29 0.41 
-123.26 -112.11 17.19 0.34 
-126.48 -110.74 17.34 0.30 
-132.89 -41.52 14.36 0.36 
-133.91 -39.07 14.39 0.46 
-150.72 -17.19 15.65 0.50 
-151.59 -14.39 15.71 0.36 
-151.25 -11.47 15.65 0.52 
-135.50 -0.00 13.82 0.36 
-135.55 2.57 13.82 0.43 
-143.83 5.45 14.68 0.26 
-118.28 6.72 12.08 0.59 
-145.69 11.05 14.90 0.53 
-58.93 6.72 6.05 0.77 
-126.93 16.91 13.06 0.52 
-148.75 28.49 15.44 0.26 
-149.01 31.48 15.53 0.38 
-128.49 29.69 13.45 0.39 
-127.26 31.96 13.38 0.52 
-41.03 11.13 4.34 0.80 
-20.48 10.98 2.37 0.54 
-18.49 10.83 2.19 0.57 
-17.99 11.00 2.15 0.87 
-17.78 11.82 2.18 0.66 
-17.01 12.76 2.17 0.24 
-16.66 12.99 2.15 0.23 
-16.51 13.39 2.17 0.20 
-30.79 31.37 4.48 0.20 
-12.22 12.93 1.81 0.29 
-11.90 13.08 1.80 0.91 
-24.64 28.15 3.81 0.20 
-12.73 18.39 2.28 0.77 
-12.67 19.06 2.33 0.79 
0.77 13.52 1.38 0.83 
1.01 13.37 1.37 0.83 
1.28 13.46 1.38 0.77 
7.22 20.36 2.20 0.90 
7.31 19.44 2.12 0.74 
18.63 18.28 2.66 0.77 
20.17 10.32 2.31 0.89 
33.13 4.41 3.41 0.64 
47.17 -9.03 4.90 0.57 
149.06 -40.45 15.75 0.51 
149.21 -43.53 15.85 0.50 
149.35 -46.66 15.95 0.50 
149.50 -49.83 16.07 0.49 
149.65 -53.05 16.19 0.49 
19.79 -21.76 3.00 0.87 
7.63 -8.72 1.18 0.83 
24.42 -38.28 4.63 0.82 
58.21 -108.60 12.56 0.61 
62.63 -128.28 14.56 0.55 
59.06 -127.01 14.28 0.30 
57.61 -130.27 14.52 0.48 
60.78 -144.78 16.01 0.28 
59.01 -148.37 16.28 0.33 
34.01 -102.02 10.97 0.63 
39.02 -143.80 15.19 0.16 
30.72 -122.33 12.86 0.48 
33.58 -145.29 15.21 0.42 
-35.33 -113.09 12.08 0.27 
-16.54 -49.61 5.33 0.81 
-41.17 -116.15 12.57 0.38 
-35.80 -95.22 10.37 0.55 
-37.28 -93.74 10.29 0.55 
-33.72 -76.26 8.50 0.62 
-34.84 -74.93 8.43 0.55 
-35.69 -73.10 8.29 0.68 
-36.68 -71.65 8.21 0.21 
-39.36 -73.44 8.50 0.54 
-41.11 -73.33 8.57 0.23 
-75.80 -118.85 14.37 0.06 
-77.23 -107.15 13.47 0.19 
-78.12 -104.17 13.28 0.46 
-57.28 -73.44 9.50 0.65 
-58.66 -72.35 9.50 0.61 
-60.53 -71.83 9.58 0.59 
-66.75 -76.24 10.33 0.18 
-66.65 -73.27 10.10 0.66 
-69.34 -73.40 10.30 0.57 
-75.75 -77.20 11.03 0.62 
-78.24 -76.77 11.18 0.41 
-123.26 -112.11 16.99 0.34 
-126.48 -110.74 17.14 0.30 
-133.07 -41.57 14.21 0.36 
-134.04 -39.11 14.24 0.46 
-150.67 -17.18 15.46 0.54 
-150.45 -14.28 15.41 0.11 
-151.24 -11.47 15.46 0.52 
-135.57 -0.00 13.66 0.36 
-135.62 2.57 13.67 0.43 
-144.00 5.45 14.52 0.12 
-118.25 6.72 11.93 0.59 
-145.62 11.04 14.71 0.45 
-143.97 13.66 14.57 0.32 
-125.21 14.28 12.70 0.31 
-127.35 16.97 12.94 0.36 
-171.45 29.49 17.53 0.25 
-148.99 28.54 15.28 0.26 
-145.68 30.77 15.00 0.42 
-128.49 29.69 13.29 0.39 
-127.20 31.94 13.21 0.52 
-41.03 11.13 4.28 0.80 
-20.48 10.98 2.34 0.54 
-18.49 10.83 2.16 0.58 
-17.78 11.82 2.15 0.66 
-16.94 12.71 2.13 0.24 
-16.59 12.94 2.12 0.26 
-16.43 13.32 2.13 0.20 
-30.79 31.38 4.43 0.20 
-12.22 12.93 1.79 0.29 
-11.90 13.08 1.78 0.91 
-12.88 18.60 2.28 0.18 
-12.67 19.06 2.31 0.79 
0.77 13.51 1.36 0.83 
1.01 13.37 1.35 0.83 
1.28 13.46 1.36 0.77 
7.22 20.36 2.18 0.91 
7.31 19.44 2.09 0.74 
18.63 18.28 2.63 0.85 
20.17 10.32 2.28 0.89 
33.13 4.41 3.37 0.64 
47.16 -9.03 4.84 0.57 
149.06 -40.45 15.56 0.51 
149.21 -43.53 15.66 0.50 
149.35 -46.66 15.77 0.50 
149.50 -49.83 15.88 0.49 
149.65 -53.05 16.00 0.49 
149.81 -56.32 16.12 0.48 
19.79 -21.76 2.96 0.87 
7.63 -8.72 1.17 0.83 
24.41 -38.28 4.57 0.82 
58.22 -108.61 12.42 0.61 
62.64 -128.30 14.39 0.55 
58.99 -126.86 14.10 0.30 
56.75 -128.34 14.14 0.46 
60.75 -144.71 15.81 0.30 
58.76 -147.75 16.02 0.28 
34.01 -102.03 10.84 0.63 
38.92 -143.42 14.97 0.16 
36.87 -146.84 15.25 0.49 
33.55 -145.19 15.01 0.43 
-35.38 -113.24 11.95 0.51 
-16.54 -49.61 5.27 0.81 
-35.80 -95.22 10.25 0.64 
-37.29 -93.76 10.17 0.55 
-33.63 -76.05 8.38 0.56 
-34.49 -74.17 8.24 0.31 
-35.70 -73.13 8.20 0.68 
-36.93 -72.14 8.17 0.32 
-38.20 -71.26 8.15 0.64 
-41.18 -73.46 8.49 0.16 
-75.84 -118.91 14.21 0.46 
-89.34 -129.03 15.81 0.31 
-90.66 -125.78 15.62 0.30 
-78.16 -104.23 13.13 0.56 
-57.29 -73.45 9.39 0.66 
-58.71 -72.40 9.39 0.62 
-60.60 -71.91 9.48 0.46 
-66.37 -75.81 10.15 0.44 
-66.65 -73.28 9.98 0.66 
-69.42 -73.48 10.19 0.50 
-75.78 -77.23 10.90 0.59 
-78.42 -76.95 11.07 0.27 
-123.26 -112.11 16.79 0.34 
-126.48 -110.74 16.94 0.30 
-133.24 -41.63 14.06 0.36 
-134.18 -39.15 14.08 0.36 
-149.83 -14.22 15.16 0.10 
-151.22 -11.47 15.28 0.52 
-135.80 -0.00 13.52 0.52 
-143.62 5.44 14.31 0.12 
-118.22 6.72 11.79 0.59 
-145.51 11.04 14.53 0.45 
-144.28 13.69 14.43 0.42 
-125.43 14.30 12.57 0.43 
-171.18 29.44 17.29 0.34 
-147.98 28.34 15.00 0.25 
-145.62 30.76 14.82 0.41 
-128.48 29.69 13.13 0.39 
-41.03 11.13 4.23 0.80 
-20.48 10.98 2.31 0.54 
-18.48 10.83 2.13 0.58 
-17.78 11.82 2.13 0.66 
-16.87 12.65 2.10 0.24 
-16.52 12.89 2.09 0.26 
-16.35 13.26 2.10 0.32 
-30.79 31.38 4.38 0.20 
-12.21 12.93 1.77 0.29 
-11.89 13.08 1.76 0.91 
-12.67 19.06 2.28 0.79 
0.77 13.51 1.35 0.83 
1.01 13.36 1.33 0.83 
1.28 13.46 1.35 0.77 
7.22 20.36 2.15 0.90 
7.32 19.47 2.07 0.56 
18.64 18.29 2.60 0.85 
20.17 10.32 2.26 0.89 
33.13 4.41 3.33 0.64 
47.16 -9.03 4.78 0.57 
149.06 -40.45 15.38 0.51 
149.21 -43.53 15.47 0.50 
149.35 -46.66 15.58 0.50 
149.50 -49.83 15.69 0.49 
149.65 -53.05 15.81 0.49 
149.81 -56.32 15.93 0.48 
149.96 -59.64 16.07 0.47 
150.12 -63.02 16.21 0.47 
19.79 -21.75 2.93 0.87 
7.63 -8.72 1.15 0.83 
24.41 -38.28 4.52 0.82 
58.22 -108.61 12.27 0.61 
58.92 -126.71 13.91 0.30 
56.72 -128.26 13.96 0.42 
62.07 -147.87 15.96 0.43 
58.74 -147.70 15.82 0.35 
34.01 -102.03 10.71 0.63 
39.04 -143.88 14.84 0.38 
36.87 -146.84 15.07 0.49 
38.79 -167.86 17.15 0.26 
-35.47 -113.55 11.84 0.10 
-16.54 -49.61 5.21 0.81 
-34.17 -96.39 10.18 0.63 
-35.85 -95.36 10.14 0.55 
-37.31 -93.81 10.05 0.58 
-33.35 -75.42 8.21 0.47 
-34.97 -75.19 8.26 0.47 
-35.72 -73.15 8.10 0.68 
-37.04 -72.35 8.09 0.13 
-38.21 -71.29 8.05 0.47 
-41.31 -73.68 8.41 0.50 
-75.84 -118.91 14.04 0.46 
-89.41 -129.14 15.64 0.31 
-75.27 -104.43 12.81 0.33 
-77.58 -103.44 12.87 0.48 
-57.30 -73.47 9.28 0.66 
-58.77 -72.49 9.29 0.44 
-60.43 -71.71 9.33 0.52 
-66.45 -75.90 10.04 0.46 
-66.71 -73.34 9.87 0.52 
-69.43 -73.49 10.06 0.50 
-74.14 -75.56 10.54 0.51 
-79.11 -77.63 11.03 0.30 
-123.26 -112.11 16.59 0.34 
-126.48 -110.74 16.74 0.30 
-133.30 -41.64 13.90 0.53 
-163.62 -28.14 16.53 0.22 
-151.78 -14.41 15.18 0.51 
-135.81 -0.00 13.36 0.52 
-143.35 5.43 14.11 0.26 
-118.19 6.72 11.64 0.59 
-144.26 13.69 14.25 0.38 
-125.57 14.32 12.43 0.43 
-127.67 17.01 12.67 0.23 
-188.85 28.81 18.79 0.25 
-147.71 28.29 14.79 0.25 
-145.56 30.75 14.63 0.41 
-128.48 29.69 12.97 0.39 
-41.03 11.13 4.18 0.80 
-20.48 10.98 2.29 0.54 
-18.45 10.81 2.10 0.59 
-17.78 11.82 2.10 0.66 
-16.81 12.60 2.07 0.24 
-16.46 12.84 2.05 0.26 
-16.30 13.22 2.06 0.32 
-30.79 31.38 4.32 0.17 
-12.21 12.92 1.75 0.29 
-11.89 13.08 1.74 0.91 
-12.67 19.06 2.25 0.79 
-12.52 19.63 2.29 0.19 
0.77 13.51 1.33 0.83 
1.01 13.36 1.32 0.83 
1.28 13.46 1.33 0.77 
7.22 20.36 2.12 0.89 
7.33 19.50 2.05 0.56 
18.63 18.28 2.57 0.85 
20.17 10.32 2.23 0.89 
33.13 4.41 3.29 0.64 
47.16 -9.03 4.72 0.57 
158.46 -39.79 16.07 0.15 
149.06 -40.45 15.19 0.51 
149.21 -43.53 15.28 0.50 
149.35 -46.66 15.39 0.50 
149.50 -49.83 15.50 0.49 
149.65 -53.05 15.61 0.49 
149.80 -56.32 15.74 0.48 
149.96 -59.64 15.87 0.47 
150.12 -63.02 16.01 0.47 
150.28 -66.46 16.16 0.46 
19.79 -21.75 2.89 0.87 
7.63 -8.72 1.14 0.83 
24.41 -38.27 4.46 0.82 
58.22 -108.61 12.12 0.61 
58.85 -126.56 13.73 0.30 
56.70 -128.21 13.79 0.42 
62.03 -147.77 15.76 0.43 
58.74 -147.71 15.63 0.29 
61.45 -173.35 18.09 0.14 
34.01 -102.03 10.58 0.63 
33.39 -123.07 12.54 0.59 
30.76 -122.51 12.42 0.58 
33.37 -144.39 14.57 0.24 
35.62 -168.64 16.95 0.26 
-35.60 -113.94 11.74 0.56 
-16.54 -49.61 5.14 0.81 
-34.18 -96.42 10.06 0.61 
-36.38 -96.77 10.17 0.50 
-37.94 -95.40 10.10 0.63 
-39.59 -94.31 10.06 0.23 
-33.38 -75.49 8.12 0.46 
-35.03 -75.33 8.17 0.64 
-35.74 -73.21 8.01 0.29 
-37.68 -73.62 8.13 0.49 
-38.21 -71.28 7.95 0.39 
-41.34 -73.74 8.31 0.50 
-74.56 -116.90 13.64 0.06 
-87.36 -126.17 15.09 0.27 
-75.06 -104.14 12.62 0.40 
-77.62 -103.50 12.72 0.48 
-57.37 -73.56 9.17 0.47 
-58.53 -72.18 9.14 0.65 
-59.77 -70.93 9.12 0.62 
-66.61 -76.08 9.94 0.14 
-66.57 -73.19 9.73 0.54 
-70.10 -74.20 10.04 0.50 
-74.22 -75.64 10.42 0.51 
-79.31 -77.82 10.93 0.22 
-94.46 -85.92 12.56 0.28 
-126.48 -110.74 16.53 0.30 
-104.50 -72.36 12.50 0.54 
-133.35 -41.66 13.74 0.53 
-164.18 -28.24 16.38 0.37 
-151.80 -14.41 14.99 0.49 
-148.72 -11.28 14.67 0.31 
-135.81 -0.00 13.19 0.52 
-145.21 5.50 14.12 0.52 
-118.16 6.72 11.50 0.59 
-146.15 13.87 14.26 0.44 
-125.71 14.34 12.29 0.43 
-128.78 17.16 12.62 0.23 
-58.91 8.99 5.79 0.65 
-147.45 28.24 14.58 0.25 
-147.69 31.20 14.66 0.53 
-128.48 29.69 12.81 0.39 
-41.04 11.13 4.13 0.80 
-20.48 10.98 2.26 0.54 
-18.45 10.81 2.08 0.59 
-17.78 11.82 2.07 0.66 
-16.74 12.55 2.03 0.24 
-16.41 12.80 2.02 0.38 
-16.25 13.18 2.03 0.32 
-16.41 13.83 2.08 0.16 
-30.79 31.37 4.27 0.17 
-12.21 12.92 1.73 0.29 
-11.89 13.08 1.72 0.91 
-12.67 19.06 2.22 0.79 
-12.56 19.70 2.27 0.09 
0.77 13.51 1.31 0.83 
1.01 13.36 1.30 0.83 
1.28 13.46 1.31 0.77 
7.22 20.37 2.10 0.89 
18.63 18.28 2.54 0.85 
20.17 10.32 2.20 0.89 
33.13 4.41 3.25 0.64 
47.16 -9.03 4.66 0.57 
158.46 -39.79 15.87 0.15 
149.06 -40.45 15.00 0.51 
149.21 -43.53 15.10 0.50 
149.35 -46.66 15.20 0.50 
149.50 -49.83 15.31 0.49 
149.65 -53.05 15.42 0.49 
149.80 -56.31 15.55 0.48 
149.96 -59.64 15.68 0.47 
150.12 -63.01 15.81 0.47 
150.28 -66.46 15.96 0.46 
150.44 -69.96 16.12 0.45 
19.78 -21.75 2.86 0.87 
7.63 -8.72 1.13 0.83 
24.41 -38.27 4.41 0.82 
58.22 -108.61 11.97 0.61 
58.78 -126.41 13.54 0.30 
56.66 -128.14 13.61 0.43 
62.00 -147.69 15.56 0.44 
58.74 -147.70 15.44 0.29 
61.23 -172.73 17.80 0.38 
34.01 -102.03 10.45 0.63 
33.40 -123.11 12.39 0.59 
30.71 -122.30 12.25 0.30 
35.57 -168.40 16.72 0.26 
-35.61 -113.99 11.60 0.56 
-16.54 -49.61 5.08 0.81 
-41.53 -117.15 12.07 0.50 
-36.01 -95.80 9.94 0.54 
-37.41 -94.06 9.83 0.51 
-33.44 -75.62 8.03 0.35 
-34.17 -73.49 7.87 0.28 
-35.82 -73.37 7.93 0.26 
-38.23 -74.69 8.15 0.41 
-38.44 -71.71 7.90 0.47 
-40.35 -71.96 8.01 0.63 
-75.54 -118.44 13.64 0.46 
-89.14 -128.74 15.21 0.05 
-76.03 -105.49 12.63 0.07 
-57.01 -76.02 9.23 0.22 
-57.50 -73.73 9.08 0.53 
-58.92 -72.67 9.09 0.48 
-59.80 -70.96 9.01 0.62 
-65.84 -75.20 9.71 0.21 
-66.65 -73.27 9.62 0.40 
-73.80 -78.11 10.44 0.53 
-74.18 -75.60 10.29 0.53 
-79.88 -78.38 10.87 0.47 
-123.26 -112.11 16.18 0.34 
-93.75 -82.09 12.10 0.30 
-104.56 -72.40 12.35 0.46 
-113.83 -75.67 13.28 0.05 
-133.40 -41.67 13.57 0.53 
-135.66 -39.58 13.73 0.29 
-63.37 -7.23 6.20 0.18 
-151.68 -14.40 14.80 0.20 
-149.55 -11.34 14.57 0.20 
-135.82 -0.00 13.03 0.52 
-144.23 5.46 13.85 0.29 
-118.12 6.71 11.35 0.59 
-148.26 11.24 14.26 0.31 
-146.04 13.86 14.07 0.44 
-125.84 14.35 12.15 0.43 
-126.19 16.82 12.21 0.28 
-170.20 25.97 16.52 0.36 
-170.44 29.32 16.59 0.08 
-147.20 28.19 14.38 0.25 
-147.69 31.20 14.48 0.53 
-128.47 29.69 12.65 0.39 
-41.04 11.13 4.08 0.80 
-20.48 10.98 2.23 0.54 
-18.45 10.81 2.05 0.59 
-17.78 11.82 2.05 0.66 
-16.69 12.52 2.00 0.43 
-16.37 12.77 1.99 0.38 
-16.20 13.14 2.00 0.32 
-16.31 13.75 2.05 0.16 
-30.78 31.37 4.22 0.17 
-12.21 12.92 1.70 0.29 
-11.89 13.07 1.70 0.91 
-12.67 19.06 2.20 0.79 
0.77 13.51 1.30 0.83 
1.01 13.36 1.29 0.83 
1.28 13.46 1.30 0.77 
7.23 20.39 2.07 0.72 
18.63 18.28 2.50 0.85 
20.17 10.32 2.17 0.89 
33.13 4.41 3.21 0.64 
47.15 -9.03 4.61 0.57 
158.46 -39.79 15.67 0.15 
149.06 -40.44 14.82 0.51 
149.21 -43.53 14.91 0.50 
149.35 -46.66 15.01 0.50 
149.50 -49.83 15.12 0.49 
149.65 -53.05 15.23 0.49 
149.80 -56.31 15.35 0.48 
149.96 -59.64 15.48 0.47 
150.12 -63.01 15.62 0.47 
150.28 -66.46 15.76 0.46 
150.44 -69.96 15.92 0.45 
150.61 -73.54 16.08 0.45 
19.78 -21.75 2.82 0.87 
7.63 -8.72 1.11 0.83 
24.41 -38.27 4.35 0.82 
58.22 -108.62 11.82 0.61 
60.11 -129.26 13.67 0.56 
56.61 -128.03 13.43 0.40 
61.96 -147.61 15.36 0.45 
58.73 -147.68 15.25 0.29 
60.47 -170.60 17.36 0.02 
34.01 -102.04 10.32 0.63 
33.41 -123.15 12.24 0.59 
36.88 -146.85 14.52 0.49 
38.22 -165.40 16.28 0.25 
35.53 -168.20 16.49 0.45 
-35.68 -114.20 11.48 0.61 
-16.54 -49.61 5.02 0.81 
-41.54 -117.20 11.93 0.50 
-35.69 -94.93 9.73 0.48 
-37.42 -94.08 9.71 0.48 
-33.56 -75.88 7.96 0.25 
-34.19 -73.53 7.78 0.28 
-35.96 -73.65 7.86 0.43 
-38.30 -74.82 8.06 0.43 
-39.09 -72.93 7.94 0.36 
-40.37 -72.01 7.92 0.63 
-76.08 -105.55 12.48 0.27 
-56.97 -75.96 9.11 0.38 
-57.92 -74.26 9.03 0.39 
-58.37 -71.98 8.89 0.45 
-59.83 -71.00 8.91 0.62 
-78.65 -89.82 11.45 0.38 
-66.77 -73.41 9.52 0.46 
-73.87 -78.18 10.32 0.61 
-74.25 -75.67 10.17 0.53 
-80.85 -79.33 10.87 0.13 
-123.26 -112.11 15.98 0.34 
-126.48 -110.74 16.13 0.30 
-103.10 -74.31 12.19 0.59 
-133.45 -41.69 13.41 0.53 
-135.49 -39.53 13.54 0.37 
-162.35 -31.10 15.86 0.31 
-63.43 -8.45 6.14 0.68 
-63.32 -7.22 6.11 0.43 
-151.51 -14.38 14.60 0.46 
-149.65 -11.35 14.40 0.25 
-135.83 -0.00 12.87 0.52 
-144.00 5.45 13.65 0.29 
-118.09 6.71 11.20 0.59 
-145.93 13.85 13.88 0.44 
-40.77 4.65 3.89 0.83 
-125.06 16.67 11.95 0.33 
-170.08 25.95 16.30 0.36 
-170.37 29.30 16.38 0.39 
-148.06 28.36 14.28 0.20 
-147.68 31.20 14.30 0.53 
-128.47 29.69 12.49 0.39 
-41.04 11.13 4.03 0.80 
-20.48 10.98 2.20 0.54 
-18.45 10.81 2.03 0.59 
-17.78 11.82 2.02 0.66 
-16.66 12.49 1.97 0.43 
-16.33 12.74 1.96 0.38 
-16.16 13.10 1.97 0.39 
-16.22 13.66 2.01 0.16 
-30.78 31.37 4.16 0.17 
-12.20 12.92 1.68 0.29 
-11.89 13.07 1.67 0.91 
-12.67 19.06 2.17 0.79 
0.77 13.51 1.28 0.83 
1.01 13.36 1.27 0.84 
1.28 13.46 1.28 0.77 
7.23 20.41 2.05 0.72 
18.62 18.27 2.47 0.79 
20.17 10.32 2.15 0.89 
33.13 4.41 3.17 0.64 
47.15 -9.03 4.55 0.57 
158.46 -39.79 15.48 0.15 
149.06 -40.44 14.63 0.51 
149.20 -43.53 14.72 0.50 
149.35 -46.66 14.82 0.50 
149.50 -49.83 14.93 0.49 
149.65 -53.05 15.04 0.49 
149.80 -56.31 15.16 0.48 
149.96 -59.64 15.29 0.47 
150.12 -63.01 15.42 0.47 
150.28 -66.45 15.56 0.46 
150.44 -69.96 15.72 0.45 
150.61 -73.54 15.88 0.45 
150.78 -77.19 16.04 0.44 
150.96 -80.92 16.22 0.43 
19.78 -21.75 2.78 0.87 
7.63 -8.72 1.10 0.83 
24.41 -38.27 4.30 0.82 
58.22 -108.62 11.67 0.61 
60.11 -129.26 13.50 0.56 
58.34 -131.92 13.66 0.33 
62.62 -149.18 15.32 0.50 
61.02 -172.15 17.30 0.22 
34.01 -102.04 10.19 0.63 
33.43 -123.19 12.09 0.59 
36.96 -147.20 14.38 0.15 
38.38 -166.07 16.14 0.38 
34.66 -164.10 15.89 0.08 
-32.05 -118.14 11.59 0.58 
-35.59 -113.93 11.31 0.56 
-16.54 -49.61 4.95 0.81 
-34.32 -96.82 9.73 0.26 
-35.72 -95.03 9.62 0.59 
-37.44 -94.16 9.60 0.40 
-33.60 -75.98 7.87 0.24 
-34.22 -73.59 7.69 0.15 
-36.06 -73.86 7.79 0.69 
-38.49 -75.19 8.00 0.57 
-39.14 -73.01 7.85 0.09 
-40.40 -72.06 7.83 0.63 
-87.53 -126.42 14.56 0.36 
-76.91 -106.71 12.46 0.51 
-56.82 -75.77 8.97 0.22 
-58.03 -74.40 8.94 0.67 
-58.49 -72.13 8.80 0.23 
-59.87 -71.05 8.80 0.58 
-67.36 -76.93 9.69 0.65 
-66.88 -73.52 9.41 0.52 
-73.72 -78.03 10.17 0.49 
-74.38 -75.80 10.06 0.15 
-91.34 -83.09 11.70 0.57 
-126.48 -110.74 15.92 0.30 
-103.12 -74.33 12.04 0.51 
-104.60 -72.42 12.05 0.58 
-133.49 -41.71 13.25 0.53 
-135.33 -39.49 13.35 0.53 
-162.42 -31.11 15.66 0.31 
-63.43 -7.23 6.05 0.45 
-151.52 -14.38 14.42 0.46 
-150.30 -11.40 14.28 0.50 
-135.83 -0.00 12.70 0.52 
-143.76 5.44 13.45 0.29 
-118.83 6.75 11.13 0.61 
-145.87 13.84 13.70 0.52 
-40.77 4.65 3.84 0.83 
-125.23 16.69 11.81 0.37 
-169.96 25.93 16.08 0.36 
-167.72 28.85 15.92 0.18 
-147.88 28.33 14.08 0.21 
-128.46 29.69 12.33 0.39 
-41.04 11.13 3.98 0.80 
-20.48 10.98 2.17 0.54 
-18.45 10.81 2.00 0.59 
-17.78 11.82 2.00 0.66 
-16.62 12.47 1.94 0.43 
-16.30 12.71 1.93 0.49 
-16.12 13.07 1.94 0.39 
-16.12 13.58 1.97 0.16 
-30.79 31.37 4.11 0.18 
-12.20 12.91 1.66 0.29 
-11.89 13.07 1.65 0.91 
-12.67 19.06 2.14 0.79 
0.77 13.51 1.27 0.83 
1.01 13.36 1.25 0.84 
1.28 13.46 1.26 0.77 
7.25 20.46 2.03 0.22 
18.61 18.26 2.44 0.80 
20.17 10.32 2.12 0.89 
33.13 4.41 3.13 0.64 
47.15 -9.03 4.49 0.58 
158.46 -39.79 15.28 0.15 
149.06 -40.44 14.44 0.51 
149.20 -43.53 14.53 0.50 
149.35 -46.66 14.63 0.50 
149.50 -49.83 14.74 0.49 
149.65 -53.05 14.85 0.49 
149.80 -56.31 14.97 0.48 
149.96 -59.64 15.09 0.47 
150.12 -63.01 15.22 0.47 
150.28 -66.45 15.37 0.46 
150.44 -69.96 15.52 0.45 
150.61 -73.54 15.67 0.45 
150.78 -77.19 15.84 0.44 
150.96 -80.92 16.02 0.43 
151.14 -84.73 16.20 0.42 
19.78 -21.75 2.75 0.87 
7.63 -8.72 1.08 0.83 
24.40 -38.26 4.24 0.82 
58.23 -108.62 11.53 0.61 
60.11 -129.26 13.33 0.56 
56.35 -127.42 13.03 0.25 
62.62 -149.18 15.13 0.37 
34.01 -102.04 10.06 0.63 
33.44 -123.23 11.94 0.59 
36.97 -147.21 14.19 0.15 
37.92 -164.10 15.75 0.16 
34.85 -164.96 15.77 0.21 
-32.07 -118.21 11.45 0.53 
-34.09 -116.85 11.38 0.56 
-35.60 -113.95 11.16 0.13 
-16.54 -49.61 4.89 0.81 
-34.35 -96.90 9.61 0.31 
-35.56 -94.59 9.45 0.54 
-37.76 -94.95 9.56 0.54 
-33.96 -76.80 7.85 0.61 
-34.29 -73.75 7.61 0.15 
-35.96 -73.64 7.66 0.67 
-38.67 -75.53 7.94 0.42 
-38.89 -72.55 7.70 0.50 
-40.55 -72.33 7.75 0.48 
-73.39 -125.29 13.58 0.47 
-87.54 -126.42 14.38 0.41 
-74.71 -103.65 11.95 0.59 
-56.18 -74.91 8.76 0.29 
-58.04 -74.42 8.83 0.66 
-58.69 -72.38 8.71 0.40 
-60.97 -72.35 8.85 0.27 
-77.21 -88.18 10.96 0.48 
-66.92 -73.58 9.30 0.53 
-68.80 -72.82 9.37 0.60 
-74.52 -75.95 9.95 0.33 
-79.14 -77.65 10.37 0.53 
-91.45 -83.18 11.56 0.53 
-94.27 -82.54 11.72 0.37 
-103.21 -74.39 11.90 0.36 
-104.61 -72.43 11.90 0.58 
-133.54 -41.72 13.08 0.53 
-135.29 -39.47 13.18 0.53 
-162.55 -31.13 15.48 0.21 
-150.67 -14.30 14.15 0.12 
-150.25 -11.40 14.09 0.50 
-143.54 5.44 13.26 0.30 
-118.57 6.74 10.96 0.57 
-40.77 4.65 3.79 0.83 
-189.11 25.20 17.61 0.39 
-169.49 25.86 15.83 0.36 
-167.71 28.84 15.71 0.34 
-147.69 28.29 13.88 0.20 
-128.46 29.69 12.17 0.39 
-41.04 11.13 3.92 0.80 
-20.48 10.98 2.15 0.54 
-18.45 10.81 1.97 0.59 
-17.78 11.82 1.97 0.66 
-16.59 12.44 1.91 0.47 
-16.27 12.69 1.90 0.49 
-16.08 13.04 1.91 0.39 
-16.05 13.52 1.94 0.41 
-30.80 31.39 4.06 0.14 
-12.20 12.91 1.64 0.29 
-11.89 13.07 1.63 0.91 
-12.67 19.06 2.11 0.79 
0.77 13.51 1.25 0.83 
1.01 13.36 1.24 0.84 
1.28 13.46 1.25 0.77 
18.60 18.25 2.41 0.80 
20.17 10.32 2.09 0.89 
33.13 4.41 3.08 0.64 
47.14 -9.03 4.43 0.58 
158.46 -39.79 15.08 0.15 
149.06 -40.44 14.26 0.51 
149.20 -43.53 14.35 0.50 
149.35 -46.66 14.44 0.50 
149.50 -49.83 14.55 0.49 
149.65 -53.05 14.66 0.49 
149.80 -56.31 14.77 0.48 
149.96 -59.64 14.90 0.47 
150.12 -63.01 15.03 0.47 
150.28 -66.45 15.17 0.46 
150.44 -69.96 15.32 0.45 
150.61 -73.54 15.47 0.45 
52.80 -27.03 5.48 0.51 
150.96 -80.92 15.81 0.43 
151.14 -84.73 15.99 0.42 
151.32 -88.64 16.19 0.41 
19.78 -21.75 2.71 0.87 
7.63 -8.72 1.07 0.83 
24.40 -38.26 4.19 0.82 
58.23 -108.63 11.38 0.61 
60.11 -129.26 13.16 0.55 
58.42 -132.10 13.33 0.33 
62.59 -149.10 14.93 0.37 
64.27 -170.95 16.86 0.33 
34.01 -102.04 9.93 0.63 
33.45 -123.27 11.79 0.59 
36.97 -147.23 14.01 0.15 
38.43 -166.28 15.75 0.49 
34.91 -165.25 15.59 0.33 
-32.10 -118.30 11.32 0.53 
-33.69 -115.46 11.10 0.26 
-35.69 -114.25 11.05 0.61 
-16.54 -49.61 4.83 0.81 
-40.50 -114.27 11.19 0.53 
-35.55 -94.56 9.33 0.10 
-37.30 -93.81 9.32 0.63 
-39.69 -94.56 9.47 0.42 
-33.97 -76.83 7.75 0.61 
-34.63 -74.47 7.58 0.36 
-35.98 -73.68 7.57 0.67 
-37.11 -72.49 7.52 0.59 
-38.93 -72.63 7.61 0.50 
-42.62 -76.02 8.04 0.52 
-73.46 -125.41 13.42 0.50 
-87.84 -143.65 15.54 0.51 
-87.81 -126.81 14.24 0.35 
-74.73 -103.67 11.80 0.59 
-55.80 -74.41 8.59 0.57 
-57.77 -74.07 8.67 0.52 
-57.53 -70.95 8.43 0.53 
-60.10 -71.32 8.61 0.59 
-64.74 -73.94 9.07 0.41 
-66.86 -73.50 9.17 0.39 
-68.85 -72.87 9.25 0.51 
-74.68 -76.11 9.84 0.58 
-75.97 -74.55 9.82 0.53 
-91.52 -83.25 11.42 0.53 
-93.80 -82.13 11.51 0.49 
-103.36 -74.50 11.76 0.60 
-104.64 -72.45 11.75 0.56 
-134.05 -41.88 12.96 0.47 
-184.75 -39.03 17.43 0.29 
-164.80 -31.57 15.49 0.23 
-161.82 -27.83 15.16 0.32 
-150.12 -14.25 13.92 0.11 
-150.31 -11.40 13.91 0.44 
-143.32 5.43 13.07 0.30 
-118.53 6.74 10.82 0.57 
-145.07 13.77 13.28 0.40 
-40.77 4.65 3.74 0.83 
-130.89 17.44 12.03 0.24 
-169.24 25.82 15.60 0.30 
-148.72 25.58 13.75 0.51 
-148.90 28.52 13.81 0.32 
-128.46 29.69 12.01 0.39 
-41.04 11.13 3.87 0.80 
-20.48 10.98 2.12 0.54 
-18.45 10.81 1.95 0.59 
-19.02 12.13 2.06 0.40 
-17.78 11.82 1.95 0.66 
-16.56 12.42 1.89 0.47 
-16.24 12.67 1.88 0.50 
-16.04 13.01 1.88 0.39 
-16.01 13.49 1.91 0.41 
-30.80 31.39 4.01 0.14 
-12.19 12.91 1.62 0.29 
-11.89 13.07 1.61 0.91 
-12.67 19.06 2.09 0.79 
0.77 13.51 1.23 0.83 
1.01 13.36 1.22 0.84 
1.28 13.45 1.23 0.77 
18.58 18.24 2.37 0.62 
20.17 10.33 2.06 0.89 
33.13 4.41 3.04 0.64 
47.14 -9.03 4.37 0.58 
158.46 -39.79 14.88 0.15 
149.06 -40.44 14.07 0.51 
149.20 -43.53 14.16 0.50 
149.35 -46.66 14.25 0.50 
149.50 -49.83 14.36 0.49 
149.65 -53.05 14.46 0.49 
149.80 -56.31 14.58 0.48 
149.96 -59.64 14.70 0.47 
150.12 -63.01 14.83 0.47 
150.28 -66.45 14.97 0.46 
150.44 -69.96 15.12 0.45 
150.61 -73.54 15.27 0.45 
150.78 -77.19 15.43 0.44 
150.96 -80.92 15.60 0.43 
151.14 -84.73 15.79 0.42 
151.32 -88.64 15.98 0.41 
151.51 -92.65 16.18 0.40 
19.78 -21.74 2.68 0.87 
7.63 -8.72 1.06 0.83 
24.40 -38.26 4.13 0.82 
58.23 -108.63 11.23 0.61 
60.11 -129.25 12.99 0.55 
62.55 -149.01 14.72 0.37 
64.38 -171.27 16.67 0.47 
61.21 -172.67 16.69 0.29 
34.01 -102.05 9.80 0.63 
39.21 -144.52 13.64 0.50 
36.98 -147.24 13.83 0.15 
37.92 -164.11 15.34 0.31 
35.24 -166.82 15.53 0.27 
-35.77 -114.51 10.93 0.25 
-16.54 -49.61 4.76 0.81 
-34.34 -96.89 9.37 0.40 
-35.90 -95.49 9.29 0.41 
-37.32 -93.84 9.20 0.62 
-33.43 -79.64 7.87 0.48 
-33.99 -76.85 7.66 0.54 
-34.70 -74.63 7.50 0.36 
-36.03 -73.80 7.48 0.62 
-37.14 -72.54 7.42 0.59 
-38.98 -72.71 7.52 0.49 
-42.93 -76.58 8.00 0.54 
-73.48 -125.43 13.24 0.54 
-87.93 -143.80 15.36 0.41 
-90.28 -141.54 15.29 0.50 
-87.69 -126.65 14.03 0.46 
-74.76 -103.72 11.65 0.55 
-55.95 -74.61 8.50 0.10 
-56.90 -72.95 8.43 0.45 
-57.68 -71.14 8.34 0.68 
-60.12 -71.34 8.50 0.59 
-65.21 -74.48 9.02 0.42 
-67.02 -73.68 9.07 0.61 
-68.09 -72.06 9.03 0.54 
-74.77 -76.20 9.73 0.44 
-76.05 -74.62 9.71 0.21 
-93.96 -85.46 11.57 0.49 
-126.48 -110.74 15.32 0.30 
-103.40 -74.53 11.61 0.57 
-104.67 -72.48 11.60 0.56 
-133.97 -41.86 12.79 0.47 
-134.79 -39.33 12.79 0.43 
-184.75 -39.03 17.20 0.29 
-164.46 -31.50 15.25 0.16 
-162.37 -27.93 15.01 0.35 
-151.03 -14.33 13.82 0.45 
-152.14 -11.54 13.90 0.53 
-144.83 5.48 13.03 0.53 
-118.50 6.73 10.67 0.57 
-128.77 12.22 11.63 0.23 
-40.77 4.65 3.69 0.83 
-127.08 16.93 11.52 0.39 
-169.06 25.79 15.37 0.30 
-148.66 25.57 13.56 0.50 
-148.90 28.52 13.63 0.32 
-147.32 31.12 13.54 0.47 
-128.45 29.68 11.85 0.39 
-41.04 11.13 3.82 0.80 
-20.48 10.98 2.09 0.54 
-18.45 10.81 1.92 0.59 
-19.00 12.12 2.03 0.72 
-17.78 11.82 1.92 0.66 
-16.53 12.40 1.86 0.47 
-16.21 12.65 1.85 0.50 
-16.01 12.98 1.85 0.50 
-15.98 13.47 1.88 0.41 
-30.81 31.40 3.95 0.14 
-12.19 12.90 1.60 0.29 
-11.89 13.07 1.59 0.91 
-12.67 19.06 2.06 0.79 
0.77 13.50 1.22 0.83 
1.01 13.36 1.20 0.84 
1.28 13.45 1.21 0.77 
18.56 18.22 2.34 0.62 
20.17 10.33 2.04 0.89 
33.12 4.41 3.00 0.64 
47.14 -9.03 4.31 0.58 
158.46 -39.79 14.69 0.15 
149.06 -40.44 13.88 0.51 
149.20 -43.53 13.97 0.50 
149.35 -46.66 14.07 0.50 
149.50 -49.83 14.17 0.49 
149.65 -53.05 14.27 0.49 
149.80 -56.31 14.39 0.48 
149.96 -59.64 14.51 0.47 
150.12 -63.01 14.64 0.47 
150.28 -66.45 14.77 0.46 
150.44 -69.96 14.92 0.45 
150.61 -73.54 15.07 0.45 
150.78 -77.19 15.23 0.44 
150.96 -80.92 15.40 0.43 
151.14 -84.73 15.58 0.42 
151.32 -88.64 15.77 0.41 
151.51 -92.65 15.96 0.40 
151.70 -96.76 16.18 0.39 
19.78 -21.74 2.64 0.87 
7.63 -8.72 1.04 0.83 
24.40 -38.26 4.08 0.82 
58.23 -108.63 11.08 0.61 
60.10 -129.25 12.81 0.55 
62.80 -149.61 14.59 0.51 
64.38 -171.25 16.45 0.42 
60.48 -170.61 16.27 0.18 
34.01 -102.05 9.67 0.63 
39.91 -147.10 13.70 0.40 
36.98 -147.26 13.65 0.15 
38.54 -166.77 15.39 0.40 
35.18 -166.56 15.30 0.15 
-33.72 -115.57 10.82 0.37 
-35.70 -114.26 10.76 0.60 
-16.54 -49.61 4.70 0.81 
-34.66 -97.78 9.33 0.05 
-35.96 -95.65 9.19 0.33 
-37.31 -93.83 9.08 0.46 
-33.47 -79.74 7.77 0.39 
-34.01 -76.91 7.56 0.54 
-34.84 -74.91 7.43 0.20 
-36.06 -73.86 7.39 0.62 
-37.18 -72.63 7.34 0.36 
-39.01 -72.78 7.42 0.49 
-42.94 -76.59 7.89 0.54 
-73.47 -125.41 13.07 0.54 
-75.54 -123.53 13.02 0.25 
-74.01 -116.04 12.37 0.57 
-87.83 -126.84 13.87 0.43 
-74.83 -103.82 11.50 0.36 
-56.09 -74.79 8.40 0.45 
-56.97 -73.05 8.33 0.45 
-57.70 -71.16 8.24 0.68 
-59.69 -70.84 8.33 0.46 
-65.37 -74.66 8.92 0.18 
-66.69 -73.32 8.91 0.58 
-68.16 -72.14 8.92 0.44 
-71.16 -72.52 9.13 0.53 
-76.23 -74.80 9.60 0.56 
-91.82 -83.52 11.16 0.48 
-92.93 -81.36 11.10 0.55 
-103.48 -74.59 11.47 0.52 
-104.81 -72.57 11.46 0.49 
-114.54 -76.14 12.36 0.37 
-134.69 -42.08 12.69 0.25 
-134.58 -39.27 12.60 0.51 
-188.44 -43.55 17.39 0.28 
-184.75 -39.03 16.98 0.29 
-163.01 -31.22 14.92 0.51 
-162.51 -27.95 14.82 0.36 
-150.95 -14.33 13.63 0.45 
-152.13 -11.54 13.72 0.53 
-144.09 5.46 12.79 0.15 
-118.46 6.73 10.52 0.57 
-128.78 12.22 11.47 0.51 
-40.77 4.65 3.64 0.83 
-126.93 16.91 11.36 0.41 
-169.78 25.90 15.23 0.38 
-148.61 25.56 13.37 0.51 
-148.89 28.52 13.45 0.32 
-147.26 31.11 13.35 0.47 
-128.45 29.68 11.69 0.39 
-41.04 11.13 3.77 0.80 
-20.48 10.98 2.06 0.54 
-18.45 10.81 1.90 0.59 
-18.99 12.11 2.00 0.73 
-17.78 11.82 1.89 0.66 
-16.50 12.38 1.83 0.48 
-16.19 12.63 1.82 0.55 
-15.99 12.96 1.83 0.55 
-15.95 13.44 1.85 0.41 
-30.68 31.27 3.89 0.27 
-12.19 12.90 1.57 0.29 
-11.89 13.07 1.57 0.91 
-12.67 19.06 2.03 0.79 
0.77 13.50 1.20 0.83 
1.01 13.35 1.19 0.84 
1.28 13.45 1.20 0.77 
18.54 18.19 2.30 0.50 
20.17 10.33 2.01 0.89 
33.12 4.41 2.96 0.64 
47.14 -9.03 4.26 0.58 
158.46 -39.79 14.49 0.15 
149.06 -40.44 13.70 0.51 
149.20 -43.53 13.79 0.50 
149.35 -46.66 13.88 0.50 
149.50 -49.83 13.98 0.49 
149.65 -53.05 14.08 0.49 
149.80 -56.31 14.19 0.48 
149.96 -59.64 14.31 0.47 
150.12 -63.01 14.44 0.47 
150.28 -66.45 14.57 0.46 
150.44 -69.96 14.72 0.45 
150.61 -73.54 14.87 0.45 
150.78 -77.19 15.02 0.44 
150.96 -80.92 15.19 0.43 
151.14 -84.73 15.37 0.42 
151.32 -88.64 15.55 0.41 
151.51 -92.65 15.75 0.40 
151.70 -96.76 15.96 0.40 
151.90 -100.98 16.18 0.39 
19.78 -21.74 2.61 0.87 
7.63 -8.72 1.03 0.83 
24.40 -38.25 4.02 0.82 
58.23 -108.63 10.93 0.61 
60.10 -129.24 12.64 0.55 
62.82 -149.64 14.39 0.35 
60.36 -170.27 16.02 0.28 
34.02 -102.05 9.54 0.63 
39.89 -147.02 13.51 0.40 
36.98 -147.27 13.47 0.15 
38.51 -166.64 15.17 0.43 
35.11 -166.23 15.07 0.24 
-35.71 -114.32 10.62 0.52 
-16.54 -49.61 4.64 0.81 
-33.94 -95.75 9.01 0.59 
-35.83 -95.30 9.03 0.49 
-37.32 -93.84 8.96 0.46 
-39.64 -94.44 9.08 0.60 
-34.06 -77.03 7.47 0.11 
-35.38 -76.08 7.44 0.37 
-36.18 -74.10 7.31 0.63 
-37.22 -72.70 7.24 0.67 
-39.06 -72.86 7.33 0.49 
-40.78 -72.74 7.40 0.39 
-73.51 -125.49 12.90 0.36 
-88.03 -143.96 14.97 0.39 
-74.03 -116.08 12.21 0.53 
-76.90 -115.67 12.32 0.47 
-88.01 -127.11 13.71 0.38 
-74.95 -103.98 11.37 0.60 
-57.16 -76.23 8.45 0.50 
-57.08 -73.18 8.23 0.63 
-57.79 -71.28 8.14 0.36 
-60.19 -71.43 8.28 0.50 
-65.73 -75.07 8.85 0.33 
-66.66 -73.29 8.79 0.58 
-68.26 -72.25 8.82 0.43 
-71.17 -72.53 9.01 0.53 
-76.30 -74.87 9.48 0.47 
-90.87 -82.66 10.90 0.54 
-93.02 -81.45 10.97 0.17 
-103.56 -74.64 11.32 0.56 
-104.96 -72.67 11.32 0.58 
-114.55 -76.15 12.20 0.37 
-133.58 -41.73 12.41 0.39 
-134.52 -39.25 12.43 0.51 
-188.44 -43.55 17.15 0.28 
-184.76 -39.03 16.75 0.29 
-160.99 -30.84 14.54 0.10 
-63.36 -9.67 5.68 0.74 
-151.54 -14.38 13.50 0.46 
-152.52 -11.57 13.57 0.54 
-145.07 5.49 12.70 0.51 
-118.42 6.73 10.38 0.57 
-127.80 12.13 11.23 0.38 
-40.77 4.65 3.59 0.83 
-127.36 16.97 11.24 0.58 
-169.84 25.91 15.03 0.38 
-148.56 25.55 13.19 0.52 
-148.89 28.52 13.26 0.32 
-147.10 31.07 13.15 0.49 
-128.45 29.68 11.53 0.39 
-20.48 10.98 2.03 0.54 
-18.45 10.81 1.87 0.59 
-19.43 11.88 1.99 0.32 
-18.98 12.10 1.97 0.73 
-17.78 11.82 1.87 0.66 
-17.01 12.26 1.83 0.81 
-16.47 12.35 1.80 0.69 
-16.17 12.61 1.79 0.55 
-15.96 12.94 1.80 0.55 
-15.93 13.42 1.82 0.56 
-30.76 31.35 3.84 0.17 
-12.19 12.90 1.55 0.29 
-11.89 13.07 1.55 0.91 
-12.67 19.06 2.00 0.79 
0.77 13.50 1.18 0.83 
1.01 13.35 1.17 0.84 
1.28 13.45 1.18 0.77 
18.51 18.16 2.27 0.50 
20.17 10.33 1.98 0.89 
33.12 4.41 2.92 0.64 
47.13 -9.03 4.20 0.58 
158.46 -39.79 14.29 0.15 
149.06 -40.44 13.51 0.51 
149.20 -43.53 13.60 0.50 
149.35 -46.66 13.69 0.50 
149.50 -49.83 13.79 0.49 
149.65 -53.05 13.89 0.49 
149.80 -56.31 14.00 0.48 
149.96 -59.64 14.12 0.47 
150.12 -63.01 14.24 0.47 
150.28 -66.45 14.38 0.46 
150.44 -69.96 14.52 0.45 
150.61 -73.54 14.66 0.45 
150.78 -77.19 14.82 0.44 
150.96 -80.92 14.98 0.43 
151.13 -84.73 15.16 0.42 
151.32 -88.64 15.34 0.41 
151.51 -92.65 15.54 0.40 
151.70 -96.75 15.74 0.40 
151.90 -100.98 15.96 0.39 
152.10 -105.31 16.19 0.38 
139.39 -122.04 16.21 0.33 
19.77 -21.74 2.57 0.87 
7.63 -8.72 1.01 0.83 
24.40 -38.25 3.97 0.82 
58.23 -108.64 10.78 0.61 
60.10 -129.24 12.47 0.55 
65.20 -173.45 16.21 0.09 
60.29 -170.09 15.79 0.28 
34.02 -102.06 9.41 0.63 
40.08 -147.71 13.39 0.36 
36.99 -147.29 13.29 0.15 
38.49 -166.54 14.95 0.43 
35.06 -165.97 14.84 0.30 
-33.15 -156.94 14.03 0.46 
-33.78 -115.78 10.55 0.52 
-35.77 -114.48 10.49 0.60 
-16.54 -49.61 4.58 0.81 
-33.97 -95.82 8.89 0.48 
-35.55 -94.58 8.84 0.45 
-37.33 -93.88 8.84 0.47 
-33.34 -79.42 7.54 0.38 
-34.19 -77.31 7.40 0.56 
-35.43 -76.19 7.35 0.37 
-35.98 -73.69 7.17 0.39 
-37.24 -72.74 7.15 0.67 
-39.16 -73.06 7.25 0.62 
-40.83 -72.83 7.30 0.38 
-73.53 -125.52 12.73 0.48 
-74.10 -116.17 12.06 0.48 
-74.77 -112.47 11.82 0.47 
-87.83 -126.85 13.50 0.43 
-75.44 -104.66 11.29 0.46 
-77.14 -102.86 11.25 0.10 
-57.14 -73.26 8.13 0.41 
-57.94 -71.46 8.05 0.20 
-59.86 -71.04 8.13 0.66 
-65.38 -74.67 8.68 0.37 
-66.45 -73.06 8.64 0.51 
-68.30 -72.29 8.70 0.38 
-71.19 -72.55 8.89 0.53 
-76.39 -74.96 9.36 0.47 
-90.89 -82.67 10.75 0.54 
-93.06 -81.49 10.82 0.44 
-103.82 -74.83 11.20 0.54 
-105.00 -72.70 11.17 0.54 
-114.61 -76.19 12.04 0.34 
-133.45 -41.69 12.23 0.41 
-131.91 -38.49 12.02 0.27 
-188.44 -43.55 16.92 0.28 
-184.76 -39.03 16.52 0.29 
-160.94 -30.83 14.34 0.10 
-151.03 -17.22 13.30 0.42 
-151.55 -14.38 13.32 0.46 
-154.93 -11.75 13.59 0.31 
-145.70 5.52 12.58 0.49 
-118.38 6.73 10.23 0.57 
-127.98 12.15 11.09 0.58 
-40.77 4.65 3.54 0.83 
-146.72 19.55 12.77 0.54 
-170.24 25.97 14.86 0.46 
-169.22 29.10 14.82 0.44 
-148.88 28.52 13.08 0.32 
-147.03 31.06 12.97 0.20 
-128.44 29.68 11.37 0.39 
-20.48 10.98 2.01 0.54 
-18.45 10.81 1.85 0.59 
-19.40 11.86 1.96 0.31 
-18.96 12.09 1.94 0.73 
-17.78 11.82 1.84 0.66 
-17.03 12.28 1.81 0.41 
-16.47 12.35 1.78 0.72 
-16.14 12.59 1.77 0.55 
-15.94 12.93 1.77 0.55 
-15.93 13.42 1.80 0.56 
-12.18 12.89 1.53 0.29 
-11.89 13.07 1.52 0.91 
-12.67 19.06 1.97 0.79 
0.77 13.50 1.17 0.83 
1.01 13.35 1.16 0.84 
1.28 13.45 1.17 0.77 
18.49 18.15 2.24 0.88 
20.17 10.33 1.96 0.89 
33.12 4.41 2.88 0.64 
47.13 -9.03 4.14 0.58 
158.46 -39.79 14.10 0.15 
149.06 -40.44 13.33 0.51 
149.20 -43.53 13.41 0.50 
149.35 -46.66 13.50 0.50 
149.50 -49.83 13.60 0.49 
149.65 -53.05 13.70 0.49 
149.80 -56.31 13.81 0.48 
149.96 -59.64 13.92 0.47 
150.12 -63.01 14.05 0.47 
150.28 -66.45 14.18 0.46 
150.44 -69.96 14.32 0.45 
150.61 -73.54 14.46 0.45 
150.78 -77.19 14.62 0.44 
150.96 -80.92 14.78 0.43 
151.13 -84.73 14.95 0.42 
151.32 -88.64 15.13 0.41 
151.51 -92.65 15.32 0.40 
151.70 -96.75 15.52 0.40 
151.90 -100.97 15.74 0.39 
152.10 -105.31 15.96 0.38 
152.31 -109.78 16.20 0.37 
139.39 -122.04 15.99 0.33 
137.53 -125.09 16.04 0.33 
19.77 -21.74 2.54 0.87 
7.63 -8.72 1.00 0.83 
24.40 -38.25 3.91 0.82 
58.23 -108.64 10.64 0.61 
63.18 -129.39 12.42 0.33 
60.10 -129.23 12.30 0.55 
65.08 -173.12 15.96 0.29 
60.23 -169.91 15.55 0.28 
34.02 -102.06 9.28 0.63 
36.99 -147.30 13.10 0.15 
38.47 -166.47 14.74 0.48 
35.04 -165.87 14.63 0.30 
-33.18 -157.08 13.85 0.34 
-33.78 -115.79 10.41 0.57 
-35.76 -114.45 10.35 0.62 
-16.54 -49.61 4.51 0.81 
-34.07 -96.10 8.80 0.24 
-35.09 -93.33 8.60 0.55 
-37.37 -93.97 8.73 0.61 
-39.75 -94.69 8.86 0.40 
-34.92 -78.96 7.45 0.38 
-35.21 -75.71 7.20 0.26 
-36.07 -73.89 7.09 0.18 
-37.26 -72.79 7.06 0.35 
-39.17 -73.08 7.15 0.62 
-40.88 -72.91 7.21 0.65 
-73.55 -125.56 12.56 0.44 
-75.74 -123.86 12.53 0.41 
-74.12 -116.21 11.89 0.43 
-75.95 -114.26 11.84 0.41 
-73.31 -105.88 11.11 0.40 
-74.97 -104.01 11.06 0.46 
-70.24 -93.66 10.10 0.48 
-57.34 -73.52 8.04 0.47 
-57.99 -71.52 7.94 0.36 
-60.49 -71.78 8.10 0.40 
-65.47 -74.77 8.58 0.36 
-66.52 -73.14 8.53 0.51 
-68.52 -72.53 8.61 0.31 
-71.26 -72.62 8.78 0.46 
-71.64 -70.29 8.66 0.56 
-90.91 -82.69 10.60 0.54 
-93.14 -81.56 10.68 0.39 
-102.77 -74.08 10.93 0.52 
-105.06 -72.74 11.03 0.54 
-114.59 -76.18 11.87 0.41 
-132.69 -41.45 11.99 0.31 
-133.85 -39.05 12.03 0.48 
-188.44 -43.55 16.69 0.28 
-184.76 -39.03 16.29 0.29 
-162.88 -31.20 14.31 0.35 
-150.95 -17.21 13.11 0.42 
-151.55 -14.38 13.14 0.46 
-145.81 5.52 12.41 0.36 
-118.34 6.73 10.08 0.57 
-127.97 12.15 10.94 0.53 
-40.77 4.65 3.49 0.83 
-146.76 19.56 12.60 0.54 
-58.92 8.99 5.07 0.69 
-58.98 10.14 5.09 0.23 
-148.87 28.51 12.90 0.47 
-128.40 29.67 11.21 0.49 
-20.48 10.98 1.98 0.54 
-18.45 10.81 1.82 0.59 
-19.37 11.85 1.93 0.31 
-18.96 12.09 1.91 0.88 
-17.78 11.82 1.82 0.66 
-17.03 12.28 1.79 0.41 
-16.47 12.35 1.75 0.72 
-16.12 12.57 1.74 0.55 
-15.92 12.91 1.74 0.55 
-15.93 13.43 1.77 0.56 
-12.18 12.89 1.51 0.29 
-11.89 13.07 1.50 0.91 
-12.67 19.06 1.95 0.79 
0.77 13.50 1.15 0.83 
1.01 13.35 1.14 0.84 
1.28 13.45 1.15 0.77 
18.68 19.03 2.27 0.33 
18.57 18.22 2.21 0.90 
20.17 10.33 1.93 0.89 
33.12 4.41 2.84 0.64 
47.13 -9.03 4.08 0.58 
158.46 -39.79 13.90 0.15 
149.06 -40.44 13.14 0.51 
149.20 -43.53 13.22 0.50 
149.35 -46.66 13.31 0.50 
149.50 -49.83 13.41 0.49 
149.65 -53.05 13.51 0.49 
149.80 -56.31 13.62 0.48 
149.96 -59.63 13.73 0.47 
150.12 -63.01 13.85 0.47 
150.28 -66.45 13.98 0.46 
150.44 -69.96 14.12 0.45 
150.61 -73.54 14.26 0.45 
150.78 -77.19 14.41 0.44 
150.96 -80.92 14.57 0.43 
151.13 -84.73 14.74 0.42 
151.32 -88.64 14.92 0.41 
151.51 -92.65 15.11 0.40 
151.70 -96.75 15.31 0.40 
151.90 -100.97 15.52 0.39 
152.10 -105.31 15.74 0.38 
152.31 -109.78 15.97 0.37 
152.52 -114.38 16.22 0.36 
144.54 -121.80 16.08 0.32 
139.39 -122.04 15.76 0.33 
51.80 -47.12 5.96 0.29 
137.77 -130.16 16.12 0.32 
19.77 -21.74 2.50 0.87 
7.63 -8.72 0.99 0.83 
24.39 -38.25 3.86 0.83 
58.24 -108.64 10.49 0.61 
63.40 -129.86 12.30 0.48 
60.09 -129.22 12.12 0.55 
65.04 -173.02 15.73 0.36 
60.16 -169.73 15.32 0.28 
34.02 -102.06 9.15 0.63 
36.99 -147.32 12.92 0.15 
35.20 -166.65 14.49 0.40 
-30.15 -157.41 13.64 0.45 
-33.23 -157.30 13.68 0.34 
-33.50 -114.83 10.18 0.41 
-35.79 -114.56 10.21 0.42 
-16.54 -49.61 4.45 0.81 
-40.04 -112.94 10.20 0.41 
-35.18 -93.58 8.51 0.63 
-37.40 -94.05 8.61 0.49 
-33.96 -80.90 7.46 0.16 
-34.60 -78.23 7.28 0.33 
-35.26 -75.81 7.11 0.26 
-35.78 -73.28 6.94 0.62 
-37.34 -72.94 6.97 0.35 
-39.19 -73.11 7.06 0.62 
-40.91 -72.98 7.12 0.56 
-73.64 -125.71 12.40 0.45 
-75.75 -123.87 12.35 0.41 
-74.37 -116.60 11.77 0.53 
-75.98 -114.30 11.68 0.45 
-73.39 -105.99 10.97 0.39 
-74.96 -104.00 10.91 0.46 
-56.90 -75.87 8.07 0.12 
-57.44 -73.65 7.95 0.31 
-57.68 -71.14 7.79 0.58 
-60.90 -72.27 8.04 0.43 
-64.50 -73.66 8.33 0.20 
-66.60 -73.23 8.42 0.44 
-68.89 -72.92 8.54 0.60 
-69.18 -70.50 8.40 0.36 
-71.69 -70.35 8.55 0.56 
-91.03 -82.80 10.47 0.22 
-92.91 -81.35 10.51 0.59 
-102.96 -77.22 10.95 0.56 
-102.40 -73.81 10.74 0.46 
-104.49 -72.35 10.81 0.35 
-113.59 -75.51 11.60 0.53 
-130.43 -46.23 11.77 0.28 
-131.57 -43.85 11.80 0.26 
-132.53 -41.40 11.81 0.31 
-133.83 -39.05 11.86 0.46 
-188.44 -43.55 16.45 0.28 
-162.45 -34.32 14.13 0.35 
-162.06 -31.04 14.04 0.09 
-150.87 -17.20 12.92 0.44 
-151.56 -14.38 12.95 0.46 
-144.57 2.74 12.13 0.51 
-145.84 5.52 12.24 0.36 
-118.30 6.72 9.94 0.57 
-130.48 12.38 10.99 0.39 
-40.77 4.65 3.44 0.83 
-191.24 25.48 16.18 0.38 
-58.95 8.99 5.00 0.76 
-168.77 29.03 14.36 0.48 
-59.05 11.31 5.04 0.35 
-128.35 29.66 11.05 0.49 
-20.48 10.98 1.95 0.54 
-18.45 10.81 1.79 0.59 
-18.96 12.09 1.89 0.88 
-17.78 11.82 1.79 0.66 
-17.03 12.28 1.76 0.41 
-16.47 12.35 1.73 0.72 
-16.10 12.56 1.71 0.91 
-15.90 12.89 1.72 0.85 
-15.94 13.43 1.75 0.56 
-12.18 12.89 1.49 0.29 
-11.89 13.07 1.48 0.91 
-12.67 19.06 1.92 0.79 
0.77 13.50 1.13 0.83 
1.01 13.35 1.12 0.84 
1.28 13.45 1.13 0.78 
18.66 19.01 2.23 0.61 
18.57 18.22 2.18 0.90 
20.17 10.33 1.90 0.89 
33.12 4.41 2.80 0.64 
47.13 -9.03 4.02 0.58 
158.46 -39.79 13.70 0.15 
149.06 -40.44 12.95 0.51 
149.20 -43.53 13.04 0.50 
149.35 -46.66 13.12 0.50 
149.50 -49.83 13.22 0.49 
149.65 -53.05 13.32 0.49 
149.80 -56.31 13.42 0.48 
149.96 -59.63 13.54 0.47 
150.12 -63.01 13.66 0.47 
150.28 -66.45 13.78 0.46 
150.44 -69.96 13.92 0.45 
150.61 -73.54 14.06 0.45 
150.78 -77.19 14.21 0.44 
150.95 -80.92 14.37 0.43 
151.13 -84.73 14.53 0.42 
151.32 -88.64 14.71 0.41 
151.50 -92.65 14.90 0.40 
151.70 -96.75 15.09 0.40 
151.90 -100.97 15.30 0.39 
152.10 -105.31 15.52 0.38 
152.31 -109.78 15.75 0.37 
152.52 -114.38 15.99 0.36 
149.91 -121.55 16.19 0.31 
144.54 -121.80 15.85 0.32 
139.39 -122.04 15.54 0.33 
137.53 -125.09 15.59 0.33 
137.77 -130.16 15.90 0.32 
138.01 -135.43 16.22 0.31 
19.77 -21.74 2.46 0.87 
7.63 -8.72 0.97 0.83 
24.39 -38.24 3.80 0.83 
58.24 -108.65 10.34 0.61 
63.45 -129.95 12.13 0.48 
60.09 -129.22 11.95 0.55 
60.10 -169.55 15.09 0.28 
34.02 -102.06 9.02 0.63 
38.82 -167.97 14.46 0.28 
35.23 -166.78 14.30 0.40 
-30.17 -157.52 13.45 0.45 
-33.29 -157.58 13.51 0.43 
-33.48 -114.75 10.03 0.43 
-36.06 -115.42 10.14 0.18 
-16.54 -49.61 4.39 0.81 
-34.44 -97.17 8.65 0.45 
-35.20 -93.63 8.39 0.53 
-37.44 -94.16 8.50 0.49 
-33.67 -80.21 7.30 0.42 
-34.70 -78.46 7.20 0.08 
-34.49 -74.16 6.86 0.32 
-35.81 -73.34 6.85 0.62 
-37.38 -73.02 6.88 0.62 
-39.21 -73.15 6.96 0.59 
-40.96 -73.05 7.02 0.56 
-73.70 -125.81 12.23 0.55 
-75.88 -124.09 12.20 0.45 
-74.37 -116.60 11.60 0.53 
-76.10 -114.47 11.53 0.10 
-74.32 -107.34 10.95 0.35 
-74.95 -103.98 10.75 0.58 
-56.96 -75.96 7.96 0.12 
-57.63 -73.89 7.86 0.51 
-57.72 -71.18 7.69 0.58 
-75.93 -90.10 9.88 0.56 
-65.11 -74.36 8.29 0.45 
-66.70 -73.33 8.31 0.43 
-67.73 -71.69 8.27 0.54 
-69.73 -71.06 8.35 0.30 
-76.60 -75.17 9.00 0.26 
-91.11 -82.87 10.33 0.51 
-92.80 -81.25 10.35 0.58 
-103.05 -77.28 10.80 0.48 
-102.16 -73.64 10.56 0.45 
-105.41 -72.99 10.75 0.54 
-113.66 -75.56 11.45 0.53 
-131.49 -43.83 11.63 0.38 
-132.37 -41.35 11.63 0.31 
-133.76 -39.03 11.69 0.46 
-188.44 -43.55 16.22 0.28 
-162.73 -34.38 13.95 0.50 
-161.57 -30.95 13.80 0.09 
-151.57 -14.39 12.77 0.46 
-144.51 2.74 11.95 0.52 
-145.86 5.52 12.07 0.49 
-118.75 6.75 9.83 0.61 
-130.43 12.38 10.83 0.48 
-40.77 4.65 3.39 0.83 
-128.90 17.18 10.75 0.55 
-58.96 9.00 4.93 0.76 
-168.78 29.03 14.16 0.48 
-59.05 11.31 4.97 0.76 
-128.31 29.65 10.89 0.49 
-20.48 10.98 1.92 0.54 
-18.45 10.81 1.77 0.59 
-18.96 12.09 1.86 0.88 
-17.78 11.82 1.77 0.66 
-18.74 12.98 1.88 0.65 
-17.03 12.28 1.74 0.41 
-16.47 12.35 1.70 0.72 
-16.11 12.56 1.69 0.91 
-15.90 12.89 1.69 0.91 
-15.94 13.43 1.72 0.56 
-12.17 12.89 1.47 0.29 
-11.88 13.07 1.46 0.91 
-12.67 19.06 1.89 0.79 
0.77 13.50 1.12 0.83 
1.01 13.35 1.11 0.84 
1.28 13.45 1.12 0.78 
18.80 19.16 2.22 0.27 
18.57 18.22 2.15 0.90 
20.17 10.33 1.87 0.89 
33.12 4.41 2.76 0.64 
47.12 -9.03 3.97 0.58 
158.46 -39.79 13.51 0.15 
149.06 -40.44 12.77 0.51 
149.20 -43.53 12.85 0.51 
149.35 -46.66 12.94 0.50 
149.50 -49.83 13.03 0.49 
149.65 -53.05 13.13 0.49 
149.80 -56.31 13.23 0.48 
149.96 -59.63 13.34 0.47 
150.11 -63.01 13.46 0.47 
150.28 -66.45 13.58 0.46 
150.44 -69.96 13.72 0.45 
150.61 -73.54 13.86 0.45 
150.78 -77.19 14.00 0.44 
150.95 -80.92 14.16 0.43 
151.13 -84.73 14.32 0.42 
151.32 -88.64 14.50 0.41 
151.50 -92.64 14.68 0.40 
151.70 -96.75 14.87 0.40 
151.90 -100.97 15.08 0.39 
152.10 -105.31 15.29 0.38 
152.31 -109.78 15.52 0.37 
152.52 -114.38 15.76 0.36 
152.75 -119.13 16.01 0.35 
149.91 -121.55 15.96 0.31 
144.54 -121.80 15.63 0.32 
139.39 -122.04 15.32 0.33 
137.53 -125.09 15.37 0.33 
137.77 -130.16 15.67 0.32 
138.01 -135.42 15.99 0.31 
19.77 -21.74 2.43 0.87 
7.63 -8.72 0.96 0.83 
24.39 -38.24 3.75 0.83 
58.24 -108.65 10.19 0.61 
60.09 -129.21 11.78 0.55 
64.76 -172.26 15.21 0.30 
60.04 -169.37 14.86 0.28 
34.02 -102.07 8.89 0.63 
38.47 -166.49 14.13 0.31 
35.41 -167.61 14.16 0.44 
-30.20 -157.66 13.27 0.39 
-33.34 -157.81 13.33 0.46 
-35.01 -139.40 11.88 0.20 
-37.29 -137.43 11.77 0.56 
-33.52 -114.89 9.89 0.31 
-35.74 -114.41 9.91 0.53 
-16.54 -49.61 4.32 0.81 
-34.47 -97.24 8.53 0.45 
-35.17 -93.57 8.26 0.56 
-37.48 -94.24 8.39 0.52 
-32.91 -78.41 7.03 0.14 
-34.78 -78.65 7.11 0.27 
-34.59 -74.38 6.78 0.26 
-35.83 -73.39 6.75 0.62 
-37.43 -73.13 6.79 0.17 
-39.24 -73.20 6.87 0.59 
-41.00 -73.13 6.93 0.56 
-72.71 -124.13 11.89 0.09 
-75.90 -124.13 12.03 0.45 
-74.41 -116.67 11.44 0.41 
-76.19 -114.61 11.38 0.38 
-73.98 -106.85 10.74 0.56 
-75.08 -104.16 10.62 0.44 
-57.19 -76.26 7.88 0.56 
-58.11 -74.51 7.81 0.55 
-57.77 -71.24 7.58 0.39 
-66.14 -78.48 8.49 0.36 
-60.78 -69.41 7.63 0.56 
-66.85 -73.49 8.21 0.39 
-67.79 -71.75 8.16 0.50 
-71.75 -73.12 8.47 0.57 
-76.97 -75.53 8.92 0.41 
-90.69 -85.68 10.31 0.40 
-91.14 -82.90 10.19 0.51 
-92.78 -81.23 10.19 0.42 
-104.40 -75.25 10.64 0.54 
-105.89 -73.32 10.65 0.51 
-113.75 -75.62 11.29 0.49 
-131.97 -46.78 11.58 0.29 
-126.24 -42.08 11.00 0.13 
-132.24 -41.31 11.45 0.37 
-133.70 -39.01 11.51 0.45 
-188.44 -43.55 15.99 0.28 
-162.76 -34.38 13.75 0.51 
-162.74 -31.17 13.70 0.39 
-151.57 -14.39 12.59 0.46 
-145.87 5.52 11.89 0.49 
-118.75 6.75 9.69 0.61 
-130.38 12.37 10.67 0.48 
-40.77 4.65 3.34 0.83 
-128.76 17.16 10.58 0.39 
-58.97 9.00 4.86 0.76 
-168.80 29.03 13.95 0.48 
-59.05 11.31 4.90 0.76 
-129.10 29.83 10.79 0.57 
-20.48 10.98 1.89 0.54 
-18.45 10.81 1.74 0.59 
-18.96 12.09 1.83 0.88 
-17.78 11.82 1.74 0.66 
-18.73 12.97 1.86 0.65 
-17.03 12.28 1.71 0.41 
-16.48 12.36 1.68 0.72 
-16.10 12.56 1.66 0.91 
-15.90 12.89 1.67 0.91 
-15.94 13.43 1.70 0.56 
-12.17 12.88 1.44 0.91 
-11.88 13.06 1.44 0.91 
-12.67 19.06 1.86 0.79 
0.77 13.50 1.10 0.83 
1.01 13.35 1.09 0.84 
1.28 13.45 1.10 0.78 
18.57 18.22 2.12 0.89 
20.17 10.33 1.85 0.89 
33.12 4.41 2.72 0.64 
47.12 -9.03 3.91 0.58 
158.46 -39.79 13.31 0.15 
149.06 -40.44 12.58 0.51 
149.20 -43.53 12.66 0.51 
149.35 -46.66 12.75 0.50 
149.50 -49.83 12.84 0.49 
149.65 -53.05 12.93 0.49 
149.80 -56.31 13.04 0.48 
149.96 -59.63 13.15 0.48 
150.11 -63.01 13.26 0.47 
150.28 -66.45 13.39 0.46 
150.44 -69.96 13.52 0.45 
150.61 -73.53 13.65 0.45 
150.78 -77.19 13.80 0.44 
150.95 -80.92 13.95 0.43 
151.13 -84.73 14.12 0.42 
151.32 -88.64 14.29 0.41 
151.50 -92.64 14.47 0.40 
151.70 -96.75 14.66 0.40 
151.89 -100.97 14.86 0.39 
152.10 -105.31 15.07 0.38 
152.31 -109.78 15.30 0.37 
152.52 -114.38 15.53 0.36 
152.75 -119.13 15.78 0.35 
149.91 -121.55 15.72 0.31 
144.54 -121.80 15.40 0.32 
139.39 -122.04 15.09 0.33 
137.53 -125.09 15.15 0.33 
137.76 -130.16 15.44 0.32 
138.01 -135.42 15.75 0.31 
138.27 -140.91 16.08 0.30 
19.77 -21.73 2.39 0.87 
7.63 -8.72 0.94 0.83 
24.39 -38.24 3.70 0.83 
58.24 -108.65 10.04 0.61 
60.09 -129.21 11.61 0.55 
61.10 -172.35 14.90 0.35 
34.02 -102.07 8.77 0.63 
38.43 -166.31 13.91 0.31 
35.07 -166.01 13.82 0.35 
-30.34 -158.38 13.14 0.20 
-32.70 -154.79 12.89 0.48 
-31.56 -116.32 9.82 0.55 
-33.62 -115.24 9.78 0.27 
-35.80 -114.59 9.78 0.31 
-16.54 -49.61 4.26 0.81 
-34.50 -97.34 8.41 0.40 
-36.17 -96.22 8.37 0.46 
-37.51 -94.33 8.27 0.46 
-34.20 -77.34 6.89 0.53 
-34.81 -74.85 6.73 0.44 
-35.90 -73.53 6.67 0.25 
-37.54 -73.33 6.71 0.16 
-39.26 -73.25 6.77 0.59 
-41.81 -74.58 6.97 0.61 
-73.39 -125.29 11.83 0.43 
-76.14 -124.51 11.89 0.48 
-73.64 -115.45 11.16 0.48 
-75.86 -114.12 11.16 0.55 
-73.98 -106.84 10.59 0.56 
-75.14 -104.25 10.47 0.47 
-77.34 -103.13 10.50 0.39 
-55.95 -71.73 7.41 0.51 
-57.89 -71.40 7.49 0.48 
-59.00 -70.01 7.46 0.40 
-61.74 -70.51 7.64 0.59 
-66.04 -72.61 8.00 0.51 
-68.83 -72.85 8.17 0.55 
-71.79 -73.16 8.35 0.57 
-77.60 -76.15 8.86 0.47 
-90.54 -85.54 10.15 0.29 
-91.19 -82.95 10.04 0.55 
-92.88 -81.32 10.06 0.42 
-101.68 -73.29 10.21 0.26 
-105.23 -72.86 10.43 0.27 
-113.91 -75.72 11.14 0.43 
-116.51 -74.31 11.26 0.39 
-131.74 -46.70 11.39 0.29 
-126.77 -42.25 10.89 0.13 
-133.00 -41.55 11.35 0.42 
-133.65 -38.99 11.34 0.50 
-188.44 -43.55 15.76 0.28 
-184.76 -39.03 15.38 0.29 
-162.74 -31.17 13.50 0.39 
-151.58 -14.39 12.40 0.46 
-145.88 5.52 11.72 0.49 
-118.74 6.75 9.55 0.61 
-40.77 4.65 3.29 0.83 
-129.12 17.21 10.46 0.55 
-58.98 9.00 4.79 0.76 
-59.05 11.31 4.83 0.76 
-129.10 29.83 10.64 0.57 
-20.48 10.98 1.87 0.54 
-18.45 10.81 1.72 0.59 
-18.96 12.09 1.80 0.88 
-17.78 11.82 1.71 0.66 
-18.72 12.96 1.83 0.65 
-17.03 12.28 1.69 0.41 
-16.48 12.36 1.65 0.72 
-16.10 12.56 1.64 0.91 
-15.90 12.89 1.64 0.91 
-16.97 14.30 1.78 0.17 
-12.17 12.88 1.42 0.91 
-11.88 13.06 1.42 0.91 
-12.67 19.06 1.84 0.79 
0.77 13.50 1.09 0.83 
1.01 13.35 1.07 0.84 
1.28 13.45 1.08 0.78 
18.58 18.23 2.09 0.89 
20.17 10.33 1.82 0.89 
33.12 4.41 2.68 0.64 
47.12 -9.02 3.85 0.58 
158.46 -39.79 13.11 0.15 
149.06 -40.44 12.40 0.51 
149.20 -43.53 12.48 0.51 
149.35 -46.66 12.56 0.50 
149.50 -49.83 12.65 0.49 
149.65 -53.05 12.74 0.49 
149.80 -56.31 12.85 0.48 
149.96 -59.63 12.95 0.48 
150.11 -63.01 13.07 0.47 
