VERSION 0.7
FIELDS x y z intensity
SIZE 4 4 4 8
TYPE F F F F
COUNT 1 1 1 1
WIDTH 1899
HEIGHT 1
VIEWPOINT 0.0 0.0 0.0 1.0 0.0 0.0 0.0
POINTS 1899
DATA ascii
62.68 -149.33 14.95 0.45 
59.03 -148.44 14.75 0.28 
61.89 -174.61 17.10 0.12 
58.40 -175.20 17.05 0.40 
35.90 -123.06 11.83 0.58 
39.59 -145.91 13.96 0.50 
37.15 -147.93 14.08 0.29 
38.89 -168.30 15.94 0.47 
-31.31 -115.41 11.04 0.54 
-33.18 -113.73 10.94 0.46 
-35.38 -113.24 10.95 0.50 
-38.17 -114.51 11.14 0.56 
-33.36 -94.11 9.22 0.49 
-35.11 -93.39 9.21 0.62 
-37.34 -93.88 9.33 0.48 
-31.30 -74.57 7.47 0.34 
-32.29 -73.03 7.37 0.64 
-33.77 -72.62 7.39 0.63 
-36.18 -74.10 7.61 0.62 
-36.65 -71.59 7.42 0.58 
-73.70 -137.49 14.40 0.27 
-70.77 -126.23 13.36 0.32 
-72.31 -118.25 12.79 0.40 
-89.17 -139.80 15.31 0.50 
-70.69 -106.34 11.79 0.54 
-86.38 -124.76 14.01 0.50 
-74.74 -103.70 11.80 0.53 
-54.40 -72.54 8.37 0.16 
-55.06 -70.60 8.26 0.60 
-55.69 -68.69 8.16 0.47 
-59.07 -70.10 8.46 0.25 
-63.42 -72.43 8.89 0.45 
-64.32 -70.71 8.82 0.67 
-67.12 -71.05 9.02 0.65 
-8.59 -8.76 1.13 0.35 
-75.07 -73.66 9.71 0.62 
-90.61 -79.34 11.12 0.45 
-128.83 -108.57 15.55 0.30 
-101.17 -72.92 11.51 0.51 
-102.41 -70.91 11.50 0.58 
-111.93 -74.40 12.41 0.35 
-112.88 -71.99 12.36 0.55 
-18.53 -9.05 1.90 0.92 
-129.52 -40.46 12.53 0.51 
-129.33 -37.73 12.44 0.10 
-184.51 -38.98 17.41 0.29 
-159.03 -30.46 14.95 0.36 
-159.80 -27.49 14.97 0.33 
-37.86 -5.78 3.53 0.85 
-145.09 -11.00 13.43 0.39 
-140.89 8.01 12.86 0.55 
-139.08 10.55 12.71 0.25 
-92.12 12.28 8.47 0.67 
-124.64 19.02 11.49 0.56 
-165.71 28.50 15.32 0.45 
-54.82 10.50 5.08 0.78 
-54.84 11.59 5.11 0.77 
-16.32 11.30 1.81 0.48 
-15.02 12.18 1.76 0.91 
-14.74 12.42 1.76 0.91 
-13.57 11.88 1.64 0.59 
-12.76 12.52 1.63 0.52 
-13.14 13.91 1.74 0.33 
-11.80 12.97 1.60 0.90 
-12.47 14.25 1.72 0.32 
-12.36 14.67 1.75 0.26 
-7.97 13.04 1.39 0.93 
-7.72 13.19 1.39 0.93 
-7.64 13.62 1.42 0.44 
5.03 13.38 1.30 0.91 
5.26 13.23 1.30 0.61 
11.57 19.76 2.09 0.80 
20.71 9.63 2.08 0.44 
24.40 9.70 2.39 0.87 
37.11 3.52 3.40 0.81 
50.98 -9.76 4.73 0.78 
51.09 -12.83 4.80 0.77 
159.07 -43.16 15.02 0.15 
152.24 -44.42 14.45 0.50 
152.33 -47.59 14.54 0.50 
152.41 -50.80 14.64 0.49 
152.50 -54.06 14.74 0.48 
152.59 -57.36 14.85 0.48 
152.68 -60.72 14.97 0.47 
152.77 -64.13 15.09 0.47 
152.86 -67.60 15.23 0.46 
58.14 -31.16 6.01 0.62 
11.44 -8.92 1.32 0.27 
23.44 -22.15 2.94 0.84 
23.12 -22.69 2.95 0.60 
27.98 -38.82 4.36 0.38 
61.64 -109.95 11.48 0.48 
59.48 -110.97 11.47 0.53 
62.49 -127.99 12.98 0.43 
60.74 -130.61 13.12 0.46 
58.07 -131.31 13.08 0.40 
63.20 -150.57 14.88 0.36 
59.02 -148.42 14.55 0.28 
61.34 -173.04 16.73 0.03 
35.91 -123.06 11.68 0.58 
39.58 -145.86 13.77 0.50 
37.10 -147.74 13.88 0.36 
38.88 -168.25 15.73 0.47 
-31.34 -115.50 10.90 0.54 
-33.24 -113.92 10.81 0.35 
-35.41 -113.35 10.82 0.40 
-31.78 -95.34 9.16 0.54 
-33.40 -94.23 9.11 0.51 
-35.11 -93.39 9.09 0.29 
-37.54 -94.39 9.25 0.34 
-31.69 -75.50 7.46 0.08 
-32.33 -73.10 7.28 0.53 
-33.80 -72.69 7.30 0.20 
-36.01 -73.76 7.48 0.41 
-36.76 -71.81 7.35 0.64 
-38.58 -71.98 7.44 0.46 
-70.73 -126.15 13.18 0.33 
-72.56 -123.87 13.08 0.56 
-72.25 -118.16 12.62 0.40 
-89.22 -139.88 15.12 0.45 
-70.72 -106.39 11.64 0.54 
-86.02 -124.23 13.77 0.52 
-74.80 -103.77 11.65 0.54 
-54.66 -72.89 8.30 0.16 
-54.88 -70.36 8.13 0.54 
-55.72 -68.72 8.06 0.47 
-57.61 -68.36 8.14 0.43 
-63.55 -72.58 8.79 0.33 
-64.46 -70.87 8.73 0.65 
-67.15 -71.08 8.91 0.60 
-8.59 -8.76 1.12 0.35 
-75.09 -73.68 9.58 0.62 
-88.72 -80.70 10.93 0.56 
-91.13 -79.79 11.03 0.30 
-128.83 -108.56 15.35 0.30 
-100.30 -72.29 11.26 0.24 
-102.44 -70.93 11.35 0.58 
-110.82 -73.67 12.12 0.50 
-112.94 -72.03 12.20 0.32 
-18.53 -9.05 1.88 0.92 
-129.02 -37.64 12.24 0.20 
-184.51 -38.98 17.18 0.29 
-159.55 -30.56 14.80 0.52 
-159.43 -27.42 14.74 0.42 
-37.86 -5.78 3.49 0.85 
-145.46 -13.81 13.31 0.33 
-144.92 -10.99 13.24 0.39 
-140.48 5.32 12.64 0.53 
-140.91 8.01 12.69 0.55 
-139.91 10.61 12.61 0.45 
-92.12 12.28 8.35 0.67 
-122.48 18.69 11.14 0.19 
-165.62 28.49 15.11 0.45 
-54.81 10.50 5.02 0.78 
-54.85 11.59 5.04 0.76 
-28.38 18.87 3.06 0.38 
-16.32 11.30 1.78 0.48 
-15.02 12.18 1.74 0.91 
-14.74 12.42 1.73 0.91 
-13.57 11.88 1.62 0.59 
-12.76 12.52 1.61 0.52 
-13.13 13.90 1.72 0.33 
-11.80 12.97 1.58 0.90 
-12.44 14.20 1.70 0.32 
-12.32 14.62 1.72 0.32 
-7.97 13.04 1.37 0.93 
-7.72 13.19 1.37 0.93 
-7.64 13.62 1.40 0.44 
5.03 13.37 1.28 0.91 
5.26 13.23 1.28 0.61 
11.57 19.76 2.06 0.80 
20.71 9.63 2.05 0.44 
24.40 9.70 2.36 0.87 
37.11 3.52 3.35 0.81 
50.98 -9.76 4.67 0.78 
51.09 -12.83 4.74 0.77 
159.07 -43.16 14.82 0.15 
152.24 -44.42 14.26 0.50 
152.32 -47.59 14.35 0.50 
152.41 -50.80 14.44 0.49 
152.50 -54.06 14.55 0.49 
152.59 -57.36 14.65 0.48 
152.68 -60.72 14.77 0.47 
152.77 -64.13 14.89 0.47 
152.86 -67.60 15.03 0.46 
152.96 -71.13 15.16 0.45 
55.12 -28.22 5.57 0.41 
58.14 -31.16 5.93 0.62 
11.44 -8.92 1.30 0.27 
23.44 -22.15 2.90 0.84 
23.12 -22.69 2.91 0.60 
27.97 -38.81 4.30 0.38 
59.47 -110.95 11.32 0.53 
62.71 -128.44 12.85 0.44 
60.74 -130.62 12.95 0.46 
63.17 -150.48 14.67 0.36 
59.02 -148.41 14.36 0.28 
60.99 -172.06 16.41 0.07 
35.91 -123.07 11.52 0.58 
40.14 -147.94 13.78 0.39 
37.10 -147.73 13.69 0.36 
38.26 -165.58 15.28 0.41 
35.43 -167.72 15.41 0.14 
-33.06 -156.50 14.38 0.50 
-31.38 -115.65 10.77 0.42 
-33.30 -114.15 10.69 0.54 
-35.51 -113.66 10.71 0.06 
-31.74 -95.23 9.02 0.59 
-33.64 -94.89 9.05 0.60 
-35.13 -93.44 8.97 0.37 
-61.74 -155.26 15.02 0.45 
-31.94 -76.09 7.42 0.45 
-32.37 -73.19 7.19 0.53 
-33.91 -72.91 7.23 0.63 
-36.06 -73.85 7.39 0.22 
-36.78 -71.86 7.26 0.64 
-38.62 -72.05 7.35 0.46 
-75.17 -134.07 13.82 0.53 
-72.57 -123.89 12.91 0.38 
-72.25 -118.16 12.45 0.31 
-72.95 -114.38 12.20 0.47 
-70.78 -106.47 11.49 0.49 
-72.75 -105.07 11.49 0.58 
-73.85 -102.46 11.35 0.38 
-54.73 -72.98 8.20 0.48 
-54.93 -70.44 8.03 0.54 
-55.77 -68.79 7.96 0.39 
-62.27 -73.89 8.69 0.30 
-63.59 -72.63 8.68 0.65 
-64.47 -70.88 8.61 0.65 
-67.20 -71.13 8.80 0.60 
-8.59 -8.76 1.10 0.35 
-75.14 -73.73 9.46 0.53 
-87.99 -83.13 10.88 0.38 
-88.78 -80.75 10.79 0.56 
-90.39 -79.15 10.80 0.58 
-128.83 -108.56 15.15 0.30 
-100.45 -75.33 11.29 0.56 
-99.48 -71.71 11.02 0.51 
-102.31 -70.84 11.19 0.54 
-110.94 -73.75 11.98 0.41 
-113.26 -72.24 12.08 0.48 
-18.53 -9.05 1.85 0.92 
-129.26 -37.71 12.10 0.26 
-184.52 -38.98 16.95 0.29 
-180.84 -34.64 16.55 0.30 
-158.45 -27.25 14.45 0.19 
-37.86 -5.78 3.44 0.85 
-145.61 -13.82 13.15 0.33 
-147.47 -11.18 13.30 0.33 
-140.43 5.32 12.46 0.52 
-140.94 8.01 12.52 0.54 
-139.92 10.61 12.45 0.45 
-92.12 12.28 8.24 0.67 
-121.25 18.50 10.88 0.50 
-165.54 28.47 14.90 0.45 
-54.81 10.50 4.95 0.78 
-54.85 11.59 4.97 0.76 
-28.36 18.85 3.02 0.79 
-16.32 11.30 1.76 0.48 
-15.02 12.18 1.71 0.91 
-14.74 12.42 1.71 0.91 
-13.57 11.88 1.60 0.59 
-12.76 12.52 1.59 0.52 
-13.12 13.88 1.69 0.33 
-11.80 12.97 1.56 0.90 
-12.40 14.16 1.67 0.66 
-12.28 14.58 1.69 0.32 
-7.97 13.04 1.36 0.93 
-7.72 13.19 1.36 0.93 
-7.64 13.62 1.38 0.44 
5.03 13.37 1.27 0.91 
5.26 13.23 1.26 0.61 
11.57 19.76 2.03 0.80 
22.93 17.89 2.58 0.30 
20.71 9.63 2.03 0.44 
24.40 9.70 2.33 0.87 
37.11 3.52 3.31 0.81 
50.98 -9.76 4.60 0.78 
51.09 -12.83 4.67 0.77 
159.06 -43.16 14.62 0.15 
152.24 -44.42 14.07 0.50 
152.32 -47.59 14.15 0.50 
152.41 -50.80 14.25 0.49 
152.50 -54.06 14.35 0.49 
152.59 -57.36 14.46 0.48 
152.68 -60.72 14.57 0.47 
152.77 -64.13 14.69 0.47 
152.86 -67.60 14.82 0.46 
152.96 -71.13 14.96 0.45 
153.05 -74.73 15.11 0.45 
153.15 -78.40 15.26 0.44 
58.14 -31.16 5.85 0.62 
11.44 -8.92 1.29 0.27 
23.44 -22.15 2.86 0.84 
23.12 -22.69 2.87 0.60 
27.97 -38.80 4.24 0.38 
59.46 -110.93 11.16 0.53 
62.68 -128.39 12.67 0.44 
60.74 -130.62 12.78 0.46 
63.13 -150.39 14.47 0.36 
59.05 -148.48 14.17 0.25 
35.91 -123.07 11.37 0.58 
40.12 -147.85 13.59 0.39 
37.10 -147.72 13.51 0.36 
38.30 -165.73 15.09 0.41 
35.50 -168.08 15.24 0.41 
-33.08 -156.60 14.20 0.41 
-31.41 -115.77 10.64 0.58 
-33.38 -114.40 10.57 0.58 
-35.59 -113.93 10.59 0.53 
-31.76 -95.28 8.91 0.59 
-33.48 -94.45 8.89 0.50 
-35.15 -93.51 8.86 0.42 
-61.76 -155.29 14.82 0.44 
-31.80 -75.75 7.29 0.38 
-32.63 -73.79 7.16 0.57 
-33.99 -73.09 7.15 0.23 
-35.13 -71.95 7.10 0.60 
-36.81 -71.91 7.16 0.64 
-38.66 -72.12 7.26 0.46 
-70.29 -125.37 12.75 0.46 
-72.68 -124.07 12.75 0.37 
-72.25 -118.16 12.28 0.31 
-72.98 -114.43 12.04 0.56 
-74.91 -112.69 12.00 0.46 
-73.85 -106.66 11.51 0.44 
-74.02 -102.69 11.23 0.13 
-54.85 -73.14 8.11 0.31 
-55.07 -70.61 7.94 0.33 
-55.89 -68.93 7.87 0.58 
-62.58 -74.26 8.61 0.17 
-63.58 -72.61 8.56 0.65 
-64.56 -70.97 8.51 0.37 
-67.25 -71.18 8.69 0.60 
-8.59 -8.76 1.09 0.35 
-75.17 -73.77 9.34 0.50 
-87.12 -82.31 10.63 0.55 
-88.75 -80.72 10.64 0.56 
-90.44 -79.18 10.66 0.58 
-128.83 -108.56 14.94 0.30 
-100.64 -75.47 11.16 0.15 
-99.55 -71.75 10.88 0.46 
-101.61 -70.35 10.96 0.16 
-111.08 -73.84 11.83 0.49 
-113.45 -72.36 11.93 0.56 
-18.53 -9.05 1.83 0.92 
-126.02 -39.37 11.71 0.51 
-129.17 -37.69 11.93 0.08 
-184.52 -38.98 16.73 0.29 
-157.79 -30.22 14.25 0.41 
-59.57 -10.25 5.36 0.23 
-37.86 -5.78 3.40 0.85 
-59.61 -7.94 5.33 0.74 
-147.39 -11.18 13.11 0.33 
-140.99 8.01 12.36 0.54 
-139.93 10.61 12.28 0.45 
-74.53 7.07 6.55 0.60 
-92.13 12.28 8.13 0.67 
-121.10 18.48 10.72 0.33 
-165.47 28.46 14.69 0.46 
-54.80 10.50 4.88 0.77 
-54.85 11.59 4.90 0.75 
-28.37 18.86 2.98 0.02 
-16.32 11.30 1.74 0.48 
-15.02 12.18 1.69 0.91 
-14.74 12.42 1.69 0.91 
-13.57 11.88 1.58 0.59 
-12.76 12.52 1.56 0.52 
-13.11 13.87 1.67 0.33 
-11.80 12.97 1.53 0.90 
-12.40 14.16 1.65 0.83 
-12.25 14.53 1.66 0.32 
-7.97 13.04 1.34 0.93 
-7.72 13.18 1.34 0.93 
-7.64 13.62 1.37 0.44 
5.03 13.37 1.25 0.91 
5.26 13.23 1.25 0.61 
11.57 19.76 2.00 0.80 
20.71 9.63 2.00 0.44 
24.40 9.70 2.30 0.87 
37.11 3.52 3.26 0.81 
50.97 -9.76 4.54 0.78 
51.09 -12.83 4.61 0.77 
159.06 -43.16 14.42 0.15 
152.24 -44.42 13.87 0.50 
152.32 -47.59 13.96 0.50 
152.41 -50.80 14.06 0.49 
152.50 -54.06 14.15 0.49 
152.58 -57.36 14.26 0.48 
152.67 -60.72 14.37 0.47 
152.77 -64.13 14.50 0.47 
152.86 -67.60 14.62 0.46 
152.95 -71.13 14.76 0.45 
153.05 -74.73 14.90 0.45 
153.15 -78.40 15.05 0.44 
58.13 -31.16 5.77 0.62 
11.44 -8.92 1.27 0.27 
23.44 -22.15 2.82 0.84 
23.12 -22.68 2.83 0.60 
27.96 -38.80 4.18 0.38 
59.42 -110.86 11.00 0.58 
60.74 -130.62 12.60 0.46 
63.09 -150.30 14.26 0.36 
64.78 -172.33 16.11 0.33 
62.54 -176.44 16.38 0.04 
59.26 -177.81 16.40 0.22 
35.91 -123.07 11.22 0.58 
40.27 -148.42 13.45 0.53 
37.09 -147.71 13.32 0.36 
38.34 -165.89 14.90 0.41 
35.53 -168.19 15.04 0.46 
-33.10 -156.68 14.01 0.41 
-31.90 -117.56 10.66 0.58 
-33.14 -113.59 10.35 0.56 
-35.78 -114.52 10.50 0.42 
-31.79 -95.38 8.80 0.48 
-33.34 -94.07 8.73 0.47 
-35.08 -93.33 8.72 0.61 
-31.43 -79.03 7.44 0.38 
-31.85 -75.87 7.20 0.56 
-32.46 -73.41 7.02 0.58 
-34.41 -74.00 7.14 0.34 
-35.46 -72.63 7.07 0.66 
-36.99 -72.25 7.10 0.64 
-38.71 -72.21 7.17 0.36 
-70.20 -125.22 12.56 0.49 
-72.79 -124.26 12.60 0.56 
-72.26 -118.16 12.12 0.31 
-73.00 -114.46 11.88 0.50 
-84.78 -127.54 13.40 0.42 
-71.71 -103.56 11.02 0.44 
-67.76 -94.01 10.14 0.38 
-54.99 -73.33 8.02 0.30 
-55.10 -70.65 7.84 0.63 
-55.99 -69.06 7.78 0.63 
-57.64 -68.40 7.83 0.60 
-63.59 -72.63 8.45 0.53 
-64.58 -71.00 8.40 0.66 
-67.68 -71.64 8.62 0.52 
-8.59 -8.76 1.07 0.35 
-76.20 -74.77 9.34 0.60 
-87.16 -82.35 10.49 0.55 
-88.84 -80.81 10.51 0.57 
-90.51 -79.25 10.53 0.47 
-100.34 -72.32 10.82 0.60 
-101.21 -70.08 10.77 0.35 
-110.77 -73.63 11.64 0.44 
-113.52 -72.41 11.78 0.50 
-18.53 -9.05 1.80 0.92 
-127.72 -42.57 11.78 0.31 
-125.96 -39.35 11.55 0.51 
-130.82 -38.17 11.92 0.56 
-184.52 -38.98 16.50 0.29 
-157.67 -30.20 14.04 0.41 
-59.58 -10.25 5.29 0.77 
-37.86 -5.78 3.35 0.85 
-59.63 -7.95 5.26 0.77 
-147.31 -11.17 12.93 0.33 
-143.43 8.15 12.40 0.47 
-139.94 10.61 12.11 0.45 
-74.56 7.08 6.46 0.45 
-92.13 12.28 8.02 0.67 
-121.02 18.46 10.56 0.52 
-165.39 28.45 14.48 0.46 
-54.79 10.50 4.81 0.77 
-54.85 11.59 4.84 0.76 
-104.88 32.77 9.48 0.14 
-16.32 11.30 1.71 0.48 
-15.02 12.18 1.67 0.91 
-14.74 12.42 1.66 0.91 
-12.76 12.52 1.54 0.52 
-13.10 13.86 1.65 0.33 
-11.80 12.97 1.51 0.90 
-12.40 14.16 1.62 0.83 
-12.23 14.52 1.64 0.83 
-12.40 15.30 1.70 0.12 
-7.97 13.03 1.32 0.93 
-7.72 13.18 1.32 0.93 
-7.64 13.62 1.35 0.44 
5.03 13.37 1.23 0.91 
5.26 13.23 1.23 0.61 
11.57 19.76 1.98 0.80 
20.71 9.63 1.97 0.44 
24.40 9.70 2.27 0.87 
37.11 3.52 3.22 0.81 
50.97 -9.76 4.48 0.78 
51.09 -12.83 4.54 0.77 
159.06 -43.16 14.22 0.15 
152.24 -44.42 13.68 0.50 
152.32 -47.59 13.77 0.50 
152.41 -50.80 13.86 0.49 
152.49 -54.06 13.96 0.49 
152.58 -57.36 14.06 0.48 
152.67 -60.72 14.18 0.47 
152.76 -64.13 14.30 0.47 
152.86 -67.60 14.42 0.46 
152.95 -71.13 14.55 0.45 
153.05 -74.73 14.70 0.45 
153.15 -78.40 14.85 0.44 
58.13 -31.16 5.69 0.62 
153.35 -85.98 15.17 0.42 
11.44 -8.92 1.25 0.27 
23.44 -22.14 2.78 0.84 
23.12 -22.68 2.79 0.60 
27.96 -38.79 4.13 0.38 
59.43 -110.87 10.85 0.58 
64.00 -131.07 12.59 0.29 
60.74 -130.62 12.43 0.46 
63.38 -151.00 14.13 0.51 
64.91 -172.67 15.92 0.47 
61.70 -174.06 15.93 0.29 
59.45 -178.36 16.22 0.38 
35.91 -123.07 11.06 0.58 
40.31 -148.57 13.28 0.36 
37.09 -147.70 13.14 0.36 
38.28 -165.65 14.67 0.26 
35.55 -168.28 14.84 0.46 
-33.13 -156.83 13.83 0.52 
-34.50 -137.40 12.22 0.32 
-31.60 -116.47 10.41 0.20 
-33.27 -114.04 10.25 0.51 
-35.81 -114.63 10.36 0.42 
-31.91 -95.73 8.71 0.49 
-32.89 -92.79 8.49 0.42 
-35.13 -93.44 8.61 0.37 
-31.50 -79.21 7.35 0.42 
-31.88 -75.95 7.11 0.45 
-33.28 -75.26 7.10 0.40 
-35.03 -75.34 7.17 0.17 
-35.48 -72.67 6.98 0.66 
-36.95 -72.17 7.00 0.65 
-39.45 -73.60 7.21 0.68 
-70.22 -125.24 12.39 0.49 
-72.70 -124.10 12.41 0.50 
-70.96 -116.04 11.74 0.57 
-73.11 -114.63 11.73 0.47 
-71.13 -107.00 11.09 0.43 
-71.87 -103.79 10.89 0.49 
-73.66 -102.20 10.87 0.60 
-68.46 -91.29 9.85 0.39 
-55.13 -70.69 7.73 0.47 
-56.02 -69.09 7.68 0.63 
-57.69 -68.45 7.72 0.61 
-63.63 -72.68 8.33 0.52 
-64.58 -71.00 8.28 0.66 
-65.54 -69.37 8.23 0.50 
-8.59 -8.76 1.06 0.35 
-76.24 -74.81 9.22 0.60 
-87.22 -82.41 10.35 0.49 
-88.95 -80.91 10.37 0.27 
-90.60 -79.33 10.39 0.46 
-100.35 -72.33 10.67 0.60 
-101.52 -70.29 10.65 0.38 
-111.35 -74.02 11.54 0.55 
-113.71 -72.53 11.64 0.31 
-18.53 -9.05 1.78 0.92 
-123.01 -41.00 11.19 0.06 
-124.86 -39.01 11.29 0.08 
-130.82 -38.17 11.76 0.56 
-184.52 -38.98 16.27 0.29 
-157.54 -30.18 13.84 0.41 
-59.57 -10.25 5.22 0.77 
-59.63 -7.95 5.19 0.77 
-147.24 -11.17 12.74 0.33 
-143.38 8.15 12.22 0.47 
-139.95 10.61 11.94 0.45 
-92.13 12.28 7.91 0.67 
-123.57 18.85 10.64 0.21 
-165.60 28.48 14.30 0.46 
-54.79 10.49 4.75 0.76 
-54.85 11.59 4.77 0.76 
-104.85 32.76 9.35 0.14 
-16.32 11.30 1.69 0.48 
-15.02 12.18 1.64 0.91 
-14.74 12.42 1.64 0.91 
-13.09 13.85 1.62 0.33 
-11.80 12.97 1.49 0.90 
-12.40 14.16 1.60 0.83 
-12.23 14.52 1.62 0.83 
-12.34 15.21 1.67 0.30 
-7.97 13.03 1.30 0.93 
-7.72 13.18 1.30 0.93 
-7.64 13.62 1.33 0.44 
5.03 13.37 1.22 0.91 
5.26 13.23 1.21 0.61 
11.57 19.76 1.95 0.80 
20.70 9.63 1.94 0.44 
24.40 9.70 2.23 0.87 
37.11 3.52 3.17 0.81 
50.97 -9.76 4.42 0.78 
51.09 -12.83 4.48 0.77 
159.06 -43.16 14.02 0.15 
152.23 -44.42 13.49 0.50 
152.32 -47.59 13.58 0.50 
152.41 -50.80 13.67 0.49 
152.49 -54.05 13.77 0.49 
152.58 -57.36 13.87 0.48 
152.67 -60.71 13.98 0.47 
152.76 -64.13 14.10 0.47 
152.86 -67.59 14.22 0.46 
152.95 -71.13 14.35 0.45 
153.05 -74.73 14.49 0.45 
153.15 -78.40 14.64 0.44 
58.13 -31.16 5.61 0.62 
153.35 -85.98 14.96 0.42 
153.46 -89.89 15.13 0.41 
11.44 -8.92 1.23 0.27 
23.44 -22.14 2.74 0.84 
23.12 -22.68 2.76 0.61 
27.96 -38.79 4.07 0.38 
59.43 -110.87 10.70 0.58 
62.89 -128.81 12.20 0.50 
60.74 -130.62 12.26 0.46 
63.39 -151.02 13.94 0.51 
64.90 -172.64 15.69 0.42 
61.03 -172.16 15.54 0.11 
59.44 -178.34 15.99 0.37 
35.91 -123.07 10.91 0.58 
37.08 -147.66 12.95 0.36 
38.25 -165.51 14.45 0.26 
35.20 -166.63 14.49 0.23 
-33.19 -157.10 13.66 0.49 
-31.59 -116.41 10.26 0.40 
-33.21 -113.83 10.09 0.60 
-35.24 -112.80 10.05 0.57 
-32.22 -96.65 8.67 0.63 
-33.01 -93.12 8.41 0.50 
-35.21 -93.65 8.51 0.65 
-37.16 -93.45 8.56 0.09 
-31.93 -76.06 7.02 0.28 
-33.76 -76.35 7.10 0.36 
-34.21 -73.57 6.90 0.60 
-35.50 -72.71 6.88 0.66 
-37.04 -72.35 6.91 0.64 
-39.47 -73.64 7.11 0.68 
-75.60 -134.84 13.15 0.23 
-72.39 -123.58 12.19 0.56 
-75.07 -122.77 12.24 0.47 
-73.14 -114.67 11.57 0.39 
-71.19 -107.09 10.94 0.32 
-71.89 -103.83 10.74 0.32 
-73.68 -102.23 10.72 0.58 
-53.83 -71.78 7.63 0.51 
-55.20 -70.78 7.64 0.47 
-56.07 -69.15 7.57 0.55 
-57.68 -68.45 7.62 0.41 
-63.70 -72.76 8.23 0.63 
-64.51 -70.92 8.16 0.67 
-65.61 -69.44 8.13 0.50 
-8.59 -8.76 1.04 0.35 
-76.27 -74.84 9.09 0.61 
-87.38 -82.56 10.23 0.22 
-88.99 -80.94 10.23 0.54 
-92.16 -80.69 10.42 0.22 
-100.47 -72.41 10.54 0.57 
-101.44 -70.24 10.50 0.34 
-110.47 -73.43 11.29 0.29 
-113.79 -72.58 11.48 0.27 
-18.53 -9.05 1.75 0.92 
-123.24 -41.08 11.05 0.29 
-125.16 -39.10 11.16 0.55 
-130.82 -38.17 11.59 0.56 
-184.52 -38.98 16.05 0.29 
-157.97 -30.26 13.68 0.44 
-59.57 -10.25 5.14 0.77 
-59.62 -7.95 5.12 0.78 
-147.16 -11.16 12.56 0.33 
-143.31 8.15 12.04 0.43 
-139.96 10.62 11.77 0.45 
-92.13 12.28 7.80 0.67 
-123.47 18.84 10.48 0.21 
-165.53 28.47 14.09 0.46 
-54.79 10.49 4.68 0.76 
-54.84 11.58 4.70 0.75 
-104.82 32.75 9.21 0.14 
-16.32 11.30 1.66 0.48 
-18.33 19.40 2.24 0.61 
-11.80 12.97 1.47 0.90 
-12.39 14.15 1.58 0.85 
-12.23 14.52 1.59 0.83 
-12.33 15.21 1.64 0.30 
-7.97 13.03 1.28 0.93 
-7.72 13.18 1.28 0.93 
-7.64 13.62 1.31 0.44 
5.03 13.37 1.20 0.91 
5.26 13.22 1.19 0.61 
11.57 19.76 1.92 0.80 
22.92 17.88 2.44 0.49 
20.70 9.63 1.92 0.44 
24.40 9.71 2.20 0.87 
37.11 3.52 3.13 0.81 
50.97 -9.76 4.35 0.78 
51.09 -12.83 4.42 0.77 
159.06 -43.16 13.82 0.15 
152.23 -44.42 13.30 0.50 
152.32 -47.59 13.38 0.50 
152.40 -50.80 13.47 0.49 
152.49 -54.05 13.57 0.49 
152.58 -57.36 13.67 0.48 
152.67 -60.71 13.78 0.47 
152.76 -64.12 13.90 0.47 
152.86 -67.59 14.02 0.46 
152.95 -71.13 14.15 0.45 
153.05 -74.73 14.29 0.45 
153.15 -78.40 14.43 0.44 
58.13 -31.16 5.53 0.62 
153.35 -85.98 14.75 0.42 
153.46 -89.89 14.92 0.41 
153.56 -93.90 15.10 0.41 
11.44 -8.92 1.22 0.27 
23.43 -22.14 2.70 0.84 
23.12 -22.68 2.72 0.61 
27.95 -38.78 4.01 0.38 
62.87 -128.76 12.02 0.50 
60.75 -130.63 12.08 0.46 
60.85 -171.65 15.28 0.29 
35.91 -123.07 10.75 0.58 
37.07 -147.62 12.77 0.36 
38.68 -167.39 14.41 0.49 
35.14 -166.34 14.26 0.23 
-33.19 -157.10 13.47 0.38 
-34.38 -136.90 11.84 0.37 
-31.77 -117.07 10.17 0.46 
-33.28 -114.07 9.97 0.47 
-35.26 -112.86 9.92 0.57 
-32.22 -96.67 8.55 0.56 
-32.96 -92.98 8.27 0.55 
-35.24 -93.76 8.40 0.35 
-30.89 -77.67 7.01 0.67 
-32.23 -76.78 6.98 0.47 
-32.88 -74.36 6.82 0.36 
-33.85 -72.79 6.73 0.55 
-35.52 -72.75 6.79 0.66 
-37.06 -72.40 6.82 0.64 
-39.49 -73.67 7.01 0.61 
-70.43 -125.61 12.08 0.21 
-72.81 -124.29 12.08 0.47 
-75.10 -122.81 12.07 0.47 
-73.20 -114.77 11.42 0.57 
-71.26 -107.20 10.80 0.32 
-72.01 -103.99 10.61 0.56 
-73.75 -102.32 10.58 0.32 
-53.28 -71.05 7.45 0.43 
-54.63 -70.05 7.45 0.28 
-56.13 -69.23 7.48 0.17 
-57.88 -68.69 7.53 0.39 
-63.50 -72.52 8.08 0.67 
-64.50 -70.91 8.04 0.67 
-65.82 -69.66 8.04 0.40 
-8.59 -8.76 1.03 0.35 
-76.30 -74.87 8.97 0.61 
-88.25 -83.38 10.18 0.41 
-88.88 -80.84 10.08 0.55 
-91.05 -79.72 10.15 0.59 
-99.26 -71.54 10.26 0.38 
-100.76 -69.76 10.28 0.57 
-110.69 -73.58 11.15 0.32 
-114.09 -72.77 11.35 0.11 
-18.53 -9.05 1.73 0.92 
-124.21 -41.40 10.98 0.51 
-123.43 -38.56 10.85 0.12 
-130.82 -38.17 11.43 0.56 
-130.27 -35.35 11.32 0.50 
-184.53 -38.98 15.82 0.29 
-157.91 -30.25 13.49 0.44 
-59.57 -10.25 5.07 0.77 
-59.62 -7.95 5.05 0.78 
-147.08 -11.16 12.37 0.33 
-143.26 8.14 11.86 0.50 
-142.71 10.82 11.83 0.51 
-92.13 12.28 7.68 0.67 
-123.42 18.83 10.32 0.27 
-165.45 28.46 13.88 0.46 
-54.79 10.49 4.61 0.76 
-54.84 11.58 4.63 0.75 
-104.79 32.74 9.08 0.14 
-16.32 11.30 1.64 0.48 
-18.37 19.44 2.21 0.35 
-11.80 12.97 1.45 0.90 
-12.39 14.15 1.56 0.85 
-12.22 14.50 1.57 0.84 
-12.33 15.21 1.62 0.30 
-7.97 13.03 1.26 0.93 
-7.72 13.18 1.26 0.93 
-7.64 13.62 1.29 0.44 
5.03 13.37 1.18 0.92 
5.26 13.22 1.18 0.61 
11.57 19.76 1.89 0.80 
22.91 17.87 2.40 0.46 
20.70 9.63 1.89 0.44 
24.40 9.71 2.17 0.87 
37.11 3.52 3.08 0.81 
50.97 -9.76 4.29 0.78 
51.09 -12.83 4.35 0.77 
159.05 -43.16 13.62 0.15 
152.23 -44.42 13.11 0.50 
152.32 -47.59 13.19 0.50 
152.40 -50.80 13.28 0.49 
152.49 -54.05 13.38 0.49 
152.58 -57.36 13.48 0.48 
152.67 -60.71 13.58 0.47 
152.76 -64.12 13.70 0.47 
152.85 -67.59 13.82 0.46 
152.95 -71.13 13.94 0.45 
153.05 -74.73 14.08 0.45 
153.15 -78.40 14.22 0.44 
58.13 -31.16 5.45 0.62 
153.35 -85.98 14.53 0.42 
153.45 -89.89 14.70 0.41 
153.56 -93.90 14.88 0.41 
153.67 -98.01 15.07 0.40 
11.44 -8.92 1.20 0.27 
23.43 -22.14 2.67 0.84 
23.11 -22.68 2.68 0.61 
27.95 -38.77 3.95 0.38 
62.84 -128.71 11.84 0.52 
60.75 -130.63 11.91 0.46 
65.71 -174.80 15.44 0.08 
60.78 -171.47 15.04 0.29 
35.91 -123.08 10.60 0.58 
37.06 -147.59 12.58 0.36 
38.69 -167.44 14.21 0.48 
35.29 -167.08 14.12 0.36 
-29.80 -155.60 13.10 0.36 
-33.21 -157.23 13.29 0.40 
-31.82 -117.28 10.05 0.34 
-33.26 -114.01 9.82 0.50 
-35.29 -112.96 9.78 0.52 
-32.02 -96.07 8.37 0.28 
-32.98 -93.05 8.16 0.56 
-35.36 -94.07 8.31 0.22 
-30.90 -77.70 6.91 0.67 
-32.53 -77.49 6.95 0.51 
-32.70 -73.95 6.68 0.37 
-33.88 -72.86 6.64 0.55 
-35.35 -72.40 6.66 0.35 
-37.08 -72.44 6.73 0.64 
-39.54 -73.77 6.92 0.39 
-75.54 -134.73 12.77 0.54 
-72.24 -123.32 11.82 0.41 
-71.18 -116.41 11.28 0.55 
-72.86 -114.24 11.20 0.41 
-75.41 -113.44 11.26 0.41 
-72.19 -104.25 10.48 0.33 
-73.91 -102.54 10.45 0.32 
-53.51 -71.35 7.37 0.50 
-54.81 -70.28 7.37 0.42 
-56.07 -69.15 7.36 0.48 
-58.18 -69.04 7.46 0.46 
-63.50 -72.53 7.97 0.67 
-64.32 -70.71 7.90 0.46 
-65.99 -69.85 7.94 0.35 
-8.59 -8.76 1.01 0.35 
-76.36 -74.93 8.84 0.53 
-88.94 -80.90 9.94 0.19 
-91.11 -79.78 10.01 0.60 
-99.38 -71.63 10.13 0.52 
-100.84 -69.82 10.14 0.49 
-111.21 -73.93 11.04 0.36 
-115.09 -73.40 11.28 0.39 
-18.53 -9.05 1.70 0.92 
-124.31 -41.43 10.83 0.51 
-124.11 -38.77 10.75 0.24 
-130.82 -38.17 11.27 0.56 
-130.19 -35.33 11.15 0.50 
-184.53 -38.98 15.59 0.29 
-180.85 -34.64 15.22 0.30 
-59.57 -10.25 5.00 0.77 
-59.63 -7.95 4.97 0.78 
-79.61 -6.04 6.60 0.06 
-142.64 10.82 11.65 0.23 
-92.13 12.28 7.57 0.67 
-123.44 18.83 10.17 0.27 
-165.38 28.44 13.67 0.46 
-54.79 10.50 4.55 0.76 
-54.84 11.58 4.57 0.75 
-104.76 32.73 8.94 0.14 
-16.32 11.30 1.62 0.48 
-11.80 12.97 1.43 0.90 
-12.39 14.15 1.53 0.85 
-12.22 14.50 1.55 0.84 
-12.33 15.21 1.59 0.30 
-7.97 13.03 1.24 0.93 
-7.72 13.18 1.24 0.93 
-7.64 13.62 1.27 0.44 
5.03 13.37 1.16 0.92 
5.26 13.22 1.16 0.61 
11.57 19.76 1.87 0.80 
22.89 17.85 2.37 0.46 
20.70 9.63 1.86 0.44 
24.41 9.71 2.14 0.87 
37.11 3.52 3.04 0.81 
50.97 -9.76 4.23 0.78 
51.09 -12.83 4.29 0.77 
159.05 -43.16 13.43 0.15 
152.23 -44.41 12.92 0.50 
152.32 -47.59 13.00 0.50 
152.40 -50.80 13.09 0.49 
152.49 -54.05 13.18 0.49 
152.58 -57.36 13.28 0.48 
152.67 -60.71 13.39 0.47 
152.76 -64.12 13.50 0.47 
152.85 -67.59 13.62 0.46 
152.95 -71.13 13.74 0.45 
153.04 -74.72 13.88 0.45 
153.14 -78.40 14.02 0.44 
58.13 -31.16 5.37 0.62 
153.35 -85.97 14.32 0.42 
153.45 -89.89 14.49 0.41 
153.56 -93.90 14.66 0.41 
153.67 -98.01 14.85 0.40 
153.79 -102.23 15.04 0.39 
11.44 -8.92 1.18 0.27 
23.43 -22.14 2.63 0.84 
23.11 -22.68 2.64 0.61 
27.94 -38.77 3.89 0.38 
62.82 -128.66 11.66 0.51 
60.75 -130.63 11.74 0.46 
65.60 -174.51 15.19 0.28 
60.72 -171.30 14.81 0.29 
35.91 -123.08 10.45 0.58 
37.05 -147.55 12.39 0.36 
38.68 -167.39 14.00 0.48 
35.31 -167.16 13.92 0.36 
-29.84 -155.80 12.92 0.26 
-32.75 -155.04 12.91 0.50 
-34.55 -137.60 11.56 0.55 
-31.69 -116.79 9.86 0.13 
-33.29 -114.12 9.68 0.50 
-35.36 -113.17 9.66 0.58 
-23.51 -70.53 6.06 0.46 
-33.02 -93.15 8.05 0.47 
-35.35 -94.05 8.19 0.39 
-30.92 -77.75 6.82 0.60 
-32.80 -78.15 6.90 0.53 
-32.75 -74.06 6.60 0.37 
-33.92 -72.94 6.55 0.40 
-35.58 -72.86 6.61 0.53 
-37.40 -73.05 6.69 0.23 
-39.60 -73.87 6.83 0.39 
-42.98 -76.66 7.16 0.05 
-72.53 -123.81 11.69 0.50 
-71.25 -116.52 11.13 0.26 
-72.81 -114.15 11.03 0.48 
-75.55 -113.65 11.12 0.38 
-72.39 -104.55 10.36 0.43 
-74.64 -103.56 10.40 0.46 
-53.54 -71.39 7.27 0.40 
-55.35 -70.96 7.33 0.55 
-56.15 -69.25 7.26 0.48 
-62.86 -74.59 7.95 0.24 
-63.53 -72.55 7.86 0.63 
-64.21 -70.59 7.77 0.60 
-66.12 -69.98 7.84 0.21 
-8.59 -8.76 1.00 0.35 
-76.25 -74.82 8.70 0.45 
-89.10 -81.04 9.81 0.57 
-91.03 -79.71 9.86 0.50 
-97.65 -73.23 9.94 0.51 
-99.45 -71.68 9.99 0.48 
-100.90 -69.86 10.00 0.15 
-111.53 -74.14 10.91 0.38 
-114.29 -72.89 11.04 0.26 
-18.53 -9.05 1.68 0.92 
-124.11 -41.37 10.66 0.54 
-124.23 -38.81 10.60 0.24 
-130.82 -38.17 11.10 0.56 
-132.51 -35.96 11.19 0.44 
-184.53 -38.98 15.37 0.29 
-160.91 -30.82 13.35 0.41 
-59.57 -10.25 4.92 0.77 
-59.63 -7.95 4.90 0.78 
-79.64 -7.56 6.52 0.33 
-79.53 -6.03 6.50 0.44 
-142.55 10.81 11.47 0.23 
-92.13 12.28 7.46 0.67 
-123.46 18.84 10.02 0.27 
-184.16 31.67 15.00 0.45 
-54.80 10.50 4.48 0.76 
-54.84 11.58 4.50 0.76 
-104.73 32.72 8.81 0.14 
-16.32 11.30 1.59 0.48 
-14.32 12.07 1.50 0.92 
-14.05 12.30 1.50 0.92 
-13.79 12.54 1.50 0.92 
-13.52 12.78 1.49 0.92 
-13.26 13.01 1.49 0.92 
-12.99 13.24 1.49 0.92 
-12.73 13.48 1.49 0.93 
-11.80 12.97 1.41 0.90 
-12.39 14.15 1.51 0.85 
-12.22 14.50 1.52 0.84 
-12.33 15.20 1.57 0.30 
-7.97 13.03 1.23 0.93 
-7.72 13.18 1.23 0.93 
-7.64 13.62 1.25 0.44 
5.02 13.37 1.15 0.92 
5.26 13.22 1.14 0.61 
11.57 19.76 1.84 0.80 
22.88 17.84 2.33 0.77 
20.70 9.63 1.83 0.44 
24.38 10.23 2.12 0.62 
24.41 9.71 2.11 0.87 
37.12 3.52 2.99 0.81 
50.97 -9.76 4.17 0.78 
51.09 -12.83 4.23 0.77 
159.05 -43.16 13.23 0.15 
152.23 -44.41 12.73 0.50 
152.31 -47.58 12.81 0.50 
152.40 -50.80 12.89 0.49 
152.49 -54.05 12.99 0.49 
152.58 -57.36 13.08 0.48 
152.67 -60.71 13.19 0.47 
152.76 -64.12 13.30 0.47 
152.85 -67.59 13.41 0.46 
152.95 -71.12 13.54 0.45 
153.04 -74.72 13.67 0.45 
153.14 -78.40 13.81 0.44 
58.13 -31.16 5.29 0.62 
153.35 -85.97 14.11 0.42 
153.45 -89.89 14.27 0.41 
153.56 -93.90 14.45 0.41 
153.67 -98.01 14.63 0.40 
153.78 -102.23 14.82 0.39 
153.90 -106.56 15.03 0.38 
11.44 -8.92 1.16 0.27 
142.64 -124.90 15.22 0.32 
138.94 -126.38 15.08 0.34 
23.43 -22.14 2.59 0.84 
23.11 -22.68 2.60 0.61 
27.94 -38.76 3.84 0.38 
62.79 -128.60 11.49 0.51 
60.75 -130.63 11.56 0.46 
65.56 -174.41 14.96 0.35 
60.65 -171.11 14.57 0.32 
35.91 -123.08 10.29 0.58 
18.51 -68.23 5.67 0.23 
37.04 -147.51 12.21 0.36 
38.67 -167.34 13.79 0.48 
35.64 -168.73 13.84 0.45 
-30.06 -156.92 12.82 0.43 
-32.77 -155.13 12.73 0.50 
-34.56 -137.63 11.39 0.37 
-31.06 -114.48 9.52 0.22 
-33.36 -114.34 9.56 0.59 
-35.38 -113.25 9.52 0.52 
-23.52 -70.55 5.97 0.32 
-33.24 -93.76 7.98 0.28 
-35.39 -94.15 8.07 0.39 
-30.95 -77.82 6.72 0.59 
-31.90 -76.00 6.62 0.50 
-32.80 -74.17 6.51 0.20 
-33.98 -73.07 6.47 0.39 
-35.52 -72.74 6.50 0.61 
-37.46 -73.18 6.60 0.23 
-39.66 -73.99 6.74 0.36 
-70.62 -125.96 11.59 0.21 
-72.33 -123.47 11.49 0.51 
-71.79 -117.40 11.05 0.10 
-72.47 -113.63 10.82 0.43 
-76.19 -114.62 11.05 0.26 
-72.62 -104.89 10.24 0.41 
-74.00 -102.66 10.16 0.59 
-70.48 -93.99 9.43 0.17 
-54.29 -69.60 7.09 0.65 
-55.00 -67.84 7.01 0.43 
-58.62 -69.57 7.30 0.31 
-63.60 -72.64 7.75 0.68 
-64.36 -70.75 7.68 0.49 
-66.78 -70.68 7.81 0.38 
-8.59 -8.76 0.98 0.35 
-76.48 -75.04 8.60 0.53 
-57.32 -54.16 6.33 0.13 
-89.22 -81.15 9.68 0.19 
-91.12 -79.78 9.72 0.37 
-99.75 -71.90 9.87 0.48 
-101.98 -70.61 9.96 0.49 
-111.82 -74.33 10.78 0.48 
-18.53 -9.05 1.65 0.92 
-124.01 -41.33 10.49 0.42 
-124.34 -38.85 10.46 0.24 
-130.82 -38.17 10.94 0.56 
-184.53 -38.98 15.14 0.29 
-158.33 -30.33 12.94 0.45 
-59.57 -10.25 4.85 0.77 
-59.62 -7.95 4.83 0.78 
-142.61 10.82 11.31 0.50 
-92.12 12.28 7.35 0.67 
-123.48 18.84 9.88 0.27 
-184.64 31.76 14.81 0.40 
-54.80 10.50 4.41 0.76 
-54.84 11.58 4.43 0.76 
-104.71 32.71 8.67 0.14 
-16.32 11.30 1.57 0.48 
-14.32 12.07 1.48 0.92 
-14.05 12.30 1.48 0.92 
-13.78 12.54 1.47 0.92 
-13.52 12.78 1.47 0.92 
-13.26 13.01 1.47 0.92 
-12.99 13.24 1.47 0.92 
-12.73 13.48 1.47 0.93 
-11.80 12.97 1.39 0.90 
-12.39 14.15 1.49 0.85 
-12.22 14.50 1.50 0.85 
-12.32 15.20 1.55 0.30 
-7.97 13.03 1.21 0.93 
-7.72 13.18 1.21 0.93 
-7.64 13.62 1.23 0.44 
5.02 13.37 1.13 0.92 
5.26 13.22 1.12 0.61 
11.57 19.76 1.81 0.80 
22.85 17.82 2.29 0.60 
20.70 9.63 1.81 0.44 
24.38 10.23 2.09 0.62 
24.41 9.71 2.08 0.87 
37.12 3.52 2.95 0.82 
50.97 -9.76 4.10 0.78 
51.08 -12.83 4.16 0.77 
159.05 -43.16 13.03 0.15 
152.23 -44.41 12.54 0.50 
152.31 -47.58 12.62 0.50 
152.40 -50.80 12.70 0.49 
152.49 -54.05 12.79 0.49 
152.58 -57.36 12.89 0.48 
152.67 -60.71 12.99 0.47 
152.76 -64.12 13.10 0.47 
152.85 -67.59 13.21 0.46 
152.95 -71.12 13.34 0.45 
153.04 -74.72 13.47 0.45 
153.14 -78.39 13.60 0.44 
58.12 -31.16 5.21 0.62 
153.35 -85.97 13.90 0.42 
153.45 -89.89 14.06 0.41 
153.56 -93.90 14.23 0.41 
153.67 -98.01 14.41 0.40 
153.78 -102.23 14.60 0.39 
153.90 -106.56 14.80 0.38 
154.02 -111.01 15.01 0.37 
11.44 -8.92 1.15 0.27 
142.64 -124.90 14.99 0.32 
138.94 -126.38 14.85 0.34 
23.43 -22.13 2.55 0.84 
23.11 -22.68 2.56 0.61 
27.93 -38.76 3.78 0.38 
63.90 -130.88 11.52 0.36 
60.75 -130.63 11.39 0.46 
60.58 -170.90 14.34 0.32 
35.91 -123.08 10.14 0.58 
37.03 -147.47 12.02 0.36 
38.29 -165.70 13.45 0.29 
35.63 -168.68 13.63 0.44 
-32.59 -154.28 12.47 0.52 
-36.59 -158.34 12.85 0.05 
-34.58 -137.69 11.22 0.39 
-31.45 -115.93 9.50 0.18 
-33.37 -114.39 9.42 0.59 
-35.42 -113.37 9.39 0.60 
-32.27 -96.80 8.07 0.42 
-33.09 -93.36 7.83 0.15 
-35.43 -94.25 7.96 0.58 
-36.26 -91.19 7.76 0.47 
-31.93 -76.08 6.52 0.50 
-32.90 -74.40 6.43 0.21 
-34.04 -73.19 6.38 0.60 
-35.55 -72.81 6.41 0.60 
-37.39 -73.03 6.49 0.69 
-40.20 -75.00 6.73 0.37 
-70.90 -126.46 11.46 0.10 
-72.37 -123.53 11.32 0.50 
-70.62 -115.48 10.70 0.51 
-72.56 -113.76 10.67 0.42 
-72.67 -109.32 10.38 0.48 
-72.72 -105.03 10.10 0.40 
-74.02 -102.70 10.01 0.59 
-53.76 -71.68 7.08 0.16 
-54.32 -69.65 6.98 0.63 
-55.10 -67.96 6.92 0.36 
-58.63 -69.58 7.19 0.54 
-62.86 -71.79 7.54 0.55 
-64.48 -70.89 7.58 0.57 
-66.61 -70.51 7.67 0.17 
-8.59 -8.75 0.97 0.35 
-76.54 -75.10 8.48 0.53 
-57.32 -54.15 6.23 0.42 
-89.25 -81.18 9.54 0.51 
-91.24 -79.89 9.59 0.37 
-97.90 -73.42 9.67 0.52 
-99.03 -71.38 9.65 0.49 
-102.01 -70.63 9.81 0.50 
-109.83 -73.01 10.43 0.34 
-114.26 -72.87 10.71 0.41 
-18.53 -9.05 1.63 0.92 
-125.80 -41.93 10.48 0.24 
-124.46 -38.88 10.31 0.24 
-130.82 -38.17 10.77 0.56 
-184.54 -38.98 14.91 0.29 
-158.26 -30.31 12.74 0.49 
-59.57 -10.25 4.78 0.77 
-59.62 -7.94 4.76 0.78 
-142.57 10.81 11.13 0.50 
-92.12 12.28 7.24 0.67 
-123.70 18.87 9.74 0.34 
-71.53 12.30 5.65 0.24 
-54.81 10.50 4.34 0.78 
-54.84 11.58 4.36 0.77 
-104.68 32.70 8.54 0.61 
-16.32 11.30 1.55 0.48 
-14.32 12.07 1.46 0.92 
-14.05 12.30 1.45 0.92 
-13.78 12.54 1.45 0.92 
-13.52 12.78 1.45 0.92 
-13.26 13.01 1.45 0.92 
-12.99 13.24 1.44 0.92 
-12.73 13.48 1.44 0.93 
-11.80 12.97 1.37 0.90 
-12.39 14.15 1.46 0.85 
-12.22 14.50 1.48 0.85 
-7.97 13.03 1.19 0.93 
-7.72 13.18 1.19 0.93 
-7.63 13.62 1.22 0.44 
5.02 13.36 1.11 0.92 
5.26 13.22 1.11 0.61 
11.57 19.76 1.78 0.80 
22.83 17.80 2.25 0.60 
20.70 9.63 1.78 0.44 
24.38 10.23 2.06 0.62 
24.41 9.71 2.05 0.87 
37.12 3.52 2.90 0.82 
50.97 -9.76 4.04 0.78 
51.08 -12.83 4.10 0.77 
159.05 -43.15 12.83 0.15 
152.23 -44.41 12.35 0.50 
152.31 -47.58 12.42 0.50 
152.40 -50.80 12.51 0.49 
152.49 -54.05 12.60 0.49 
152.57 -57.36 12.69 0.48 
152.66 -60.71 12.79 0.47 
152.76 -64.12 12.90 0.47 
152.85 -67.59 13.01 0.46 
152.94 -71.12 13.13 0.45 
153.04 -74.72 13.26 0.45 
153.14 -78.39 13.39 0.44 
58.12 -31.16 5.13 0.62 
153.34 -85.97 13.69 0.42 
153.45 -89.89 13.85 0.41 
153.56 -93.90 14.01 0.41 
153.67 -98.01 14.19 0.40 
153.78 -102.23 14.38 0.39 
153.90 -106.56 14.57 0.38 
154.02 -111.01 14.78 0.37 
154.14 -115.60 15.00 0.36 
11.44 -8.92 1.13 0.27 
148.04 -124.75 15.07 0.30 
142.64 -124.90 14.76 0.32 
138.94 -126.38 14.62 0.34 
23.43 -22.13 2.51 0.84 
23.11 -22.68 2.52 0.61 
27.93 -38.75 3.72 0.38 
63.86 -130.80 11.33 0.36 
60.75 -130.64 11.22 0.46 
65.29 -173.67 14.45 0.30 
60.51 -170.70 14.10 0.32 
58.26 -174.81 14.35 0.40 
35.91 -123.08 9.98 0.58 
37.02 -147.43 11.84 0.36 
38.28 -165.65 13.24 0.49 
-30.03 -156.80 12.43 0.16 
-32.61 -154.35 12.28 0.40 
-36.71 -158.85 12.69 0.45 
-34.68 -138.09 11.09 0.28 
-31.11 -114.65 9.25 0.41 
-33.39 -114.44 9.28 0.53 
-22.46 -71.90 5.86 0.49 
-37.70 -113.11 9.28 0.40 
-33.16 -93.54 7.73 0.48 
-35.46 -94.32 7.85 0.20 
-30.65 -77.07 6.46 0.48 
-31.97 -76.15 6.43 0.50 
-33.10 -74.86 6.37 0.43 
-34.07 -73.26 6.29 0.60 
-35.58 -72.87 6.31 0.61 
-38.25 -74.72 6.54 0.62 
-39.97 -74.57 6.59 0.43 
-42.81 -76.36 6.82 0.47 
-72.42 -123.63 11.16 0.44 
-70.56 -115.39 10.53 0.54 
-72.68 -113.95 10.52 0.08 
-70.75 -106.43 9.95 0.20 
-72.80 -105.14 9.96 0.35 
-74.09 -102.79 9.87 0.34 
-54.03 -72.04 7.01 0.67 
-54.40 -69.75 6.89 0.16 
-56.25 -69.37 6.95 0.57 
-58.65 -69.60 7.09 0.54 
-62.92 -71.86 7.44 0.55 
-64.47 -70.88 7.46 0.63 
-67.45 -71.40 7.65 0.66 
-8.59 -8.75 0.95 0.35 
-76.73 -75.29 8.37 0.61 
-87.97 -83.12 9.42 0.37 
-57.48 -52.28 6.05 0.56 
-91.30 -79.94 9.45 0.53 
-97.93 -73.44 9.53 0.52 
-99.12 -71.44 9.51 0.36 
-100.84 -69.82 9.55 0.59 
-109.75 -72.96 10.26 0.24 
-112.32 -71.64 10.37 0.57 
-18.53 -9.05 1.61 0.92 
-125.67 -41.89 10.31 0.41 
-125.42 -39.18 10.23 0.50 
-130.82 -38.17 10.61 0.56 
-60.57 -15.21 4.86 0.37 
-184.54 -38.98 14.69 0.29 
-158.20 -30.30 12.54 0.47 
-59.57 -10.25 4.71 0.77 
-59.62 -7.94 4.68 0.78 
-142.53 10.81 10.96 0.50 
-92.12 12.28 7.12 0.67 
-124.00 18.92 9.62 0.53 
-71.52 12.30 5.56 0.24 
-54.81 10.50 4.28 0.78 
-54.84 11.58 4.30 0.78 
-104.68 32.70 8.41 0.61 
-28.39 18.10 2.58 0.34 
-16.32 11.30 1.52 0.48 
-14.32 12.07 1.44 0.92 
-14.05 12.30 1.43 0.92 
-13.78 12.54 1.43 0.92 
-13.52 12.78 1.43 0.92 
-13.26 13.01 1.42 0.92 
-12.99 13.24 1.42 0.92 
-12.73 13.48 1.42 0.93 
-11.80 12.97 1.34 0.90 
-12.39 14.15 1.44 0.85 
-12.22 14.50 1.45 0.85 
-7.97 13.03 1.17 0.93 
-7.72 13.18 1.17 0.93 
-7.63 13.62 1.20 0.44 
5.02 13.36 1.09 0.92 
5.26 13.22 1.09 0.61 
11.57 19.76 1.76 0.80 
22.79 17.77 2.22 0.49 
20.70 9.63 1.75 0.44 
24.38 10.23 2.03 0.63 
24.41 9.71 2.01 0.87 
37.12 3.52 2.86 0.82 
50.97 -9.76 3.98 0.78 
51.08 -12.83 4.04 0.77 
159.05 -43.15 12.63 0.15 
152.23 -44.41 12.16 0.50 
152.31 -47.58 12.23 0.50 
152.40 -50.80 12.31 0.49 
152.48 -54.05 12.40 0.49 
152.57 -57.36 12.49 0.48 
152.66 -60.71 12.59 0.47 
152.75 -64.12 12.70 0.47 
152.85 -67.59 12.81 0.46 
152.94 -71.12 12.93 0.45 
153.04 -74.72 13.06 0.45 
153.14 -78.39 13.19 0.44 
58.12 -31.16 5.06 0.62 
153.34 -85.97 13.48 0.42 
153.45 -89.89 13.63 0.41 
153.56 -93.90 13.80 0.41 
153.67 -98.01 13.97 0.40 
153.78 -102.23 14.16 0.39 
153.90 -106.56 14.35 0.38 
154.02 -111.01 14.55 0.37 
154.14 -115.60 14.77 0.36 
11.44 -8.92 1.11 0.27 
153.67 -124.60 15.17 0.29 
148.04 -124.75 14.84 0.30 
142.64 -124.89 14.53 0.32 
138.94 -126.38 14.40 0.34 
23.43 -22.13 2.47 0.84 
23.11 -22.68 2.48 0.61 
27.93 -38.74 3.66 0.38 
64.11 -131.31 11.20 0.38 
60.89 -130.93 11.07 0.51 
61.55 -173.63 14.12 0.34 
58.23 -174.70 14.12 0.40 
35.91 -123.09 9.83 0.58 
37.02 -147.43 11.65 0.26 
38.27 -165.61 13.03 0.49 
35.46 -167.88 13.15 0.45 
-30.13 -157.32 12.28 0.28 
-32.63 -154.46 12.10 0.37 
-34.58 -137.69 10.88 0.31 
-31.26 -115.22 9.15 0.38 
-33.42 -114.54 9.15 0.49 
-35.76 -114.48 9.19 0.41 
-32.72 -98.16 7.93 0.03 
-33.19 -93.63 7.62 0.46 
-34.49 -91.74 7.51 0.26 
-30.69 -77.18 6.37 0.48 
-32.07 -76.41 6.35 0.23 
-35.29 -79.79 6.69 0.10 
-34.43 -74.03 6.26 0.62 
-35.62 -72.96 6.22 0.17 
-38.28 -74.78 6.44 0.61 
-40.09 -74.80 6.51 0.32 
-70.08 -125.00 10.99 0.44 
-72.41 -123.60 10.98 0.11 
-70.60 -115.46 10.37 0.44 
-72.92 -114.33 10.39 0.47 
-70.14 -105.52 9.71 0.40 
-72.12 -104.16 9.71 0.47 
-55.20 -76.59 7.24 0.42 
-54.04 -72.06 6.90 0.67 
-55.71 -71.44 6.94 0.39 
-55.25 -68.14 6.72 0.48 
-58.68 -69.63 6.98 0.48 
-63.04 -72.00 7.34 0.38 
-64.57 -70.99 7.36 0.28 
-68.12 -72.10 7.60 0.57 
-8.59 -8.75 0.94 0.35 
-77.23 -75.78 8.29 0.49 
-88.47 -83.59 9.33 0.47 
-89.17 -81.11 9.24 0.22 
-91.43 -80.05 9.32 0.55 
-98.15 -73.61 9.40 0.51 
-99.31 -71.58 9.38 0.09 
-100.95 -69.90 9.41 0.31 
-111.03 -73.81 10.22 0.43 
-110.87 -70.71 10.08 0.48 
-18.53 -9.05 1.58 0.92 
-125.56 -41.85 10.15 0.47 
-125.35 -39.16 10.07 0.52 
-130.82 -38.17 10.45 0.56 
-60.46 -15.18 4.78 0.37 
-158.13 -30.29 12.34 0.47 
-59.57 -10.25 4.63 0.75 
-59.62 -7.94 4.61 0.78 
-142.49 10.81 10.78 0.50 
-92.12 12.28 7.01 0.67 
-124.07 18.93 9.47 0.52 
-71.50 12.30 5.47 0.24 
-54.82 10.50 4.21 0.78 
-54.84 11.58 4.23 0.78 
-104.68 32.70 8.27 0.61 
-28.30 18.05 2.53 0.27 
-16.32 11.30 1.50 0.48 
-14.32 12.07 1.41 0.92 
-14.05 12.30 1.41 0.92 
-13.79 12.54 1.41 0.92 
-13.52 12.78 1.40 0.92 
-13.26 13.01 1.40 0.92 
-12.99 13.24 1.40 0.92 
-12.73 13.48 1.40 0.93 
-11.80 12.97 1.32 0.90 
-12.39 14.15 1.42 0.85 
-12.22 14.50 1.43 0.85 
-7.97 13.03 1.15 0.93 
-7.72 13.18 1.15 0.93 
-7.63 13.62 1.18 0.44 
5.02 13.36 1.08 0.92 
5.26 13.22 1.07 0.61 
11.57 19.76 1.73 0.80 
22.94 18.60 2.23 0.29 
22.76 17.75 2.18 0.84 
20.70 9.63 1.72 0.44 
24.38 10.23 1.99 0.63 
24.41 9.71 1.98 0.87 
37.12 3.52 2.81 0.82 
50.97 -9.76 3.92 0.78 
51.08 -12.83 3.97 0.77 
159.04 -43.15 12.43 0.15 
152.22 -44.41 11.96 0.50 
152.31 -47.58 12.04 0.50 
152.40 -50.79 12.12 0.49 
152.48 -54.05 12.21 0.49 
152.57 -57.36 12.30 0.48 
152.66 -60.71 12.40 0.47 
152.75 -64.12 12.50 0.47 
152.85 -67.59 12.61 0.46 
152.94 -71.12 12.73 0.45 
153.04 -74.72 12.85 0.45 
153.14 -78.39 12.98 0.44 
58.12 -31.15 4.98 0.62 
153.34 -85.97 13.26 0.42 
153.45 -89.89 13.42 0.41 
153.55 -93.90 13.58 0.41 
153.67 -98.01 13.75 0.40 
153.78 -102.23 13.93 0.39 
153.90 -106.56 14.12 0.38 
154.02 -111.01 14.33 0.37 
154.14 -115.59 14.54 0.36 
11.44 -8.92 1.09 0.27 
153.67 -124.60 14.93 0.29 
148.04 -124.75 14.61 0.30 
142.64 -124.89 14.31 0.32 
138.94 -126.38 14.17 0.34 
23.42 -22.13 2.43 0.84 
23.11 -22.68 2.44 0.61 
139.36 -142.02 15.01 0.31 
27.92 -38.74 3.60 0.38 
64.20 -131.48 11.04 0.38 
60.88 -130.93 10.90 0.51 
64.38 -171.26 13.81 0.41 
61.54 -173.61 13.90 0.36 
58.35 -175.05 13.92 0.42 
35.91 -123.09 9.67 0.58 
37.03 -147.45 11.47 0.26 
38.26 -165.58 12.82 0.49 
35.16 -166.43 12.84 0.40 
-33.05 -192.13 14.71 0.13 
-30.16 -157.46 12.10 0.33 
-32.67 -154.66 11.93 0.39 
-34.84 -138.75 10.79 0.21 
-31.27 -115.26 9.01 0.26 
-33.46 -114.67 9.01 0.21 
-35.51 -113.68 8.99 0.44 
-31.28 -93.85 7.46 0.49 
-33.23 -93.76 7.51 0.46 
-34.60 -92.03 7.42 0.45 
-30.73 -77.27 6.27 0.62 
-32.27 -76.88 6.29 0.56 
-32.50 -73.49 6.06 0.57 
-35.91 -77.23 6.43 0.35 
-35.75 -73.22 6.15 0.58 
-38.31 -74.84 6.34 0.61 
-39.03 -72.81 6.23 0.37 
-70.05 -124.95 10.81 0.36 
-72.57 -123.89 10.83 0.49 
-75.27 -123.09 10.89 0.42 
-71.75 -112.49 10.07 0.46 
-70.25 -105.67 9.57 0.32 
-72.18 -104.25 9.57 0.37 
-55.31 -76.73 7.14 0.25 
-54.07 -72.11 6.80 0.60 
-54.60 -70.01 6.70 0.65 
-55.31 -68.22 6.63 0.48 
-58.72 -69.68 6.88 0.48 
-63.12 -72.09 7.23 0.38 
-64.59 -71.02 7.24 0.66 
-67.94 -71.91 7.46 0.28 
-8.59 -8.75 0.93 0.35 
-77.32 -75.87 8.17 0.40 
-89.14 -84.21 9.25 0.57 
-88.57 -80.56 9.03 0.49 
-89.41 -78.28 8.97 0.45 
-98.03 -73.52 9.25 0.51 
-99.43 -71.66 9.25 0.52 
-102.23 -70.78 9.38 0.34 
-111.11 -73.86 10.07 0.43 
-110.99 -70.79 9.93 0.35 
-18.53 -9.05 1.56 0.92 
-127.51 -42.50 10.14 0.46 
-124.92 -39.03 9.87 0.45 
-130.82 -38.17 10.28 0.56 
-56.71 -15.39 4.43 0.36 
-60.35 -15.15 4.70 0.37 
-161.17 -30.87 12.38 0.43 
-59.57 -10.24 4.56 0.75 
-59.62 -7.94 4.54 0.78 
-142.45 10.80 10.61 0.50 
-92.12 12.28 6.90 0.67 
-124.13 18.94 9.32 0.52 
-71.48 12.30 5.39 0.24 
-54.82 10.50 4.14 0.78 
-54.84 11.58 4.16 0.78 
-104.67 32.70 8.14 0.61 
-38.36 18.73 3.17 0.71 
-28.28 18.03 2.49 0.82 
-16.32 11.30 1.47 0.48 
-14.32 12.07 1.39 0.92 
-14.05 12.30 1.39 0.92 
-13.79 12.54 1.38 0.92 
-13.52 12.78 1.38 0.92 
-13.26 13.01 1.38 0.92 
-12.99 13.24 1.38 0.92 
-12.73 13.48 1.38 0.93 
-11.80 12.97 1.30 0.90 
-12.39 14.15 1.40 0.85 
-12.22 14.50 1.41 0.85 
-7.97 13.03 1.13 0.93 
-7.72 13.18 1.13 0.93 
-7.63 13.62 1.16 0.44 
5.02 13.36 1.06 0.92 
5.26 13.22 1.06 0.61 
11.57 19.76 1.70 0.80 
22.88 18.55 2.19 0.29 
22.84 17.81 2.15 0.83 
20.70 9.63 1.70 0.44 
24.37 10.23 1.96 0.63 
24.41 9.71 1.95 0.87 
37.12 3.52 2.77 0.82 
50.97 -9.76 3.85 0.78 
51.08 -12.83 3.91 0.77 
159.04 -43.15 12.24 0.15 
152.22 -44.41 11.77 0.50 
152.31 -47.58 11.85 0.50 
152.39 -50.79 11.93 0.49 
152.48 -54.05 12.01 0.49 
152.57 -57.35 12.10 0.48 
152.66 -60.71 12.20 0.47 
152.75 -64.12 12.30 0.47 
152.85 -67.59 12.41 0.46 
152.94 -71.12 12.52 0.45 
153.04 -74.72 12.65 0.45 
153.14 -78.39 12.77 0.44 
58.12 -31.15 4.90 0.62 
153.34 -85.97 13.05 0.42 
153.45 -89.89 13.20 0.41 
153.55 -93.90 13.36 0.41 
153.66 -98.01 13.53 0.40 
153.78 -102.23 13.71 0.39 
153.89 -106.56 13.90 0.38 
154.01 -111.01 14.10 0.37 
154.14 -115.59 14.31 0.36 
11.44 -8.92 1.08 0.27 
153.67 -124.60 14.69 0.29 
148.04 -124.75 14.37 0.30 
142.64 -124.89 14.08 0.32 
138.94 -126.37 13.95 0.34 
23.42 -22.13 2.39 0.84 
23.11 -22.68 2.40 0.61 
139.36 -142.02 14.77 0.31 
27.92 -38.73 3.55 0.38 
60.88 -130.92 10.72 0.51 
62.93 -149.92 12.07 0.48 
64.35 -171.19 13.58 0.39 
61.53 -173.57 13.67 0.36 
59.06 -177.19 13.87 0.29 
35.91 -123.09 9.52 0.58 
37.03 -147.47 11.29 0.26 
38.25 -165.54 12.62 0.39 
35.13 -166.31 12.62 0.40 
-30.23 -157.83 11.93 0.45 
-32.73 -154.93 11.76 0.46 
-34.78 -138.51 10.60 0.35 
-33.41 -123.13 9.47 0.25 
-33.52 -114.91 8.89 0.49 
-35.57 -113.85 8.86 0.36 
-31.67 -95.02 7.44 0.32 
-33.32 -94.00 7.41 0.45 
-34.71 -92.34 7.32 0.42 
-30.75 -77.33 6.18 0.62 
-32.36 -77.08 6.21 0.41 
-32.69 -73.92 6.00 0.60 
-34.20 -73.54 6.02 0.60 
-38.44 -78.74 6.51 0.11 
-37.73 -73.70 6.15 0.41 
-39.10 -72.95 6.15 0.38 
-70.10 -125.03 10.64 0.36 
-71.50 -122.06 10.50 0.39 
-70.85 -115.86 10.08 0.47 
-71.84 -112.63 9.92 0.36 
-74.48 -112.03 9.99 0.49 
-72.05 -104.05 9.40 0.46 
-55.40 -76.86 7.04 0.47 
-54.15 -72.20 6.70 0.49 
-54.63 -70.05 6.60 0.65 
-55.44 -68.37 6.54 0.42 
-60.14 -71.36 6.93 0.49 
-63.30 -72.29 7.13 0.63 
-64.61 -71.03 7.13 0.66 
-69.46 -73.52 7.51 0.39 
-8.59 -8.75 0.91 0.35 
-77.42 -75.97 8.05 0.40 
-88.77 -83.87 9.07 0.48 
-88.65 -80.64 8.90 0.49 
-89.65 -78.50 8.85 0.28 
-91.65 -77.23 8.90 0.11 
-98.07 -73.55 9.10 0.51 
-99.55 -71.75 9.11 0.50 
-101.34 -70.17 9.15 0.56 
-110.29 -73.32 9.83 0.57 
-111.15 -70.89 9.79 0.43 
-18.53 -9.05 1.53 0.92 
-127.46 -42.48 9.98 0.51 
-123.99 -38.74 9.65 0.16 
-56.43 -16.46 4.36 0.48 
-56.82 -15.42 4.37 0.36 
-60.24 -15.13 4.61 0.37 
-160.64 -30.77 12.14 0.12 
-59.56 -10.24 4.49 0.76 
-59.62 -7.95 4.47 0.78 
-79.59 -9.08 5.95 0.32 
-92.12 12.28 6.79 0.67 
-124.56 19.00 9.20 0.60 
-71.47 12.29 5.30 0.24 
-54.83 10.50 4.08 0.78 
-54.84 11.58 4.09 0.78 
-104.67 32.70 8.01 0.61 
-16.32 11.30 1.45 0.48 
-14.32 12.07 1.37 0.92 
-14.05 12.30 1.36 0.92 
-13.79 12.54 1.36 0.92 
-13.52 12.78 1.36 0.92 
-13.26 13.01 1.36 0.92 
-12.99 13.24 1.36 0.93 
-12.73 13.48 1.35 0.93 
-11.80 12.97 1.28 0.90 
-12.39 14.15 1.37 0.85 
-12.22 14.50 1.39 0.85 
-7.97 13.03 1.12 0.93 
-7.72 13.18 1.12 0.93 
-7.63 13.62 1.14 0.44 
5.02 13.36 1.04 0.92 
5.26 13.21 1.04 0.61 
11.57 19.76 1.67 0.80 
22.87 18.55 2.15 0.54 
22.84 17.81 2.12 0.83 
20.70 9.63 1.67 0.44 
24.37 10.23 1.93 0.63 
24.41 9.71 1.92 0.87 
37.12 3.52 2.72 0.82 
50.97 -9.76 3.79 0.78 
51.08 -12.83 3.85 0.77 
159.04 -43.15 12.04 0.15 
152.22 -44.41 11.58 0.50 
152.31 -47.58 11.66 0.50 
152.39 -50.79 11.73 0.49 
152.48 -54.05 11.82 0.49 
152.57 -57.35 11.91 0.48 
152.66 -60.71 12.00 0.47 
152.75 -64.12 12.10 0.47 
152.84 -67.59 12.21 0.46 
152.94 -71.12 12.32 0.45 
153.04 -74.72 12.44 0.45 
153.13 -78.39 12.57 0.44 
58.12 -31.15 4.82 0.62 
153.34 -85.97 12.84 0.42 
153.44 -89.89 12.99 0.41 
153.55 -93.90 13.15 0.41 
153.66 -98.01 13.31 0.40 
153.78 -102.22 13.49 0.39 
153.89 -106.56 13.67 0.38 
154.01 -111.01 13.87 0.37 
154.14 -115.59 14.07 0.36 
11.44 -8.92 1.06 0.27 
153.67 -124.60 14.45 0.29 
148.04 -124.75 14.14 0.30 
142.64 -124.89 13.85 0.32 
138.94 -126.37 13.72 0.34 
23.42 -22.13 2.35 0.84 
23.11 -22.68 2.37 0.61 
139.36 -142.02 14.54 0.31 
27.91 -38.73 3.49 0.38 
60.88 -130.92 10.55 0.51 
61.51 -173.52 13.45 0.36 
59.17 -177.54 13.67 0.34 
35.91 -123.09 9.37 0.58 
37.04 -147.49 11.11 0.26 
38.24 -165.47 12.41 0.39 
35.08 -166.08 12.40 0.39 
-32.45 -188.64 13.98 0.45 
-29.68 -154.96 11.53 0.52 
-32.69 -154.76 11.56 0.51 
-32.26 -139.59 10.47 0.38 
-34.16 -136.04 10.25 0.50 
-31.17 -114.89 8.70 0.41 
-33.56 -115.04 8.75 0.38 
-35.66 -114.15 8.74 0.34 
-31.41 -94.24 7.26 0.37 
-33.33 -94.02 7.29 0.50 
-34.82 -92.64 7.23 0.53 
-30.78 -77.39 6.08 0.62 
-31.98 -76.19 6.04 0.64 
-32.70 -73.95 5.91 0.60 
-34.23 -73.60 5.93 0.61 
-36.58 -74.92 6.09 0.33 
-37.80 -73.83 6.06 0.41 
-40.75 -76.02 6.30 0.36 
-42.70 -76.16 6.38 0.12 
-71.24 -121.61 10.30 0.42 
-71.69 -117.23 10.04 0.33 
-71.96 -112.83 9.78 0.50 
-70.78 -106.47 9.34 0.22 
-72.16 -104.22 9.26 0.20 
-74.30 -103.09 9.28 0.43 
-54.29 -72.39 6.61 0.32 
-54.92 -70.42 6.52 0.06 
-55.65 -68.63 6.45 0.37 
-60.20 -71.44 6.82 0.49 
-63.49 -72.51 7.04 0.07 
-64.69 -71.12 7.02 0.63 
-66.04 -69.90 7.02 0.67 
-8.59 -8.75 0.90 0.35 
-80.63 -79.12 8.25 0.44 
-88.43 -83.54 8.89 0.54 
-87.45 -79.55 8.64 0.29 
-89.76 -78.59 8.72 0.21 
-93.13 -78.48 8.90 0.53 
-98.23 -73.66 8.97 0.28 
-98.63 -71.09 8.88 0.49 
-101.36 -70.18 9.01 0.56 
-110.13 -73.21 9.66 0.54 
-111.26 -70.96 9.64 0.46 
-18.53 -9.05 1.51 0.92 
-127.39 -42.46 9.81 0.51 
-123.69 -38.64 9.47 0.16 
-56.52 -16.49 4.30 0.48 
-56.93 -15.45 4.31 0.35 
-60.13 -15.10 4.53 0.37 
-161.07 -30.85 11.98 0.36 
-59.57 -10.24 4.42 0.77 
-59.63 -7.95 4.39 0.78 
-74.80 9.97 5.42 0.73 
-74.84 11.42 5.44 0.73 
-71.45 12.29 5.21 0.24 
-54.83 10.50 4.01 0.79 
-54.84 11.58 4.03 0.78 
-104.67 32.70 7.88 0.61 
-16.32 11.30 1.43 0.48 
-14.32 12.07 1.35 0.92 
-14.05 12.30 1.34 0.92 
-13.79 12.54 1.34 0.92 
-13.52 12.78 1.34 0.92 
-13.26 13.01 1.33 0.92 
-12.99 13.24 1.33 0.93 
-12.73 13.48 1.33 0.93 
-11.80 12.97 1.26 0.90 
-12.39 14.15 1.35 0.85 
-12.22 14.50 1.36 0.85 
-7.97 13.03 1.10 0.93 
-7.72 13.18 1.10 0.93 
-7.63 13.62 1.12 0.44 
5.02 13.36 1.03 0.92 
5.25 13.21 1.02 0.61 
11.57 19.76 1.64 0.80 
22.84 17.81 2.08 0.83 
20.70 9.63 1.64 0.44 
33.89 14.99 2.66 0.65 
24.37 10.23 1.90 0.63 
24.41 9.71 1.89 0.87 
37.12 3.52 2.68 0.82 
50.97 -9.76 3.73 0.78 
51.08 -12.83 3.78 0.77 
159.04 -43.15 11.84 0.15 
152.22 -44.41 11.39 0.50 
152.31 -47.58 11.46 0.50 
152.39 -50.79 11.54 0.49 
152.48 -54.05 11.62 0.49 
152.57 -57.35 11.71 0.48 
152.66 -60.71 11.80 0.47 
152.75 -64.12 11.90 0.47 
152.84 -67.59 12.01 0.46 
152.94 -71.12 12.12 0.45 
153.03 -74.72 12.24 0.45 
153.13 -78.39 12.36 0.44 
58.12 -31.15 4.74 0.62 
153.34 -85.97 12.63 0.42 
153.44 -89.89 12.78 0.41 
153.55 -93.90 12.93 0.41 
153.66 -98.01 13.09 0.40 
153.77 -102.22 13.27 0.39 
153.89 -106.55 13.45 0.38 
154.01 -111.01 13.64 0.37 
154.13 -115.59 13.84 0.36 
11.44 -8.92 1.04 0.27 
153.67 -124.60 14.21 0.29 
148.04 -124.75 13.91 0.30 
142.64 -124.89 13.62 0.32 
138.93 -126.37 13.49 0.34 
23.42 -22.13 2.31 0.84 
23.11 -22.68 2.33 0.61 
139.36 -142.02 14.30 0.31 
27.91 -38.72 3.43 0.39 
60.88 -130.91 10.37 0.51 
61.49 -173.48 13.22 0.36 
59.24 -177.73 13.46 0.34 
35.91 -123.09 9.21 0.42 
37.04 -147.50 10.93 0.26 
39.01 -168.81 12.45 0.29 
35.05 -165.93 12.19 0.39 
-29.28 -191.93 13.95 0.22 
-32.47 -188.80 13.76 0.36 
-29.67 -154.92 11.33 0.47 
-32.71 -154.83 11.37 0.38 
-32.28 -139.66 10.30 0.36 
-34.18 -136.11 10.08 0.41 
-31.24 -115.12 8.57 0.24 
-32.95 -112.95 8.45 0.53 
-35.46 -113.51 8.54 0.30 
-31.78 -95.33 7.22 0.56 
-32.67 -92.16 7.02 0.64 
-34.81 -92.60 7.11 0.33 
-30.81 -77.47 5.99 0.49 
-32.58 -77.62 6.05 0.37 
-32.72 -73.99 5.81 0.60 
-35.06 -75.40 5.97 0.52 
-36.63 -75.02 6.00 0.33 
-37.88 -74.00 5.97 0.33 
-40.48 -75.52 6.16 0.29 
-70.80 -126.28 10.40 0.38 
-71.32 -121.75 10.14 0.32 
-71.46 -116.87 9.84 0.39 
-71.93 -112.78 9.61 0.50 
-71.78 -107.98 9.32 0.37 
-73.75 -106.51 9.31 0.24 
-74.42 -103.24 9.14 0.35 
-53.72 -71.63 6.43 0.39 
-55.06 -70.59 6.43 0.33 
-55.69 -68.68 6.35 0.41 
-58.07 -68.91 6.47 0.46 
-63.66 -72.71 6.94 0.61 
