VERSION 0.7
FIELDS x y z intensity
SIZE 4 4 4 8
TYPE F F F F
COUNT 1 1 1 1
WIDTH 1950
HEIGHT 1
VIEWPOINT 0.0 0.0 0.0 1.0 0.0 0.0 0.0
POINTS 1950
DATA ascii
-19.24 76.60 -1.61 0.54 
-17.67 76.48 -1.60 0.56 
-3.14 14.88 -0.31 0.40 
-2.87 15.00 -0.31 0.62 
-13.95 81.11 -1.67 0.70 
-12.44 81.52 -1.68 0.68 
-11.01 82.64 -1.69 0.43 
-9.49 83.22 -1.70 0.31 
-8.12 85.57 -1.75 0.62 
-6.58 86.75 -1.77 0.58 
-4.99 87.82 -1.79 0.43 
-0.48 12.67 -0.26 0.95 
-1.67 88.22 -1.79 0.66 
-0.00 87.69 -1.78 0.60 
1.66 87.67 -1.78 0.67 
3.30 87.16 -1.77 0.65 
4.94 86.91 -1.77 0.67 
6.64 87.50 -1.78 0.70 
8.34 87.84 -1.79 0.69 
10.07 88.31 -1.81 0.57 
11.91 89.41 -1.83 0.49 
13.88 90.96 -1.87 0.64 
15.58 90.60 -1.87 0.55 
2.77 14.44 -0.30 0.66 
19.00 89.97 -1.87 0.68 
21.09 91.25 -1.90 0.67 
23.08 91.92 -1.93 0.32 
44.77 165.01 -3.47 0.01 
47.94 164.33 -3.48 0.01 
51.11 163.59 -3.48 0.01 
54.26 162.80 -3.49 0.01 
25.80 72.78 -1.57 0.02 
4.40 11.71 -0.25 0.69 
28.61 71.94 -1.57 0.02 
5.65 13.46 -0.30 0.32 
5.81 13.15 -0.29 0.93 
6.08 13.07 -0.29 0.58 
34.15 69.94 -1.58 0.02 
35.52 69.38 -1.58 0.02 
36.88 68.79 -1.59 0.02 
38.23 68.18 -1.59 0.02 
39.57 67.54 -1.59 0.02 
40.90 66.88 -1.59 0.02 
12.47 19.55 -0.47 0.76 
43.52 65.47 -1.60 0.02 
44.82 64.73 -1.60 0.02 
46.11 63.97 -1.60 0.02 
47.38 63.18 -1.61 0.02 
16.93 21.70 -0.56 0.67 
17.48 21.56 -0.56 0.42 
51.12 60.67 -1.61 0.02 
52.34 59.78 -1.62 0.02 
53.55 58.87 -1.62 0.01 
54.74 57.94 -1.62 0.01 
55.91 56.98 -1.62 0.01 
57.07 56.00 -1.63 0.01 
58.21 55.00 -1.63 0.01 
59.34 53.97 -1.63 0.01 
8.19 7.17 -0.22 0.24 
8.19 6.90 -0.22 0.32 
8.19 6.64 -0.21 0.33 
8.24 6.43 -0.21 0.40 
8.31 6.23 -0.21 0.45 
8.58 6.18 -0.21 0.38 
8.99 6.22 -0.22 0.47 
9.35 6.21 -0.23 0.43 
9.74 6.22 -0.23 0.42 
69.35 42.41 -1.65 0.01 
70.07 41.04 -1.65 0.01 
70.76 39.67 -1.65 0.01 
71.42 38.29 -1.65 0.01 
72.05 36.88 -1.65 0.01 
72.65 35.47 -1.64 0.01 
20.39 9.48 -0.46 0.46 
42.11 18.62 -0.94 0.75 
74.62 31.32 -1.64 0.01 
25.11 9.99 -0.55 0.63 
25.08 9.43 -0.54 0.86 
76.34 27.06 -1.65 0.01 
76.85 25.61 -1.65 0.01 
77.33 24.16 -1.65 0.01 
50.28 14.67 -1.06 0.48 
78.18 21.21 -1.65 0.01 
78.56 19.73 -1.65 0.01 
78.91 18.24 -1.65 0.01 
79.23 16.74 -1.65 0.01 
79.51 15.23 -1.65 0.01 
79.75 13.72 -1.64 0.01 
39.84 6.08 -0.82 0.35 
40.17 5.35 -0.82 0.20 
80.57 9.19 -1.65 0.01 
80.83 7.67 -1.65 0.01 
37.81 2.87 -0.77 0.81 
45.29 2.57 -0.92 0.34 
39.76 1.51 -0.81 0.56 
40.14 0.76 -0.82 0.84 
39.42 -0.00 -0.80 0.25 
81.85 -1.55 -1.66 0.01 
49.57 -1.88 -1.01 0.30 
49.56 -2.82 -1.01 0.44 
45.16 -3.43 -0.92 0.74 
81.74 -7.76 -1.67 0.01 
81.66 -9.31 -1.67 0.01 
52.92 -7.05 -1.09 0.44 
81.28 -12.40 -1.67 0.01 
49.90 -8.58 -1.03 0.41 
80.73 -15.46 -1.67 0.01 
51.25 -10.83 -1.06 0.78 
80.11 -18.51 -1.67 0.01 
79.70 -20.01 -1.67 0.01 
79.31 -21.52 -1.67 0.01 
58.48 -17.06 -1.24 0.32 
78.33 -24.47 -1.67 0.01 
77.82 -25.94 -1.67 0.01 
53.66 -19.02 -1.16 0.61 
76.67 -28.82 -1.66 0.01 
76.06 -30.25 -1.66 0.01 
65.34 -27.43 -1.44 0.67 
61.74 -27.30 -1.37 0.24 
74.00 -34.41 -1.66 0.01 
73.25 -35.77 -1.66 0.01 
56.84 -29.10 -1.30 0.69 
58.31 -31.26 -1.34 0.69 
70.83 -39.71 -1.65 0.01 
69.96 -40.98 -1.65 0.01 
69.06 -42.23 -1.65 0.01 
68.13 -43.46 -1.64 0.01 
32.10 -21.34 -0.78 0.77 
66.19 -45.83 -1.64 0.01 
34.38 -24.78 -0.86 0.53 
51.30 -38.47 -1.30 0.62 
11.81 -9.21 -0.30 0.46 
48.19 -39.07 -1.26 0.59 
47.61 -40.12 -1.27 0.61 
47.60 -41.68 -1.29 0.58 
47.66 -43.35 -1.31 0.32 
23.62 -22.32 -0.66 0.84 
23.27 -22.83 -0.66 0.62 
56.30 -57.38 -1.63 0.37 
56.30 -59.59 -1.67 0.49 
36.53 -40.16 -1.10 0.53 
56.29 -64.29 -1.74 0.46 
56.28 -66.79 -1.78 0.45 
11.63 -14.35 -0.38 0.73 
11.28 -14.47 -0.37 0.56 
6.56 -8.75 -0.22 0.47 
6.43 -8.92 -0.22 0.48 
27.34 -39.49 -0.98 0.43 
48.88 -73.53 -1.79 0.01 
47.48 -74.43 -1.79 0.01 
46.05 -75.31 -1.79 0.01 
44.61 -76.15 -1.79 0.01 
43.15 -76.96 -1.79 0.01 
41.67 -77.75 -1.79 0.01 
40.18 -78.50 -1.79 0.01 
35.09 -71.87 -1.63 0.01 
24.75 -53.23 -1.19 0.72 
20.08 -45.40 -1.01 0.68 
22.33 -53.20 -1.17 0.73 
21.55 -54.18 -1.19 0.31 
24.27 -64.56 -1.40 0.71 
21.38 -60.31 -1.30 0.73 
20.10 -60.31 -1.29 0.74 
17.72 -56.72 -1.21 0.75 
16.54 -56.70 -1.20 0.75 
15.39 -56.72 -1.19 0.75 
14.23 -56.68 -1.19 0.77 
12.46 -53.92 -1.12 0.69 
13.48 -63.79 -1.33 0.75 
12.22 -63.81 -1.32 0.72 
10.38 -60.34 -1.24 0.77 
9.21 -60.36 -1.24 0.77 
8.04 -60.35 -1.24 0.78 
7.01 -61.45 -1.26 0.08 
6.80 -71.65 -1.46 0.10 
5.97 -78.72 -1.60 0.01 
3.99 -70.17 -1.43 0.35 
2.16 -56.91 -1.16 0.80 
1.08 -56.90 -1.16 0.79 
0.00 -53.70 -1.09 0.28 
-1.01 -53.45 -1.09 0.81 
-2.03 -53.48 -1.09 0.80 
-3.04 -53.48 -1.09 0.80 
-4.05 -53.46 -1.09 0.80 
-5.73 -60.34 -1.23 0.78 
-6.89 -60.46 -1.24 0.68 
-8.53 -64.04 -1.31 0.76 
-9.73 -63.80 -1.31 0.76 
-9.81 -57.03 -1.18 0.78 
-10.92 -57.00 -1.18 0.78 
-12.05 -57.03 -1.18 0.77 
-12.46 -53.91 -1.12 0.48 
-13.44 -53.53 -1.12 0.77 
-14.55 -53.62 -1.13 0.76 
-15.64 -53.61 -1.13 0.76 
-16.74 -53.59 -1.14 0.76 
-26.84 -80.53 -1.73 0.01 
-28.32 -79.89 -1.72 0.01 
-29.56 -78.64 -1.71 0.10 
-31.23 -78.54 -1.72 0.01 
-32.67 -77.82 -1.72 0.01 
-34.09 -77.08 -1.71 0.01 
-35.15 -75.59 -1.69 0.45 
-36.32 -74.40 -1.68 0.69 
-38.23 -74.69 -1.71 0.01 
-39.58 -73.84 -1.70 0.01 
-40.91 -72.97 -1.70 0.01 
-42.22 -72.07 -1.70 0.01 
-7.59 -12.41 -0.30 0.94 
-44.78 -70.20 -1.69 0.01 
-24.48 -36.83 -0.90 0.69 
-28.49 -41.15 -1.02 0.47 
-28.50 -39.55 -0.99 0.49 
-28.77 -38.36 -0.97 0.54 
-29.18 -37.41 -0.96 0.69 
-30.36 -37.45 -0.98 0.58 
-53.07 -62.97 -1.67 0.01 
-54.16 -61.86 -1.67 0.01 
-28.79 -31.65 -0.87 0.51 
-8.15 -8.63 -0.24 0.89 
-28.77 -29.32 -0.83 0.60 
-28.78 -28.24 -0.82 0.61 
-28.80 -27.21 -0.81 0.66 
-23.29 -21.18 -0.64 0.82 
-29.88 -26.16 -0.81 0.35 
-45.36 -38.23 -1.21 0.50 
-52.97 -42.95 -1.39 0.35 
-40.26 -31.40 -1.04 0.65 
-40.28 -30.21 -1.02 0.65 
-29.12 -20.99 -0.73 0.06 
-29.07 -20.13 -0.72 0.72 
-29.09 -19.34 -0.71 0.73 
-29.10 -18.56 -0.70 0.74 
-29.33 -17.94 -0.70 0.16 
-43.96 -25.75 -1.04 0.81 
-52.68 -29.53 -1.23 0.69 
-40.38 -21.64 -0.93 0.65 
-40.36 -20.66 -0.92 0.75 
-18.10 -8.84 -0.41 0.62 
-40.46 -18.82 -0.91 0.58 
-40.43 -17.88 -0.90 0.71 
-41.53 -17.43 -0.92 0.28 
-44.60 -17.74 -0.98 0.73 
-44.63 -16.78 -0.97 0.78 
-52.84 -18.73 -1.14 0.76 
-52.85 -17.62 -1.13 0.76 
-53.15 -16.61 -1.13 0.80 
-53.54 -15.62 -1.13 0.80 
-53.93 -14.63 -1.14 0.79 
-14.67 -3.68 -0.31 0.71 
-14.92 -3.45 -0.31 0.68 
-56.41 -11.92 -1.17 0.46 
-58.16 -11.14 -1.20 0.45 
-62.50 -10.75 -1.29 0.12 
-69.65 -10.63 -1.43 0.02 
-69.75 -9.29 -1.43 0.02 
-11.39 -1.30 -0.23 0.85 
-77.01 -7.31 -1.57 0.02 
-11.15 -0.85 -0.23 0.54 
-11.08 -0.63 -0.23 0.54 
-11.03 -0.42 -0.22 0.50 
-10.96 -0.21 -0.22 0.50 
-10.93 -0.00 -0.24 0.51 
-11.01 0.21 -0.24 0.50 
-11.06 0.42 -0.24 0.55 
-11.13 0.63 -0.24 0.54 
-72.26 5.48 -1.56 0.02 
-11.38 1.08 -0.25 0.86 
-59.03 6.73 -1.28 0.41 
-71.61 9.54 -1.55 0.02 
-71.19 10.86 -1.55 0.02 
-64.69 11.13 -1.41 0.10 
-64.18 12.29 -1.41 0.02 
-63.88 13.49 -1.40 0.02 
-63.55 14.69 -1.40 0.02 
-63.20 15.87 -1.40 0.02 
-62.84 17.05 -1.40 0.02 
-43.54 12.70 -0.98 0.77 
-43.77 13.67 -0.99 0.31 
-62.51 20.83 -1.42 0.02 
-62.37 22.11 -1.42 0.02 
-7.46 2.80 -0.17 0.30 
-7.05 2.80 -0.16 0.32 
-6.69 2.81 -0.16 0.34 
-6.36 2.81 -0.15 0.36 
-6.06 2.82 -0.14 0.37 
-5.82 2.84 -0.14 0.45 
-5.60 2.87 -0.14 0.58 
-5.48 2.94 -0.13 0.79 
-5.47 3.07 -0.13 0.86 
-5.45 3.19 -0.14 0.85 
-5.42 3.32 -0.14 0.85 
-5.40 3.44 -0.14 0.84 
-5.42 3.60 -0.14 0.66 
-5.45 3.77 -0.14 0.65 
-5.47 3.94 -0.15 0.67 
-56.69 42.51 -1.52 0.02 
-21.05 16.42 -0.57 0.63 
-55.00 44.60 -1.52 0.02 
-54.13 45.61 -1.52 0.02 
-53.24 46.62 -1.52 0.02 
-13.51 12.29 -0.39 0.92 
-13.25 12.52 -0.39 0.92 
-12.99 12.75 -0.39 0.93 
-12.73 12.97 -0.39 0.93 
-12.47 13.20 -0.39 0.93 
-12.21 13.42 -0.39 0.93 
-11.95 13.65 -0.39 0.93 
-11.68 13.86 -0.39 0.93 
-44.50 54.89 -1.52 0.02 
-43.46 55.72 -1.52 0.02 
-42.39 56.53 -1.52 0.02 
-41.32 57.32 -1.52 0.02 
-40.23 58.10 -1.52 0.02 
-39.12 58.85 -1.52 0.02 
-38.01 59.59 -1.52 0.02 
-36.88 60.30 -1.52 0.02 
-35.73 61.00 -1.52 0.02 
-7.34 13.09 -0.32 0.48 
-7.05 13.14 -0.32 0.94 
-6.85 13.38 -0.32 0.43 
-31.05 63.58 -1.52 0.02 
-21.14 45.45 -1.08 0.82 
-28.63 64.75 -1.52 0.02 
-2.92 6.96 -0.16 0.05 
-2.75 6.92 -0.16 0.05 
-2.58 6.87 -0.16 0.05 
-2.41 6.81 -0.16 0.05 
-2.28 6.83 -0.16 0.05 
-2.14 6.84 -0.15 0.05 
-2.01 6.90 -0.15 0.07 
-18.60 68.56 -1.53 0.02 
-17.31 68.94 -1.53 0.02 
-16.01 69.30 -1.53 0.02 
-3.14 14.88 -0.33 0.49 
-2.87 14.99 -0.33 0.65 
-12.08 70.22 -1.53 0.02 
-10.75 70.48 -1.53 0.02 
-9.42 70.72 -1.54 0.02 
-8.09 70.94 -1.54 0.02 
-6.75 71.13 -1.54 0.02 
-5.41 71.30 -1.54 0.02 
-4.06 71.45 -1.54 0.02 
-0.48 12.67 -0.27 0.95 
-1.36 71.67 -1.54 0.02 
0.00 71.74 -1.54 0.02 
1.36 71.79 -1.55 0.02 
2.72 71.82 -1.55 0.02 
4.08 71.82 -1.55 0.02 
5.45 71.80 -1.55 0.02 
6.81 71.75 -1.55 0.02 
8.17 71.68 -1.55 0.02 
9.54 71.58 -1.55 0.02 
10.90 71.46 -1.56 0.02 
12.27 71.32 -1.56 0.02 
2.77 14.45 -0.32 0.61 
14.99 70.95 -1.56 0.02 
16.35 70.73 -1.56 0.02 
17.70 70.49 -1.56 0.02 
19.05 70.22 -1.57 0.02 
20.40 69.93 -1.57 0.02 
21.75 69.61 -1.57 0.02 
23.09 69.27 -1.57 0.02 
24.42 68.91 -1.57 0.02 
4.40 11.71 -0.27 0.69 
27.08 68.10 -1.58 0.02 
5.65 13.46 -0.31 0.32 
5.81 13.15 -0.31 0.93 
6.08 13.07 -0.31 0.58 
32.32 66.19 -1.59 0.02 
33.61 65.66 -1.59 0.02 
34.89 65.10 -1.59 0.02 
36.17 64.51 -1.59 0.02 
37.43 63.90 -1.59 0.02 
38.69 63.27 -1.60 0.02 
12.47 19.55 -0.50 0.76 
41.17 61.93 -1.60 0.02 
42.39 61.22 -1.60 0.02 
43.60 60.50 -1.60 0.02 
44.81 59.75 -1.61 0.02 
16.91 21.68 -0.59 0.67 
13.28 16.38 -0.45 0.15 
48.33 57.35 -1.61 0.02 
49.48 56.51 -1.62 0.02 
50.62 55.65 -1.62 0.02 
51.74 54.76 -1.62 0.02 
52.84 53.85 -1.62 0.02 
53.93 52.92 -1.63 0.02 
55.00 51.97 -1.63 0.02 
56.06 50.99 -1.63 0.02 
8.15 7.14 -0.23 0.32 
8.16 6.88 -0.23 0.32 
8.17 6.62 -0.23 0.33 
8.22 6.41 -0.22 0.40 
8.29 6.22 -0.22 0.45 
8.57 6.17 -0.23 0.48 
8.97 6.21 -0.23 0.46 
9.33 6.21 -0.24 0.43 
9.73 6.21 -0.25 0.42 
65.14 39.83 -1.64 0.01 
65.81 38.55 -1.64 0.01 
66.46 37.26 -1.64 0.01 
67.08 35.96 -1.64 0.01 
67.67 34.64 -1.64 0.01 
68.27 33.33 -1.64 0.01 
20.38 9.48 -0.48 0.79 
42.13 18.63 -0.99 0.67 
69.82 29.31 -1.63 0.01 
25.11 9.99 -0.58 0.63 
25.08 9.43 -0.58 0.86 
71.43 25.32 -1.63 0.01 
71.90 23.97 -1.63 0.01 
72.35 22.60 -1.63 0.01 
50.33 14.68 -1.13 0.48 
73.15 19.85 -1.63 0.01 
35.30 8.86 -0.78 0.82 
35.72 8.26 -0.79 0.64 
74.13 15.66 -1.63 0.01 
74.39 14.25 -1.63 0.01 
74.62 12.84 -1.63 0.01 
39.91 6.09 -0.87 0.68 
40.28 5.37 -0.87 0.38 
75.14 8.57 -1.63 0.01 
75.38 7.15 -1.63 0.01 
37.81 2.87 -0.82 0.81 
45.33 2.58 -0.98 0.34 
39.76 1.51 -0.86 0.55 
40.15 0.76 -0.86 0.72 
39.42 -0.00 -0.85 0.25 
76.17 -1.44 -1.64 0.01 
49.66 -1.88 -1.07 0.27 
49.61 -2.82 -1.07 0.39 
45.15 -3.42 -0.97 0.74 
76.04 -7.22 -1.64 0.01 
75.90 -8.66 -1.64 0.01 
52.98 -7.06 -1.15 0.44 
75.57 -11.53 -1.65 0.01 
75.32 -12.96 -1.64 0.01 
75.11 -14.39 -1.65 0.01 
51.25 -10.83 -1.13 0.78 
74.39 -17.19 -1.64 0.01 
74.07 -18.60 -1.64 0.01 
73.65 -19.98 -1.64 0.01 
73.21 -21.36 -1.64 0.01 
72.78 -22.74 -1.64 0.01 
72.26 -24.08 -1.64 0.01 
53.66 -19.02 -1.23 0.61 
71.18 -26.76 -1.64 0.01 
70.59 -28.07 -1.63 0.01 
65.31 -27.42 -1.52 0.64 
61.64 -27.26 -1.45 0.59 
68.67 -31.93 -1.63 0.01 
67.97 -33.19 -1.63 0.01 
56.84 -29.09 -1.37 0.69 
58.31 -31.25 -1.42 0.69 
65.74 -36.86 -1.62 0.01 
64.94 -38.04 -1.62 0.01 
64.11 -39.20 -1.62 0.01 
63.26 -40.35 -1.61 0.01 
32.12 -21.35 -0.83 0.67 
61.63 -42.67 -1.61 0.01 
34.32 -24.74 -0.91 0.74 
51.30 -38.47 -1.38 0.62 
11.81 -9.21 -0.32 0.46 
48.19 -39.08 -1.34 0.59 
47.61 -40.12 -1.34 0.61 
47.58 -41.66 -1.36 0.58 
47.66 -43.35 -1.39 0.31 
23.62 -22.31 -0.70 0.84 
23.27 -22.83 -0.70 0.62 
56.28 -57.36 -1.73 0.50 
56.28 -59.57 -1.76 0.49 
36.53 -40.16 -1.17 0.53 
54.65 -62.42 -1.79 0.01 
53.46 -63.44 -1.79 0.01 
11.63 -14.35 -0.40 0.73 
11.28 -14.47 -0.39 0.56 
11.29 -15.05 -0.40 0.55 
6.45 -8.94 -0.24 0.34 
27.34 -39.49 -1.03 0.43 
45.93 -69.09 -1.79 0.01 
44.61 -69.94 -1.79 0.01 
43.27 -70.76 -1.78 0.01 
41.92 -71.55 -1.78 0.01 
40.55 -72.32 -1.78 0.01 
39.16 -73.05 -1.78 0.01 
37.76 -73.76 -1.78 0.01 
34.71 -71.10 -1.70 0.27 
24.75 -53.23 -1.26 0.72 
20.10 -45.46 -1.07 0.47 
22.33 -53.20 -1.24 0.73 
21.54 -54.16 -1.25 0.31 
24.25 -64.51 -1.48 0.72 
21.38 -60.31 -1.38 0.74 
20.10 -60.31 -1.37 0.74 
17.72 -56.73 -1.28 0.74 
16.54 -56.70 -1.27 0.75 
15.39 -56.71 -1.26 0.77 
14.23 -56.68 -1.26 0.77 
12.47 -53.94 -1.19 0.56 
11.46 -54.25 -1.19 0.12 
12.22 -63.80 -1.40 0.71 
10.38 -60.34 -1.32 0.77 
9.21 -60.36 -1.31 0.77 
8.04 -60.35 -1.31 0.78 
6.96 -61.02 -1.32 0.07 
7.02 -73.98 -1.60 0.01 
5.61 -74.03 -1.60 0.01 
3.99 -70.13 -1.51 0.71 
2.16 -56.91 -1.23 0.80 
1.08 -56.90 -1.22 0.79 
-0.00 -53.57 -1.15 0.68 
-1.01 -53.45 -1.15 0.81 
-2.02 -53.47 -1.15 0.80 
-3.04 -53.48 -1.15 0.80 
-4.05 -53.46 -1.15 0.80 
-5.77 -60.82 -1.31 0.78 
-6.90 -60.48 -1.31 0.68 
-8.53 -64.04 -1.39 0.76 
-9.73 -63.80 -1.39 0.76 
-9.81 -57.03 -1.25 0.77 
-10.92 -57.00 -1.25 0.78 
-12.05 -57.04 -1.25 0.76 
-12.46 -53.91 -1.19 0.48 
-13.44 -53.53 -1.19 0.77 
-14.55 -53.62 -1.20 0.76 
-15.64 -53.61 -1.20 0.77 
-16.74 -53.59 -1.21 0.76 
-25.28 -75.84 -1.72 0.01 
-26.67 -75.25 -1.72 0.01 
-28.06 -74.63 -1.72 0.01 
-29.42 -73.99 -1.71 0.01 
-30.78 -73.32 -1.71 0.02 
-32.11 -72.62 -1.71 0.02 
-33.44 -71.90 -1.71 0.02 
-34.74 -71.16 -1.70 0.02 
-36.03 -70.39 -1.70 0.02 
-37.30 -69.59 -1.70 0.02 
-38.56 -68.78 -1.70 0.02 
-39.80 -67.94 -1.69 0.02 
-7.59 -12.41 -0.31 0.94 
-42.22 -66.19 -1.69 0.02 
-24.48 -36.83 -0.95 0.69 
-28.49 -41.15 -1.08 0.47 
-28.50 -39.55 -1.05 0.49 
-28.80 -38.41 -1.03 0.47 
-29.18 -37.42 -1.02 0.69 
-30.37 -37.45 -1.04 0.58 
-50.06 -59.41 -1.67 0.02 
-51.10 -58.36 -1.67 0.02 
-28.79 -31.65 -0.92 0.51 
-8.15 -8.63 -0.26 0.89 
-28.77 -29.32 -0.88 0.60 
-28.78 -28.24 -0.87 0.61 
-28.80 -27.21 -0.85 0.66 
-23.28 -21.18 -0.68 0.83 
-29.83 -26.12 -0.85 0.35 
-45.37 -38.23 -1.28 0.50 
-52.97 -42.95 -1.47 0.35 
-40.26 -31.40 -1.10 0.65 
-17.67 -13.25 -0.48 0.90 
-29.08 -20.96 -0.77 0.63 
-29.07 -20.13 -0.76 0.73 
-29.08 -19.33 -0.75 0.73 
-29.10 -18.56 -0.74 0.74 
-29.21 -17.86 -0.74 0.52 
-30.34 -17.77 -0.76 0.20 
-52.68 -29.53 -1.30 0.69 
-40.47 -21.69 -0.99 0.12 
-40.37 -20.66 -0.98 0.75 
-18.10 -8.84 -0.43 0.62 
-40.45 -18.81 -0.96 0.58 
-40.42 -17.87 -0.95 0.81 
-41.29 -17.33 -0.96 0.40 
-44.61 -17.74 -1.03 0.73 
-44.63 -16.78 -1.03 0.77 
-52.84 -18.73 -1.21 0.76 
-52.85 -17.62 -1.20 0.76 
-53.15 -16.61 -1.20 0.80 
-53.54 -15.62 -1.20 0.80 
-53.93 -14.63 -1.20 0.79 
-14.67 -3.68 -0.33 0.68 
-14.91 -3.44 -0.33 0.71 
-56.41 -11.92 -1.24 0.46 
-58.16 -11.14 -1.27 0.45 
-62.50 -10.75 -1.36 0.12 
-65.93 -10.06 -1.44 0.02 
-66.02 -8.80 -1.43 0.02 
-11.39 -1.30 -0.25 0.85 
-72.91 -6.92 -1.58 0.02 
-11.13 -0.84 -0.24 0.54 
-11.06 -0.63 -0.24 0.54 
-11.01 -0.42 -0.24 0.50 
-10.93 -0.21 -0.24 0.50 
-10.91 -0.00 -0.25 0.51 
-10.99 0.21 -0.25 0.50 
-11.04 0.42 -0.25 0.55 
-11.11 0.63 -0.25 0.54 
-68.64 5.21 -1.56 0.02 
-11.38 1.08 -0.26 0.76 
-59.50 6.79 -1.36 0.06 
-68.03 9.07 -1.56 0.02 
-67.78 10.34 -1.56 0.02 
-64.60 11.11 -1.49 0.13 
-60.98 11.68 -1.41 0.02 
-60.69 12.82 -1.41 0.02 
-60.39 13.96 -1.41 0.02 
-60.06 15.08 -1.41 0.02 
-59.72 16.20 -1.41 0.02 
-43.04 12.56 -1.02 0.72 
-43.77 13.67 -1.04 0.31 
-40.05 13.35 -0.96 0.22 
-59.00 20.91 -1.42 0.02 
-7.44 2.80 -0.18 0.30 
-7.04 2.80 -0.17 0.32 
-6.68 2.80 -0.16 0.35 
-6.35 2.81 -0.16 0.36 
-6.05 2.81 -0.15 0.38 
-5.81 2.84 -0.15 0.46 
-5.60 2.86 -0.14 0.58 
-5.48 2.94 -0.14 0.79 
-5.46 3.06 -0.14 0.86 
-5.44 3.19 -0.14 0.85 
-5.42 3.31 -0.14 0.85 
-5.40 3.44 -0.15 0.84 
-5.42 3.60 -0.15 0.66 
-5.44 3.77 -0.15 0.65 
-5.46 3.94 -0.15 0.67 
-53.45 40.09 -1.52 0.02 
-21.04 16.41 -0.61 0.82 
-52.30 42.41 -1.53 0.02 
-51.48 43.38 -1.53 0.02 
-50.63 44.33 -1.53 0.02 
-13.51 12.29 -0.41 0.92 
-13.25 12.52 -0.41 0.92 
-12.99 12.74 -0.41 0.93 
-12.73 12.97 -0.41 0.93 
-12.47 13.20 -0.41 0.93 
-12.20 13.42 -0.41 0.93 
-11.95 13.65 -0.41 0.93 
-11.68 13.86 -0.41 0.93 
-42.33 52.20 -1.53 0.02 
-41.33 52.99 -1.53 0.02 
-40.32 53.76 -1.53 0.02 
-39.29 54.52 -1.53 0.02 
-38.26 55.25 -1.53 0.02 
-37.21 55.97 -1.53 0.02 
-36.15 56.67 -1.53 0.02 
-35.07 57.35 -1.53 0.02 
-33.98 58.01 -1.53 0.02 
-7.34 13.09 -0.34 0.48 
-7.05 13.14 -0.34 0.94 
-6.85 13.38 -0.34 0.43 
-29.52 60.47 -1.53 0.02 
-21.14 45.45 -1.14 0.82 
-27.23 61.58 -1.53 0.02 
-2.85 6.80 -0.17 0.05 
-2.68 6.75 -0.17 0.04 
-2.51 6.68 -0.16 0.04 
-2.36 6.65 -0.16 0.05 
-2.23 6.68 -0.16 0.05 
-2.09 6.70 -0.16 0.07 
-1.98 6.78 -0.16 0.07 
-1.87 6.89 -0.16 0.06 
-16.46 65.55 -1.54 0.02 
-15.23 65.88 -1.54 0.02 
-3.14 14.87 -0.35 0.54 
-2.87 14.98 -0.35 0.68 
-11.48 66.76 -1.54 0.02 
-10.22 67.01 -1.54 0.02 
-8.96 67.23 -1.54 0.02 
-7.69 67.43 -1.54 0.02 
-6.42 67.62 -1.54 0.02 
-5.14 67.77 -1.54 0.02 
-3.86 67.91 -1.55 0.02 
-0.48 12.67 -0.29 0.94 
-1.29 68.11 -1.55 0.02 
0.00 68.18 -1.55 0.02 
1.29 68.22 -1.55 0.02 
2.58 68.25 -1.55 0.02 
3.88 68.24 -1.55 0.02 
5.17 68.22 -1.55 0.02 
6.47 68.17 -1.56 0.02 
7.77 68.10 -1.56 0.02 
9.06 68.01 -1.56 0.02 
10.36 67.89 -1.56 0.02 
11.65 67.75 -1.56 0.02 
2.77 14.45 -0.33 0.72 
14.24 67.39 -1.56 0.02 
15.53 67.18 -1.57 0.02 
16.81 66.95 -1.57 0.02 
18.10 66.69 -1.57 0.02 
19.38 66.41 -1.57 0.02 
20.65 66.10 -1.57 0.02 
21.92 65.77 -1.58 0.02 
23.19 65.42 -1.58 0.02 
4.40 11.71 -0.28 0.69 
25.71 64.65 -1.58 0.02 
5.65 13.46 -0.33 0.32 
5.81 13.15 -0.33 0.93 
6.08 13.07 -0.33 0.58 
30.67 62.82 -1.59 0.02 
31.90 62.31 -1.59 0.02 
33.11 61.77 -1.59 0.02 
34.32 61.21 -1.59 0.02 
35.52 60.63 -1.60 0.02 
36.71 60.03 -1.60 0.02 
12.47 19.55 -0.53 0.76 
39.05 58.75 -1.60 0.02 
40.21 58.07 -1.60 0.02 
41.36 57.38 -1.61 0.02 
42.49 56.66 -1.61 0.02 
16.98 21.77 -0.63 0.72 
13.27 16.37 -0.48 0.23 
45.83 54.38 -1.62 0.02 
46.91 53.58 -1.62 0.02 
47.99 52.76 -1.62 0.02 
49.05 51.91 -1.62 0.02 
50.09 51.05 -1.62 0.02 
51.12 50.16 -1.63 0.02 
52.13 49.25 -1.63 0.02 
8.23 7.49 -0.25 0.21 
8.13 7.11 -0.25 0.32 
8.13 6.86 -0.24 0.33 
8.14 6.60 -0.24 0.33 
8.20 6.39 -0.24 0.45 
8.28 6.21 -0.23 0.45 
8.55 6.17 -0.24 0.48 
8.96 6.20 -0.25 0.46 
9.32 6.20 -0.25 0.43 
9.71 6.20 -0.26 0.42 
61.41 37.55 -1.64 0.02 
62.05 36.35 -1.63 0.02 
62.66 35.13 -1.63 0.02 
63.25 33.90 -1.63 0.02 
63.81 32.67 -1.63 0.02 
64.35 31.42 -1.63 0.02 
20.38 9.48 -0.51 0.79 
42.16 18.65 -1.05 0.67 
65.85 27.64 -1.62 0.02 
25.11 9.99 -0.61 0.63 
25.08 9.43 -0.61 0.86 
67.11 23.79 -1.62 0.01 
67.56 22.52 -1.62 0.01 
67.97 21.24 -1.62 0.01 
50.38 14.70 -1.19 0.48 
68.73 18.65 -1.62 0.01 
35.35 8.88 -0.83 0.40 
35.92 8.30 -0.84 0.12 
69.65 14.71 -1.62 0.01 
69.90 13.39 -1.62 0.01 
70.11 12.06 -1.62 0.01 
39.94 6.09 -0.92 0.68 
40.32 5.37 -0.92 0.38 
70.60 8.05 -1.61 0.01 
70.70 6.71 -1.61 0.01 
37.81 2.87 -0.86 0.81 
71.01 4.04 -1.62 0.01 
39.76 1.51 -0.90 0.47 
40.17 0.76 -0.91 0.37 
39.32 -0.00 -0.89 0.54 
71.36 -1.35 -1.62 0.01 
49.76 -1.88 -1.13 0.26 
71.26 -4.05 -1.62 0.01 
45.15 -3.42 -1.03 0.74 
71.10 -6.75 -1.62 0.01 
70.97 -8.09 -1.62 0.01 
53.05 -7.07 -1.22 0.44 
70.64 -10.78 -1.62 0.01 
70.44 -12.11 -1.62 0.01 
70.14 -13.44 -1.62 0.01 
51.25 -10.83 -1.19 0.78 
69.55 -16.07 -1.62 0.01 
69.17 -17.37 -1.62 0.01 
68.78 -18.66 -1.62 0.01 
68.39 -19.95 -1.62 0.01 
67.94 -21.22 -1.62 0.01 
67.47 -22.49 -1.62 0.01 
53.66 -19.02 -1.29 0.61 
66.44 -24.98 -1.61 0.01 
65.89 -26.20 -1.61 0.01 
65.25 -27.39 -1.61 0.69 
61.64 -27.26 -1.53 0.58 
64.08 -29.80 -1.61 0.01 
63.43 -30.97 -1.60 0.01 
56.83 -29.09 -1.45 0.69 
58.30 -31.25 -1.50 0.69 
61.50 -34.48 -1.60 0.02 
60.87 -35.66 -1.60 0.02 
60.22 -36.83 -1.60 0.02 
59.55 -37.98 -1.60 0.02 
32.11 -21.35 -0.88 0.71 
58.13 -40.25 -1.61 0.02 
34.32 -24.74 -0.96 0.74 
51.30 -38.47 -1.46 0.63 
11.81 -9.21 -0.34 0.46 
48.20 -39.08 -1.41 0.61 
47.61 -40.12 -1.41 0.62 
47.57 -41.65 -1.44 0.58 
47.65 -43.34 -1.46 0.31 
23.62 -22.31 -0.74 0.84 
23.27 -22.83 -0.74 0.62 
54.77 -55.82 -1.78 0.02 
53.71 -56.85 -1.78 0.02 
36.53 -40.16 -1.23 0.53 
51.54 -58.86 -1.78 0.02 
50.42 -59.83 -1.78 0.02 
11.63 -14.35 -0.42 0.73 
11.28 -14.46 -0.42 0.56 
11.29 -15.05 -0.43 0.55 
6.47 -8.98 -0.25 0.31 
27.34 -39.49 -1.09 0.43 
43.31 -65.15 -1.78 0.02 
42.07 -65.96 -1.78 0.02 
40.81 -66.73 -1.78 0.02 
39.53 -67.48 -1.78 0.02 
38.24 -68.20 -1.78 0.02 
36.93 -68.90 -1.78 0.02 
35.61 -69.57 -1.78 0.02 
34.26 -70.18 -1.77 0.02 
24.75 -53.23 -1.33 0.72 
20.10 -45.46 -1.13 0.78 
22.33 -53.20 -1.31 0.73 
21.53 -54.13 -1.32 0.31 
24.27 -64.55 -1.57 0.71 
21.38 -60.31 -1.45 0.74 
20.10 -60.30 -1.44 0.74 
17.73 -56.74 -1.35 0.74 
16.54 -56.70 -1.34 0.76 
15.39 -56.71 -1.33 0.77 
14.23 -56.68 -1.33 0.77 
12.46 -53.94 -1.26 0.56 
11.43 -54.09 -1.26 0.78 
12.51 -65.30 -1.51 0.75 
10.38 -60.34 -1.39 0.77 
9.21 -60.36 -1.39 0.77 
8.04 -60.35 -1.38 0.78 
6.97 -61.10 -1.40 0.08 
6.63 -69.81 -1.59 0.02 
5.30 -69.87 -1.59 0.02 
3.97 -69.90 -1.59 0.02 
2.16 -56.91 -1.29 0.80 
1.08 -56.91 -1.29 0.79 
0.00 -53.54 -1.22 0.58 
-1.01 -53.45 -1.21 0.81 
-2.02 -53.47 -1.22 0.80 
-3.04 -53.47 -1.22 0.80 
-4.05 -53.46 -1.22 0.80 
-5.77 -60.82 -1.39 0.78 
-6.90 -60.50 -1.38 0.74 
-9.22 -69.16 -1.58 0.74 
-10.55 -69.17 -1.59 0.74 
-9.81 -57.05 -1.32 0.76 
-10.92 -57.00 -1.32 0.77 
-12.05 -57.04 -1.32 0.76 
-12.46 -53.91 -1.26 0.40 
-13.44 -53.53 -1.25 0.77 
-14.55 -53.62 -1.26 0.75 
-15.64 -53.62 -1.27 0.77 
-16.74 -53.59 -1.28 0.76 
-23.89 -71.67 -1.72 0.02 
-25.21 -71.12 -1.71 0.02 
-26.52 -70.54 -1.71 0.02 
-27.81 -69.93 -1.71 0.02 
-29.09 -69.31 -1.71 0.02 
-30.36 -68.65 -1.71 0.02 
-31.61 -67.98 -1.70 0.02 
-32.85 -67.28 -1.70 0.02 
-34.07 -66.56 -1.70 0.02 
-35.28 -65.81 -1.70 0.02 
-36.47 -65.04 -1.69 0.02 
-37.64 -64.25 -1.69 0.02 
-7.59 -12.42 -0.33 0.92 
-39.93 -62.61 -1.69 0.02 
-24.48 -36.83 -1.00 0.69 
-28.49 -41.15 -1.14 0.47 
-28.50 -39.55 -1.11 0.49 
-28.82 -38.43 -1.09 0.62 
-29.19 -37.43 -1.08 0.67 
-30.38 -37.47 -1.10 0.56 
-47.38 -56.23 -1.67 0.02 
-48.37 -55.24 -1.67 0.02 
-28.79 -31.65 -0.97 0.51 
-8.15 -8.63 -0.27 0.89 
-28.77 -29.32 -0.93 0.60 
-28.78 -28.24 -0.92 0.61 
-28.80 -27.21 -0.90 0.66 
-23.28 -21.17 -0.71 0.83 
-29.78 -26.08 -0.90 0.37 
-50.36 -42.44 -1.50 0.02 
-51.08 -41.42 -1.49 0.02 
-40.26 -31.40 -1.16 0.65 
-17.67 -13.25 -0.50 0.90 
-29.07 -20.95 -0.81 0.64 
-29.07 -20.13 -0.80 0.73 
-29.08 -19.33 -0.79 0.73 
-29.09 -18.56 -0.78 0.75 
-29.18 -17.85 -0.78 0.78 
-30.15 -17.66 -0.79 0.18 
-52.68 -29.53 -1.37 0.69 
-40.35 -21.63 -1.04 0.74 
-40.37 -20.67 -1.03 0.75 
-18.10 -8.84 -0.46 0.62 
-40.43 -18.80 -1.01 0.58 
-40.42 -17.87 -1.00 0.81 
-41.29 -17.33 -1.02 0.33 
-44.69 -17.77 -1.09 0.77 
-44.64 -16.78 -1.08 0.79 
-52.84 -18.73 -1.27 0.76 
-52.85 -17.62 -1.27 0.76 
-53.15 -16.61 -1.26 0.80 
-53.54 -15.62 -1.27 0.80 
-53.93 -14.63 -1.27 0.79 
-14.68 -3.69 -0.34 0.60 
-14.89 -3.44 -0.35 0.74 
-56.41 -11.92 -1.31 0.46 
-58.16 -11.14 -1.35 0.45 
-62.46 -10.74 -1.44 0.02 
-62.58 -9.55 -1.44 0.02 
-62.67 -8.35 -1.44 0.02 
-11.39 -1.30 -0.26 0.85 
-11.35 -1.08 -0.26 0.34 
-11.11 -0.84 -0.25 0.54 
-11.04 -0.63 -0.25 0.54 
-10.99 -0.42 -0.25 0.50 
-10.91 -0.21 -0.25 0.50 
-10.89 -0.00 -0.26 0.51 
-10.97 0.21 -0.26 0.50 
-11.02 0.42 -0.26 0.55 
-11.09 0.63 -0.27 0.55 
-65.36 4.96 -1.57 0.02 
-11.38 1.08 -0.27 0.76 
-65.01 7.41 -1.56 0.02 
-64.79 8.63 -1.56 0.02 
-64.56 9.85 -1.56 0.02 
-64.06 11.02 -1.55 0.02 
-58.12 11.13 -1.41 0.12 
-57.82 12.21 -1.41 0.02 
-57.53 13.29 -1.41 0.02 
-57.22 14.37 -1.41 0.02 
-56.89 15.44 -1.41 0.02 
-43.54 12.70 -1.08 0.77 
-43.77 13.67 -1.10 0.31 
-40.02 13.34 -1.01 0.34 
-55.97 19.84 -1.42 0.02 
-7.43 2.79 -0.19 0.30 
-7.03 2.79 -0.18 0.32 
-6.66 2.80 -0.17 0.35 
-6.34 2.80 -0.17 0.36 
-6.04 2.81 -0.16 0.38 
-5.80 2.83 -0.15 0.46 
-5.59 2.86 -0.15 0.58 
-5.47 2.93 -0.15 0.79 
-5.46 3.06 -0.15 0.86 
-5.44 3.19 -0.15 0.85 
-5.42 3.31 -0.15 0.85 
-5.39 3.44 -0.15 0.84 
-5.41 3.60 -0.16 0.66 
-5.44 3.77 -0.16 0.65 
-5.46 3.94 -0.16 0.67 
-50.53 37.90 -1.51 0.02 
-21.03 16.40 -0.64 0.89 
-49.43 40.08 -1.52 0.02 
-48.84 41.16 -1.53 0.02 
-48.23 42.23 -1.53 0.02 
-13.51 12.29 -0.44 0.92 
-13.25 12.52 -0.44 0.92 
-12.99 12.74 -0.44 0.93 
-12.73 12.97 -0.43 0.93 
-12.47 13.20 -0.43 0.93 
-12.20 13.42 -0.43 0.93 
-11.95 13.65 -0.43 0.93 
-11.68 13.86 -0.43 0.93 
-40.35 49.76 -1.53 0.02 
-39.40 50.52 -1.53 0.02 
-38.44 51.25 -1.53 0.02 
-37.46 51.97 -1.53 0.02 
-36.47 52.68 -1.53 0.02 
-35.47 53.36 -1.53 0.02 
-34.46 54.03 -1.53 0.02 
-33.43 54.68 -1.53 0.02 
-32.40 55.31 -1.53 0.02 
-7.34 13.09 -0.36 0.48 
-7.05 13.14 -0.36 0.94 
-6.85 13.38 -0.36 0.43 
-28.14 57.64 -1.53 0.02 
-21.14 45.45 -1.20 0.82 
-2.95 6.68 -0.17 0.05 
-2.78 6.62 -0.17 0.04 
-2.62 6.60 -0.17 0.15 
-2.47 6.57 -0.17 0.14 
-2.33 6.57 -0.17 0.12 
-2.19 6.58 -0.17 0.12 
-2.07 6.62 -0.17 0.17 
-1.95 6.67 -0.17 0.07 
-1.84 6.77 -0.17 0.06 
-1.73 6.88 -0.17 0.07 
-1.61 6.96 -0.17 0.07 
-3.14 14.87 -0.36 0.51 
-2.87 14.97 -0.36 0.69 
-10.94 63.62 -1.54 0.02 
-9.74 63.85 -1.54 0.02 
-4.86 36.50 -0.88 0.46 
-7.33 64.26 -1.55 0.02 
-6.11 64.43 -1.55 0.02 
-4.90 64.58 -1.55 0.02 
-3.68 64.70 -1.55 0.02 
-0.48 12.67 -0.30 0.93 
-1.23 64.89 -1.55 0.02 
0.00 64.96 -1.55 0.02 
1.23 64.99 -1.55 0.02 
2.46 65.01 -1.56 0.02 
3.69 65.01 -1.56 0.02 
4.93 64.98 -1.56 0.02 
6.16 64.93 -1.56 0.02 
7.40 64.86 -1.56 0.02 
8.63 64.77 -1.56 0.02 
9.86 64.65 -1.56 0.02 
11.10 64.52 -1.57 0.02 
2.77 14.45 -0.35 0.73 
13.56 64.17 -1.57 0.02 
14.78 63.97 -1.57 0.02 
16.01 63.74 -1.57 0.02 
17.23 63.49 -1.57 0.02 
18.45 63.22 -1.57 0.02 
19.66 62.93 -1.58 0.02 
20.87 62.61 -1.58 0.02 
22.07 62.27 -1.58 0.02 
4.40 11.71 -0.30 0.69 
24.47 61.53 -1.58 0.02 
5.65 13.45 -0.35 0.32 
5.81 13.14 -0.34 0.93 
6.08 13.07 -0.34 0.58 
29.19 59.78 -1.59 0.02 
30.35 59.29 -1.59 0.02 
31.50 58.77 -1.59 0.02 
32.65 58.24 -1.60 0.02 
33.79 57.68 -1.60 0.02 
34.92 57.10 -1.60 0.02 
12.47 19.55 -0.55 0.76 
37.15 55.88 -1.60 0.02 
38.24 55.23 -1.61 0.02 
39.33 54.57 -1.61 0.02 
16.56 22.09 -0.66 0.02 
16.88 21.65 -0.66 0.50 
13.27 16.37 -0.50 0.20 
43.57 51.71 -1.62 0.02 
44.60 50.94 -1.62 0.02 
45.62 50.15 -1.62 0.02 
46.62 49.35 -1.62 0.02 
47.61 48.52 -1.63 0.02 
48.58 47.67 -1.63 0.02 
49.54 46.81 -1.63 0.02 
8.20 7.45 -0.26 0.21 
8.10 7.09 -0.26 0.33 
8.11 6.83 -0.25 0.33 
8.12 6.58 -0.25 0.33 
8.18 6.38 -0.25 0.45 
8.26 6.19 -0.25 0.45 
8.54 6.16 -0.25 0.48 
8.95 6.20 -0.26 0.46 
9.31 6.19 -0.27 0.44 
9.70 6.19 -0.28 0.42 
58.06 35.50 -1.63 0.02 
58.67 34.37 -1.63 0.02 
59.24 33.22 -1.62 0.02 
59.82 32.07 -1.62 0.02 
60.37 30.90 -1.62 0.02 
60.88 29.73 -1.62 0.02 
20.37 9.47 -0.54 0.79 
42.20 18.66 -1.10 0.67 
62.27 26.14 -1.61 0.02 
25.11 9.99 -0.65 0.63 
25.08 9.43 -0.64 0.86 
30.69 10.88 -0.78 0.63 
63.83 21.28 -1.61 0.02 
64.15 20.04 -1.61 0.02 
50.49 14.73 -1.26 0.32 
64.81 17.58 -1.61 0.02 
35.39 8.89 -0.87 0.76 
35.98 8.32 -0.88 0.23 
65.68 13.87 -1.61 0.02 
65.91 12.62 -1.60 0.02 
66.12 11.37 -1.60 0.02 
39.96 6.10 -0.97 0.68 
40.36 5.38 -0.97 0.38 
66.58 7.59 -1.60 0.02 
66.68 6.33 -1.60 0.02 
37.82 2.87 -0.91 0.81 
66.81 3.80 -1.60 0.02 
39.74 1.50 -0.95 0.56 
40.18 0.76 -0.96 0.27 
39.31 0.00 -0.94 0.54 
67.08 -1.27 -1.60 0.02 
67.06 -2.54 -1.60 0.01 
67.04 -3.81 -1.61 0.02 
45.15 -3.42 -1.08 0.74 
66.83 -6.34 -1.61 0.01 
66.71 -7.61 -1.61 0.02 
66.51 -8.86 -1.60 0.02 
66.35 -10.12 -1.61 0.01 
66.11 -11.37 -1.60 0.02 
65.90 -12.62 -1.60 0.02 
51.25 -10.83 -1.25 0.78 
65.27 -15.08 -1.60 0.01 
64.96 -16.31 -1.60 0.01 
64.57 -17.52 -1.60 0.01 
64.17 -18.72 -1.60 0.01 
63.75 -19.92 -1.60 0.01 
63.31 -21.10 -1.60 0.01 
53.66 -19.02 -1.36 0.61 
62.34 -23.43 -1.59 0.01 
61.81 -24.58 -1.59 0.01 
61.29 -25.73 -1.59 0.02 
60.83 -26.90 -1.59 0.02 
60.36 -28.07 -1.59 0.02 
59.85 -29.22 -1.59 0.02 
56.83 -29.09 -1.53 0.69 
58.30 -31.25 -1.58 0.69 
58.21 -32.63 -1.60 0.02 
57.61 -33.75 -1.60 0.02 
56.99 -34.85 -1.60 0.02 
56.35 -35.94 -1.60 0.02 
32.11 -21.34 -0.92 0.75 
56.28 -38.97 -1.64 0.62 
34.32 -24.73 -1.01 0.74 
51.30 -38.47 -1.53 0.63 
11.81 -9.21 -0.36 0.46 
48.21 -39.09 -1.48 0.61 
47.61 -40.12 -1.49 0.62 
47.56 -41.64 -1.51 0.59 
47.64 -43.34 -1.54 0.31 
23.62 -22.31 -0.78 0.84 
23.26 -22.83 -0.78 0.62 
51.82 -52.81 -1.77 0.02 
50.82 -53.79 -1.77 0.02 
36.52 -40.15 -1.30 0.53 
48.76 -55.69 -1.77 0.02 
47.70 -56.61 -1.77 0.02 
11.63 -14.35 -0.44 0.73 
11.28 -14.46 -0.44 0.56 
11.29 -15.05 -0.45 0.55 
6.47 -8.97 -0.26 0.33 
27.34 -39.48 -1.15 0.43 
40.98 -61.64 -1.77 0.02 
39.80 -62.40 -1.77 0.02 
38.61 -63.13 -1.77 0.02 
37.40 -63.84 -1.77 0.02 
36.18 -64.53 -1.77 0.02 
34.94 -65.19 -1.77 0.02 
33.69 -65.82 -1.77 0.02 
32.43 -66.43 -1.77 0.02 
24.75 -53.23 -1.40 0.72 
20.10 -45.46 -1.19 0.77 
22.33 -53.20 -1.38 0.73 
21.52 -54.10 -1.39 0.32 
25.87 -68.82 -1.76 0.03 
21.38 -60.31 -1.53 0.74 
20.10 -60.30 -1.52 0.74 
17.73 -56.76 -1.42 0.71 
16.55 -56.71 -1.41 0.74 
15.39 -56.71 -1.41 0.74 
14.23 -56.68 -1.40 0.77 
12.46 -53.93 -1.32 0.55 
11.43 -54.10 -1.32 0.78 
12.51 -65.30 -1.59 0.75 
10.38 -60.34 -1.46 0.77 
10.52 -68.98 -1.67 0.74 
8.04 -60.35 -1.46 0.78 
7.87 -68.99 -1.66 0.74 
6.55 -69.00 -1.66 0.75 
5.23 -69.00 -1.65 0.75 
3.92 -69.01 -1.65 0.75 
2.16 -56.91 -1.36 0.80 
1.08 -56.91 -1.36 0.80 
0.00 -53.52 -1.28 0.77 
-1.01 -53.45 -1.28 0.81 
-2.02 -53.46 -1.28 0.80 
-3.04 -53.46 -1.28 0.80 
-4.05 -53.46 -1.28 0.80 
-5.90 -62.17 -1.49 0.77 
-7.29 -63.97 -1.54 0.77 
-9.21 -69.14 -1.67 0.74 
-10.55 -69.16 -1.67 0.74 
-9.81 -57.06 -1.38 0.76 
-10.92 -57.01 -1.39 0.76 
-12.05 -57.04 -1.39 0.76 
-12.47 -53.97 -1.32 0.40 
-13.44 -53.53 -1.32 0.77 
-14.55 -53.62 -1.33 0.75 
-15.65 -53.62 -1.34 0.77 
-16.74 -53.59 -1.34 0.76 
-22.64 -67.93 -1.71 0.02 
-23.90 -67.41 -1.71 0.02 
-25.14 -66.87 -1.71 0.02 
-26.37 -66.30 -1.71 0.02 
-27.58 -65.71 -1.70 0.02 
-28.79 -65.10 -1.70 0.02 
-29.97 -64.46 -1.70 0.02 
-31.15 -63.80 -1.70 0.02 
-32.31 -63.12 -1.70 0.02 
-33.46 -62.42 -1.69 0.02 
-34.59 -61.69 -1.69 0.02 
-35.70 -60.95 -1.69 0.02 
-7.59 -12.42 -0.35 0.89 
-37.88 -59.40 -1.68 0.02 
-24.48 -36.83 -1.06 0.69 
-28.49 -41.15 -1.20 0.47 
-28.50 -39.55 -1.17 0.49 
-28.71 -38.28 -1.14 0.50 
-29.20 -37.44 -1.14 0.67 
-30.42 -37.51 -1.15 0.09 
-44.98 -53.37 -1.67 0.02 
-45.92 -52.44 -1.67 0.02 
-28.79 -31.65 -1.02 0.51 
-8.15 -8.63 -0.28 0.89 
-28.78 -29.33 -0.98 0.60 
-28.79 -28.25 -0.96 0.61 
-28.81 -27.22 -0.95 0.66 
-23.28 -21.17 -0.75 0.84 
-29.76 -26.06 -0.95 0.49 
-49.33 -41.57 -1.54 0.59 
-49.35 -40.01 -1.52 0.60 
-40.26 -31.40 -1.22 0.65 
-17.66 -13.24 -0.53 0.90 
-29.07 -20.95 -0.86 0.64 
-29.06 -20.12 -0.85 0.73 
-29.08 -19.33 -0.83 0.73 
-29.09 -18.56 -0.83 0.75 
-29.17 -17.84 -0.82 0.78 
-30.12 -17.64 -0.83 0.39 
-52.68 -29.53 -1.44 0.69 
-40.35 -21.63 -1.09 0.74 
-40.37 -20.67 -1.08 0.75 
-18.10 -8.84 -0.48 0.62 
-40.42 -18.79 -1.07 0.58 
-40.41 -17.87 -1.06 0.81 
-41.29 -17.33 -1.07 0.33 
-44.75 -17.80 -1.15 0.77 
-44.64 -16.78 -1.14 0.79 
-52.84 -18.73 -1.34 0.76 
-52.85 -17.62 -1.33 0.76 
-53.15 -16.61 -1.33 0.80 
-53.54 -15.62 -1.33 0.80 
-53.93 -14.63 -1.34 0.79 
-14.69 -3.69 -0.36 0.45 
-14.88 -3.44 -0.37 0.75 
-56.41 -11.92 -1.38 0.46 
-58.16 -11.14 -1.42 0.45 
-59.44 -10.22 -1.44 0.02 
-59.55 -9.09 -1.44 0.02 
-59.64 -7.95 -1.44 0.02 
-11.39 -1.30 -0.27 0.77 
-11.33 -1.08 -0.27 0.36 
-11.09 -0.84 -0.27 0.54 
-11.02 -0.63 -0.26 0.55 
-10.97 -0.42 -0.26 0.50 
-10.89 -0.21 -0.26 0.50 
-10.87 -0.00 -0.27 0.51 
-10.95 0.21 -0.27 0.50 
-11.00 0.42 -0.28 0.55 
-11.07 0.63 -0.28 0.55 
-11.35 0.86 -0.29 0.35 
-11.38 1.08 -0.29 0.78 
-62.05 7.08 -1.57 0.02 
-61.85 8.24 -1.57 0.02 
-61.63 9.40 -1.57 0.02 
-61.39 10.56 -1.56 0.02 
-58.02 11.11 -1.48 0.15 
-55.20 11.66 -1.42 0.02 
-54.92 12.69 -1.42 0.02 
-54.63 13.72 -1.41 0.02 
-54.32 14.74 -1.41 0.02 
-43.54 12.70 -1.14 0.77 
-43.78 13.68 -1.15 0.31 
-39.99 13.33 -1.06 0.42 
-53.24 18.87 -1.42 0.02 
-7.42 2.79 -0.20 0.30 
-7.01 2.79 -0.19 0.32 
-6.65 2.79 -0.18 0.35 
-6.33 2.80 -0.17 0.36 
-6.03 2.81 -0.17 0.38 
-5.79 2.83 -0.16 0.46 
-5.58 2.86 -0.16 0.58 
-5.47 2.93 -0.16 0.79 
-5.46 3.06 -0.16 0.86 
-5.44 3.18 -0.16 0.85 
-5.41 3.31 -0.16 0.85 
-5.39 3.44 -0.16 0.84 
-5.41 3.60 -0.16 0.66 
-5.44 3.76 -0.17 0.65 
-5.46 3.93 -0.17 0.67 
-47.91 35.93 -1.50 0.02 
-21.03 16.40 -0.67 0.89 
-46.85 37.99 -1.51 0.02 
-46.28 39.00 -1.52 0.02 
-45.70 40.01 -1.53 0.02 
-13.51 12.29 -0.46 0.92 
-13.25 12.52 -0.46 0.92 
-12.99 12.74 -0.46 0.93 
-12.73 12.97 -0.46 0.93 
-12.47 13.20 -0.46 0.93 
-12.20 13.42 -0.46 0.93 
-11.95 13.65 -0.46 0.93 
-11.68 13.86 -0.46 0.93 
-38.55 47.55 -1.54 0.02 
-37.64 48.27 -1.54 0.02 
-36.72 48.97 -1.54 0.02 
-35.79 49.66 -1.54 0.02 
-34.85 50.33 -1.54 0.02 
-33.89 50.98 -1.54 0.02 
-32.92 51.62 -1.54 0.02 
-31.94 52.24 -1.54 0.02 
-30.95 52.84 -1.54 0.02 
-7.34 13.09 -0.38 0.48 
-7.04 13.14 -0.37 0.94 
-6.85 13.38 -0.38 0.43 
-26.89 55.07 -1.54 0.02 
-21.14 45.45 -1.26 0.82 
-2.91 6.59 -0.18 0.14 
-2.76 6.57 -0.18 0.15 
-2.60 6.54 -0.18 0.15 
-2.45 6.52 -0.17 0.14 
-2.31 6.51 -0.17 0.15 
-2.17 6.52 -0.17 0.12 
-2.05 6.57 -0.17 0.16 
-1.93 6.62 -0.17 0.17 
-1.81 6.67 -0.17 0.17 
-1.70 6.77 -0.18 0.07 
-1.59 6.86 -0.18 0.09 
-3.14 14.88 -0.38 0.38 
-2.87 14.97 -0.38 0.69 
-9.69 56.31 -1.43 0.47 
-9.30 60.99 -1.55 0.02 
-4.86 36.48 -0.92 0.82 
-7.00 61.37 -1.55 0.02 
-5.84 61.53 -1.55 0.02 
-4.68 61.67 -1.55 0.02 
-3.51 61.79 -1.55 0.02 
-0.48 12.67 -0.32 0.90 
-1.17 61.96 -1.56 0.02 
0.00 62.02 -1.56 0.02 
1.17 62.06 -1.56 0.02 
2.35 62.07 -1.56 0.02 
3.53 62.07 -1.56 0.02 
4.71 62.04 -1.56 0.02 
5.88 61.99 -1.56 0.02 
7.06 61.92 -1.56 0.02 
8.24 61.83 -1.57 0.02 
9.42 61.72 -1.57 0.02 
10.59 61.58 -1.57 0.02 
2.77 14.45 -0.37 0.73 
12.94 61.25 -1.57 0.02 
14.11 61.05 -1.57 0.02 
15.28 60.83 -1.57 0.02 
16.44 60.59 -1.58 0.02 
17.60 60.33 -1.58 0.02 
18.76 60.05 -1.58 0.02 
19.91 59.74 -1.58 0.02 
21.06 59.42 -1.58 0.02 
4.40 11.71 -0.31 0.69 
23.34 58.70 -1.59 0.02 
5.65 13.45 -0.37 0.32 
5.81 13.14 -0.36 0.93 
6.08 13.07 -0.36 0.58 
27.84 57.02 -1.59 0.02 
28.95 56.55 -1.60 0.02 
30.05 56.05 -1.60 0.02 
31.14 55.54 -1.60 0.02 
32.22 55.00 -1.60 0.02 
33.29 54.45 -1.60 0.02 
12.47 19.55 -0.58 0.76 
35.41 53.27 -1.61 0.02 
36.46 52.66 -1.61 0.02 
37.50 52.02 -1.61 0.02 
16.47 21.96 -0.69 0.27 
13.08 16.77 -0.53 0.54 
17.13 21.13 -0.68 0.32 
41.53 49.28 -1.62 0.02 
42.51 48.55 -1.62 0.02 
43.47 47.79 -1.62 0.02 
44.42 47.02 -1.62 0.02 
45.36 46.23 -1.63 0.02 
46.29 45.42 -1.63 0.02 
47.20 44.59 -1.63 0.02 
8.16 7.42 -0.28 0.21 
8.07 7.07 -0.27 0.32 
8.08 6.81 -0.27 0.33 
8.09 6.56 -0.26 0.33 
8.16 6.36 -0.26 0.45 
8.24 6.18 -0.26 0.45 
8.53 6.15 -0.26 0.48 
8.93 6.19 -0.27 0.46 
9.29 6.18 -0.28 0.44 
9.68 6.18 -0.29 0.42 
10.13 6.19 -0.30 0.32 
55.62 32.58 -1.62 0.02 
56.20 31.51 -1.62 0.02 
56.73 30.41 -1.62 0.02 
57.24 29.30 -1.61 0.02 
57.72 28.18 -1.61 0.02 
20.37 9.47 -0.56 0.79 
42.23 18.68 -1.16 0.67 
59.09 24.80 -1.61 0.02 
25.11 9.99 -0.68 0.63 
25.08 9.43 -0.67 0.86 
30.76 10.91 -0.82 0.30 
60.53 20.17 -1.60 0.02 
60.83 19.00 -1.60 0.02 
50.68 14.79 -1.33 0.11 
61.44 16.67 -1.60 0.02 
35.40 8.89 -0.92 0.76 
36.04 8.33 -0.93 0.23 
62.13 13.12 -1.59 0.02 
62.36 11.94 -1.59 0.02 
62.56 10.76 -1.59 0.02 
39.98 6.10 -1.02 0.60 
40.40 5.38 -1.02 0.34 
63.00 7.18 -1.59 0.02 
63.09 5.99 -1.59 0.02 
37.82 2.87 -0.95 0.81 
63.21 3.59 -1.59 0.02 
39.74 1.50 -1.00 0.55 
40.22 0.76 -1.01 0.70 
39.31 -0.00 -0.99 0.54 
63.29 -1.20 -1.59 0.02 
63.30 -2.40 -1.59 0.02 
63.23 -3.59 -1.59 0.02 
45.30 -3.44 -1.14 0.11 
63.06 -5.99 -1.59 0.02 
62.91 -7.17 -1.59 0.02 
62.78 -8.37 -1.59 0.02 
62.57 -9.55 -1.59 0.02 
62.34 -10.72 -1.59 0.02 
62.12 -11.90 -1.59 0.02 
51.25 -10.83 -1.32 0.78 
61.55 -14.22 -1.59 0.02 
61.22 -15.37 -1.58 0.02 
60.87 -16.52 -1.58 0.02 
60.49 -17.65 -1.58 0.02 
60.08 -18.77 -1.58 0.02 
59.69 -19.89 -1.58 0.02 
53.66 -19.02 -1.43 0.61 
58.98 -22.17 -1.58 0.02 
58.59 -23.30 -1.58 0.02 
58.18 -24.42 -1.58 0.02 
57.75 -25.54 -1.59 0.02 
57.29 -26.64 -1.59 0.02 
56.82 -27.74 -1.59 0.02 
56.32 -28.83 -1.59 0.02 
55.92 -29.97 -1.59 0.46 
56.07 -31.44 -1.61 0.63 
56.19 -32.91 -1.64 0.63 
56.25 -34.40 -1.66 0.63 
56.27 -35.89 -1.68 0.64 
32.11 -21.35 -0.97 0.67 
56.26 -38.96 -1.72 0.62 
34.31 -24.73 -1.06 0.74 
55.96 -41.96 -1.76 0.03 
11.81 -9.21 -0.38 0.46 
48.21 -39.09 -1.56 0.61 
47.61 -40.12 -1.56 0.62 
47.57 -41.65 -1.59 0.59 
51.90 -47.21 -1.76 0.02 
23.61 -22.31 -0.82 0.84 
23.26 -22.83 -0.82 0.62 
49.17 -50.11 -1.76 0.02 
48.22 -51.04 -1.76 0.02 
36.52 -40.15 -1.36 0.53 
46.27 -52.84 -1.76 0.02 
45.26 -53.71 -1.76 0.02 
11.63 -14.35 -0.46 0.73 
11.28 -14.46 -0.46 0.56 
11.29 -15.05 -0.47 0.55 
6.47 -8.97 -0.28 0.35 
27.34 -39.48 -1.21 0.43 
38.88 -58.49 -1.76 0.02 
37.76 -59.21 -1.76 0.02 
36.63 -59.91 -1.76 0.02 
35.49 -60.58 -1.76 0.02 
34.33 -61.23 -1.76 0.02 
33.16 -61.85 -1.76 0.02 
31.97 -62.46 -1.76 0.02 
30.78 -63.03 -1.76 0.02 
24.75 -53.23 -1.47 0.72 
20.11 -45.47 -1.25 0.78 
22.33 -53.20 -1.45 0.73 
21.51 -54.08 -1.46 0.33 
24.26 -64.55 -1.73 0.71 
21.38 -60.31 -1.61 0.73 
22.13 -66.38 -1.76 0.02 
18.84 -60.32 -1.59 0.74 
16.55 -56.72 -1.48 0.74 
15.39 -56.73 -1.48 0.74 
14.23 -56.68 -1.47 0.77 
12.47 -53.94 -1.39 0.57 
11.43 -54.10 -1.39 0.78 
12.54 -65.47 -1.67 0.11 
10.38 -60.34 -1.54 0.77 
10.48 -68.70 -1.74 0.03 
8.04 -60.35 -1.53 0.78 
7.85 -68.85 -1.74 0.03 
6.54 -68.90 -1.74 0.03 
5.23 -68.94 -1.74 0.03 
3.92 -68.96 -1.73 0.03 
2.16 -56.91 -1.43 0.80 
1.08 -56.91 -1.43 0.79 
0.00 -53.53 -1.34 0.77 
-1.01 -53.45 -1.34 0.81 
-2.02 -53.45 -1.34 0.80 
-3.04 -53.45 -1.34 0.80 
-4.05 -53.46 -1.35 0.80 
-5.90 -62.17 -1.57 0.77 
-7.30 -64.02 -1.62 0.09 
-9.08 -68.17 -1.73 0.02 
-10.36 -67.92 -1.73 0.02 
-9.82 -57.07 -1.45 0.76 
-10.92 -57.02 -1.46 0.76 
-12.05 -57.05 -1.46 0.76 
-12.49 -54.06 -1.39 0.24 
-13.44 -53.53 -1.39 0.77 
-14.55 -53.62 -1.40 0.75 
-15.65 -53.63 -1.40 0.77 
-16.74 -53.59 -1.41 0.76 
-21.52 -64.57 -1.71 0.02 
-22.71 -64.07 -1.71 0.02 
-23.89 -63.56 -1.71 0.02 
-25.06 -63.03 -1.70 0.02 
-26.22 -62.47 -1.70 0.02 
-27.37 -61.89 -1.70 0.02 
-28.50 -61.29 -1.70 0.02 
-29.62 -60.66 -1.70 0.02 
-30.72 -60.02 -1.69 0.02 
-31.82 -59.36 -1.69 0.02 
-32.89 -58.67 -1.69 0.02 
-33.96 -57.97 -1.69 0.02 
-7.60 -12.43 -0.37 0.85 
-36.04 -56.50 -1.68 0.02 
-24.48 -36.82 -1.11 0.69 
-28.49 -41.15 -1.26 0.47 
-28.50 -39.55 -1.22 0.49 
-28.71 -38.28 -1.20 0.50 
-29.21 -37.45 -1.19 0.67 
-30.45 -37.55 -1.21 0.29 
-42.80 -50.79 -1.67 0.02 
-43.70 -49.91 -1.67 0.02 
-28.79 -31.65 -1.07 0.51 
-8.15 -8.63 -0.30 0.89 
-28.78 -29.33 -1.03 0.60 
-28.79 -28.25 -1.01 0.61 
-28.81 -27.22 -1.00 0.44 
-23.27 -21.17 -0.79 0.84 
-29.75 -26.05 -0.99 0.49 
-49.32 -41.56 -1.62 0.59 
-49.33 -40.00 -1.59 0.60 
-40.26 -31.40 -1.28 0.65 
-17.66 -13.24 -0.55 0.90 
-29.06 -20.95 -0.90 0.64 
-29.06 -20.12 -0.89 0.73 
-29.07 -19.33 -0.88 0.73 
-29.09 -18.55 -0.87 0.75 
-29.15 -17.82 -0.86 0.84 
-30.09 -17.63 -0.88 0.39 
-51.28 -28.75 -1.48 0.02 
-40.35 -21.63 -1.15 0.74 
-40.38 -20.67 -1.14 0.75 
-18.10 -8.84 -0.51 0.62 
-40.40 -18.79 -1.12 0.58 
-40.41 -17.87 -1.11 0.81 
-41.29 -17.33 -1.12 0.33 
-44.75 -17.80 -1.21 0.77 
-44.67 -16.79 -1.20 0.78 
-52.84 -18.73 -1.41 0.76 
-52.85 -17.62 -1.40 0.76 
-53.15 -16.61 -1.40 0.80 
-53.54 -15.62 -1.40 0.80 
-53.93 -14.63 -1.40 0.79 
-14.87 -3.73 -0.38 0.49 
-14.87 -3.44 -0.38 0.76 
-56.41 -11.92 -1.45 0.46 
-56.56 -10.83 -1.45 0.02 
-56.69 -9.75 -1.44 0.02 
-56.80 -8.67 -1.44 0.02 
-58.72 -7.83 -1.49 0.12 
-11.39 -1.30 -0.29 0.77 
-11.31 -1.07 -0.29 0.36 
-11.07 -0.84 -0.28 0.54 
-11.00 -0.63 -0.28 0.55 
-10.95 -0.41 -0.28 0.50 
-10.87 -0.21 -0.27 0.50 
-10.85 -0.00 -0.29 0.51 
-10.92 0.21 -0.29 0.51 
-10.98 0.42 -0.29 0.55 
-11.05 0.63 -0.29 0.55 
-11.33 0.86 -0.30 0.35 
-11.38 1.08 -0.30 0.78 
-59.35 6.77 -1.57 0.02 
-59.16 7.88 -1.57 0.02 
-58.95 8.99 -1.57 0.02 
-58.72 10.10 -1.57 0.02 
-57.95 11.10 -1.55 0.15 
-52.81 11.15 -1.42 0.02 
-51.70 11.95 -1.40 0.78 
-52.27 13.13 -1.42 0.02 
-51.97 14.10 -1.42 0.02 
-44.75 13.06 -1.23 0.70 
-51.33 16.04 -1.41 0.02 
-39.96 13.32 -1.11 0.49 
-50.76 17.99 -1.42 0.02 
-7.40 2.78 -0.21 0.30 
-7.00 2.78 -0.20 0.32 
-6.64 2.79 -0.19 0.35 
-6.32 2.80 -0.18 0.36 
-6.02 2.80 -0.17 0.38 
-5.79 2.83 -0.17 0.46 
-5.58 2.86 -0.16 0.58 
-5.46 2.93 -0.16 0.79 
-5.45 3.06 -0.16 0.78 
-5.43 3.18 -0.17 0.85 
-5.41 3.31 -0.17 0.85 
-5.39 3.44 -0.17 0.84 
-5.40 3.59 -0.17 0.66 
-5.43 3.76 -0.17 0.65 
-5.45 3.93 -0.18 0.67 
-45.55 34.16 -1.50 0.02 
-21.03 16.40 -0.70 0.89 
-44.53 36.10 -1.51 0.02 
-43.98 37.06 -1.51 0.02 
-43.42 38.01 -1.52 0.02 
-13.51 12.29 -0.48 0.92 
-13.25 12.52 -0.48 0.92 
-12.99 12.74 -0.48 0.93 
-12.73 12.97 -0.48 0.93 
-12.47 13.20 -0.48 0.93 
-12.20 13.42 -0.48 0.93 
-11.95 13.65 -0.48 0.93 
-11.68 13.86 -0.48 0.93 
-36.91 45.52 -1.54 0.02 
-36.04 46.21 -1.54 0.02 
-35.16 46.88 -1.54 0.02 
-34.26 47.54 -1.54 0.02 
-33.36 48.18 -1.54 0.02 
-32.44 48.81 -1.54 0.02 
-31.52 49.41 -1.54 0.02 
-30.58 50.01 -1.54 0.02 
-29.63 50.58 -1.54 0.02 
-7.34 13.09 -0.39 0.48 
-7.04 13.14 -0.39 0.94 
-6.85 13.38 -0.40 0.43 
-25.74 52.72 -1.54 0.02 
-21.14 45.45 -1.32 0.82 
-2.89 6.54 -0.19 0.15 
-2.73 6.51 -0.19 0.15 
-2.58 6.49 -0.18 0.14 
-2.43 6.47 -0.18 0.15 
-2.29 6.46 -0.18 0.15 
-2.15 6.46 -0.18 0.12 
-2.04 6.53 -0.18 0.16 
-1.92 6.58 -0.18 0.18 
-1.80 6.63 -0.18 0.17 
-1.67 6.67 -0.18 0.17 
-1.57 6.77 -0.18 0.09 
-1.47 6.96 -0.19 0.07 
-2.87 14.98 -0.40 0.67 
-9.65 56.12 -1.50 0.79 
-8.90 58.36 -1.55 0.02 
-4.86 36.48 -0.97 0.83 
-6.70 58.73 -1.55 0.02 
-5.59 58.88 -1.56 0.02 
-4.48 59.01 -1.56 0.02 
-3.36 59.12 -1.56 0.02 
-0.48 12.68 -0.33 0.87 
-1.12 59.29 -1.56 0.02 
0.00 59.34 -1.56 0.02 
1.12 59.37 -1.56 0.02 
2.25 59.39 -1.56 0.02 
3.37 59.38 -1.56 0.02 
4.50 59.35 -1.57 0.02 
5.63 59.30 -1.57 0.02 
6.75 59.23 -1.57 0.02 
7.88 59.14 -1.57 0.02 
9.01 59.03 -1.57 0.02 
10.13 58.90 -1.57 0.02 
2.77 14.45 -0.39 0.74 
12.37 58.58 -1.57 0.02 
13.49 58.39 -1.58 0.02 
14.61 58.17 -1.58 0.02 
15.72 57.94 -1.58 0.02 
16.83 57.69 -1.58 0.02 
17.94 57.42 -1.58 0.02 
19.04 57.12 -1.58 0.02 
20.14 56.81 -1.59 0.02 
4.40 11.71 -0.33 0.69 
22.32 56.12 -1.59 0.02 
5.65 13.45 -0.38 0.32 
5.81 13.14 -0.38 0.93 
6.08 13.06 -0.38 0.58 
26.61 54.50 -1.60 0.02 
27.67 54.05 -1.60 0.02 
28.72 53.57 -1.60 0.02 
29.76 53.08 -1.60 0.02 
30.79 52.56 -1.60 0.02 
31.82 52.03 -1.60 0.02 
12.47 19.55 -0.61 0.76 
33.84 50.90 -1.61 0.02 
34.84 50.31 -1.61 0.02 
35.82 49.70 -1.61 0.02 
16.52 22.03 -0.72 0.27 
13.08 16.77 -0.56 0.65 
17.18 21.19 -0.72 0.32 
39.67 47.07 -1.62 0.02 
40.60 46.37 -1.62 0.02 
41.52 45.65 -1.62 0.02 
42.43 44.91 -1.63 0.02 
43.32 44.15 -1.63 0.02 
44.19 43.36 -1.63 0.02 
44.97 42.49 -1.63 0.02 
8.12 7.38 -0.29 0.21 
8.05 7.05 -0.28 0.32 
8.06 6.79 -0.28 0.33 
8.07 6.54 -0.27 0.40 
8.14 6.35 -0.27 0.45 
8.22 6.16 -0.27 0.45 
8.52 6.14 -0.28 0.48 
8.92 6.18 -0.29 0.46 
9.28 6.17 -0.29 0.44 
9.67 6.17 -0.30 0.42 
10.11 6.18 -0.31 0.32 
52.89 30.98 -1.61 0.02 
53.42 29.95 -1.61 0.02 
25.71 13.78 -0.77 0.41 
25.69 13.15 -0.76 0.89 
26.18 12.78 -0.77 0.45 
20.36 9.47 -0.59 0.79 
42.28 18.69 -1.22 0.44 
56.17 23.58 -1.60 0.02 
25.11 9.99 -0.71 0.63 
25.08 9.43 -0.70 0.86 
30.80 10.92 -0.86 0.58 
57.60 19.20 -1.60 0.02 
57.89 18.09 -1.60 0.02 
50.65 14.78 -1.39 0.63 
58.40 15.85 -1.59 0.02 
35.42 8.89 -0.96 0.76 
58.83 13.59 -1.59 0.02 
59.08 12.48 -1.59 0.02 
59.24 11.35 -1.59 0.02 
59.37 10.21 -1.58 0.02 
40.02 6.11 -1.06 0.60 
59.66 7.95 -1.58 0.02 
59.78 6.82 -1.58 0.02 
59.87 5.68 -1.58 0.02 
37.82 2.87 -1.00 0.81 
59.98 3.41 -1.58 0.02 
39.78 1.51 -1.05 0.21 
40.22 0.76 -1.06 0.76 
39.31 -0.00 -1.03 0.54 
59.95 -1.13 -1.58 0.02 
59.95 -2.27 -1.58 0.02 
59.88 -3.40 -1.58 0.02 
59.82 -4.54 -1.58 0.02 
59.72 -5.67 -1.58 0.02 
59.59 -6.80 -1.58 0.02 
59.42 -7.92 -1.58 0.02 
59.23 -9.04 -1.58 0.02 
59.03 -10.15 -1.58 0.02 
58.78 -11.26 -1.57 0.02 
51.25 -10.83 -1.38 0.78 
58.23 -13.46 -1.57 0.02 
57.92 -14.55 -1.57 0.02 
57.67 -15.65 -1.57 0.02 
57.41 -16.75 -1.57 0.02 
57.12 -17.85 -1.57 0.02 
56.82 -18.94 -1.58 0.02 
53.62 -19.01 -1.50 0.61 
56.14 -21.11 -1.58 0.02 
55.77 -22.18 -1.58 0.02 
55.38 -23.25 -1.58 0.02 
54.96 -24.31 -1.58 0.02 
55.13 -25.64 -1.60 0.61 
55.43 -27.07 -1.62 0.61 
55.69 -28.51 -1.65 0.62 
55.90 -29.96 -1.67 0.63 
56.06 -31.43 -1.69 0.63 
56.17 -32.91 -1.71 0.63 
56.24 -34.39 -1.73 0.63 
55.99 -35.71 -1.75 0.03 
32.15 -21.38 -1.02 0.25 
54.75 -37.91 -1.75 0.02 
34.31 -24.73 -1.11 0.74 
53.32 -39.99 -1.75 0.02 
11.81 -9.21 -0.39 0.46 
49.26 -39.94 -1.67 0.61 
47.61 -40.12 -1.64 0.61 
47.58 -41.66 -1.66 0.58 
49.38 -44.91 -1.76 0.02 
23.61 -22.31 -0.85 0.84 
23.26 -22.83 -0.86 0.62 
46.78 -47.67 -1.76 0.02 
45.87 -48.56 -1.76 0.02 
36.52 -40.15 -1.43 0.54 
44.01 -50.27 -1.76 0.02 
43.06 -51.10 -1.76 0.02 
11.63 -14.35 -0.49 0.73 
11.28 -14.46 -0.48 0.56 
11.29 -15.05 -0.49 0.55 
6.46 -8.96 -0.29 0.25 
27.34 -39.48 -1.26 0.43 
36.99 -55.64 -1.76 0.02 
35.93 -56.33 -1.76 0.02 
34.85 -56.99 -1.76 0.02 
33.76 -57.63 -1.76 0.02 
32.66 -58.25 -1.76 0.02 
31.54 -58.85 -1.76 0.02 
30.42 -59.42 -1.76 0.02 
29.28 -59.97 -1.76 0.02 
24.75 -53.23 -1.54 0.72 
20.11 -45.48 -1.31 0.79 
22.33 -53.20 -1.52 0.73 
21.50 -54.06 -1.53 0.33 
23.45 -62.37 -1.75 0.02 
21.38 -60.31 -1.68 0.73 
21.05 -63.16 -1.75 0.02 
18.84 -60.32 -1.66 0.74 
16.55 -56.74 -1.55 0.73 
15.40 -56.74 -1.55 0.74 
14.23 -56.68 -1.54 0.77 
12.47 -53.95 -1.46 0.57 
11.45 -54.22 -1.46 0.17 
12.48 -65.16 -1.75 0.02 
10.38 -60.34 -1.61 0.77 
9.99 -65.50 -1.74 0.02 
8.04 -60.35 -1.60 0.78 
7.50 -65.75 -1.74 0.02 
6.25 -65.83 -1.74 0.02 
5.00 -65.89 -1.74 0.02 
3.75 -65.93 -1.74 0.02 
2.16 -56.91 -1.50 0.80 
1.08 -56.92 -1.50 0.79 
0.00 -53.54 -1.41 0.77 
-1.01 -53.45 -1.41 0.81 
-2.02 -53.45 -1.41 0.79 
-3.04 -53.46 -1.41 0.79 
-4.05 -53.46 -1.41 0.80 
-5.90 -62.17 -1.64 0.77 
-7.43 -65.13 -1.72 0.02 
-8.65 -64.92 -1.72 0.02 
-9.87 -64.68 -1.72 0.02 
-10.09 -58.65 -1.57 0.77 
-11.97 -62.49 -1.67 0.76 
-12.70 -60.13 -1.62 0.76 
-12.52 -54.18 -1.46 0.20 
-13.44 -53.53 -1.45 0.77 
-14.55 -53.62 -1.46 0.75 
-15.65 -53.63 -1.47 0.77 
-16.74 -53.59 -1.48 0.76 
-20.50 -61.52 -1.71 0.02 
-21.64 -61.05 -1.70 0.02 
-22.77 -60.57 -1.70 0.02 
-23.88 -60.06 -1.70 0.02 
-24.99 -59.53 -1.70 0.02 
-26.08 -58.98 -1.70 0.02 
-27.16 -58.41 -1.69 0.02 
-28.23 -57.82 -1.69 0.02 
-29.29 -57.21 -1.69 0.02 
-30.33 -56.58 -1.69 0.02 
-31.36 -55.93 -1.69 0.02 
-32.37 -55.26 -1.68 0.02 
-7.60 -12.43 -0.38 0.80 
-34.36 -53.87 -1.68 0.02 
-24.48 -36.82 -1.16 0.69 
-28.49 -41.15 -1.32 0.47 
-28.50 -39.55 -1.28 0.49 
-28.71 -38.28 -1.26 0.50 
-29.22 -37.47 -1.25 0.63 
-32.91 -40.59 -1.37 0.63 
-37.23 -44.18 -1.52 0.02 
-38.01 -43.41 -1.52 0.02 
-28.79 -31.65 -1.13 0.51 
-8.15 -8.63 -0.31 0.89 
-28.78 -29.33 -1.08 0.60 
-28.79 -28.25 -1.06 0.61 
-28.85 -27.26 -1.04 0.44 
-23.27 -21.17 -0.83 0.85 
-29.74 -26.04 -1.04 0.61 
-47.91 -40.37 -1.65 0.02 
-48.60 -39.41 -1.65 0.02 
-40.26 -31.40 -1.34 0.65 
-17.65 -13.24 -0.58 0.90 
-29.05 -20.94 -0.94 0.64 
-29.06 -20.12 -0.93 0.73 
-29.07 -19.33 -0.92 0.73 
-29.09 -18.55 -0.91 0.75 
-29.14 -17.82 -0.90 0.84 
-30.06 -17.61 -0.92 0.36 
-49.45 -27.73 -1.49 0.69 
-40.35 -21.63 -1.20 0.74 
-40.38 -20.67 -1.19 0.75 
-18.10 -8.84 -0.53 0.62 
-40.38 -18.78 -1.17 0.58 
-40.41 -17.87 -1.16 0.80 
-41.30 -17.34 -1.18 0.27 
-44.91 -17.86 -1.27 0.29 
-44.67 -16.79 -1.26 0.78 
-52.35 -18.56 -1.46 0.02 
-52.63 -17.54 -1.46 0.02 
-52.89 -16.52 -1.46 0.02 
-53.14 -15.50 -1.46 0.02 
-53.36 -14.48 -1.45 0.02 
-14.85 -3.73 -0.40 0.57 
-14.85 -3.43 -0.40 0.77 
-53.92 -11.39 -1.45 0.02 
-54.06 -10.36 -1.45 0.02 
-54.19 -9.32 -1.45 0.02 
-55.52 -8.47 -1.48 0.39 
-58.64 -7.81 -1.56 0.12 
-11.39 -1.30 -0.30 0.77 
-11.29 -1.07 -0.30 0.36 
-11.06 -0.84 -0.29 0.54 
-10.99 -0.62 -0.29 0.55 
-10.93 -0.41 -0.29 0.50 
-10.85 -0.21 -0.29 0.51 
-10.83 -0.00 -0.30 0.51 
-10.90 0.21 -0.30 0.51 
-10.97 0.42 -0.30 0.55 
-11.04 0.63 -0.30 0.55 
-11.31 0.86 -0.31 0.35 
-11.38 1.08 -0.31 0.78 
-56.88 6.49 -1.57 0.02 
-56.70 7.56 -1.57 0.02 
-56.50 8.62 -1.57 0.02 
-56.28 9.68 -1.57 0.02 
-56.00 10.73 -1.57 0.03 
-52.62 11.12 -1.48 0.17 
-50.37 11.64 -1.42 0.02 
-50.10 12.58 -1.42 0.02 
-49.82 13.52 -1.42 0.02 
-44.92 13.11 -1.29 0.60 
-49.20 15.37 -1.42 0.02 
-39.93 13.31 -1.16 0.54 
-48.53 17.20 -1.42 0.02 
-7.39 2.78 -0.22 0.30 
-6.99 2.78 -0.21 0.32 
-6.63 2.78 -0.20 0.35 
-6.31 2.79 -0.19 0.36 
-6.01 2.80 -0.18 0.38 
-5.78 2.82 -0.18 0.46 
-5.57 2.85 -0.17 0.58 
-5.46 2.93 -0.17 0.79 
-5.45 3.06 -0.17 0.78 
