VERSION 0.7
FIELDS x y z intensity
SIZE 4 4 4 8
TYPE F F F F
COUNT 1 1 1 1
WIDTH 2008
HEIGHT 1
VIEWPOINT 0.0 0.0 0.0 1.0 0.0 0.0 0.0
POINTS 2008
DATA ascii
-3.11 12.37 -1.52 0.11 
-2.87 12.43 -1.52 0.11 
-2.64 12.48 -1.52 0.11 
-2.40 12.53 -1.52 0.11 
-2.16 12.58 -1.52 0.11 
-1.93 12.62 -1.52 0.11 
-1.69 12.65 -1.52 0.11 
-1.45 12.69 -1.52 0.11 
-1.21 12.71 -1.52 0.11 
-0.97 12.74 -1.52 0.11 
-0.72 12.75 -1.52 0.11 
-0.48 12.77 -1.52 0.11 
-0.24 12.78 -1.52 0.11 
0.00 12.78 -1.52 0.11 
0.24 12.78 -1.52 0.11 
0.48 12.78 -1.52 0.11 
0.73 12.77 -1.52 0.11 
0.97 12.75 -1.52 0.11 
1.21 12.74 -1.52 0.11 
1.45 12.71 -1.52 0.11 
1.69 12.69 -1.52 0.11 
1.93 12.65 -1.52 0.11 
2.17 12.62 -1.52 0.11 
2.41 12.58 -1.52 0.11 
2.65 12.53 -1.52 0.11 
2.88 12.48 -1.52 0.11 
3.12 12.43 -1.52 0.11 
3.36 12.37 -1.52 0.11 
3.59 12.31 -1.52 0.11 
3.82 12.24 -1.52 0.11 
4.06 12.17 -1.52 0.11 
4.29 12.09 -1.53 0.11 
4.51 12.01 -1.53 0.11 
4.74 11.92 -1.53 0.11 
4.97 11.84 -1.53 0.11 
5.19 11.74 -1.53 0.11 
5.41 11.64 -1.53 0.11 
5.64 11.54 -1.53 0.11 
5.85 11.44 -1.53 0.11 
6.07 11.32 -1.53 0.11 
6.29 11.21 -1.53 0.11 
6.50 11.09 -1.53 0.11 
6.72 10.99 -1.53 0.69 
6.98 10.95 -1.54 0.86 
7.25 10.91 -1.56 0.86 
7.52 10.86 -1.57 0.85 
7.80 10.82 -1.59 0.84 
8.08 10.78 -1.60 0.84 
8.37 10.73 -1.62 0.83 
8.66 10.68 -1.63 0.82 
8.95 10.62 -1.65 0.81 
9.25 10.57 -1.67 0.81 
9.50 10.44 -1.68 0.12 
9.71 10.28 -1.68 0.12 
9.92 10.11 -1.68 0.12 
10.12 9.93 -1.69 0.11 
10.31 9.74 -1.69 0.11 
10.49 9.54 -1.69 0.11 
10.67 9.35 -1.69 0.11 
10.85 9.14 -1.69 0.11 
11.02 8.94 -1.69 0.11 
11.19 8.73 -1.69 0.11 
11.36 8.52 -1.69 0.11 
11.52 8.30 -1.69 0.11 
11.68 8.09 -1.69 0.11 
11.83 7.86 -1.69 0.11 
11.98 7.64 -1.69 0.11 
12.12 7.41 -1.69 0.11 
12.27 7.18 -1.69 0.11 
12.40 6.95 -1.69 0.11 
12.53 6.72 -1.69 0.11 
12.66 6.48 -1.69 0.11 
12.78 6.24 -1.69 0.11 
12.90 6.00 -1.69 0.11 
13.01 5.76 -1.69 0.11 
13.12 5.51 -1.69 0.11 
13.23 5.26 -1.69 0.11 
13.33 5.01 -1.69 0.11 
13.42 4.76 -1.69 0.11 
13.51 4.50 -1.69 0.11 
13.60 4.25 -1.69 0.11 
13.68 3.99 -1.69 0.11 
13.75 3.73 -1.69 0.11 
13.82 3.47 -1.69 0.11 
13.89 3.21 -1.69 0.11 
13.95 2.95 -1.69 0.11 
14.00 2.68 -1.70 0.11 
14.05 2.42 -1.70 0.11 
14.10 2.15 -1.70 0.11 
14.14 1.88 -1.70 0.11 
14.17 1.62 -1.70 0.11 
14.20 1.35 -1.70 0.11 
14.23 1.08 -1.70 0.11 
14.25 0.81 -1.70 0.11 
14.26 0.54 -1.70 0.11 
14.27 0.27 -1.70 0.11 
14.27 -0.00 -1.70 0.11 
14.27 -0.27 -1.70 0.11 
14.27 -0.54 -1.70 0.11 
14.26 -0.81 -1.70 0.11 
14.24 -1.08 -1.70 0.11 
14.22 -1.35 -1.70 0.11 
14.19 -1.62 -1.70 0.11 
14.16 -1.89 -1.70 0.11 
14.12 -2.15 -1.70 0.11 
13.97 -2.40 -1.69 0.11 
13.95 -2.67 -1.69 0.07 
13.98 -2.95 -1.70 0.11 
13.92 -3.22 -1.70 0.11 
13.86 -3.48 -1.70 0.11 
13.79 -3.74 -1.70 0.11 
13.72 -4.00 -1.70 0.11 
13.64 -4.26 -1.70 0.11 
13.56 -4.52 -1.70 0.11 
13.47 -4.78 -1.70 0.11 
13.38 -5.03 -1.70 0.11 
13.28 -5.28 -1.70 0.11 
13.18 -5.53 -1.70 0.11 
13.07 -5.78 -1.70 0.11 
12.96 -6.03 -1.70 0.11 
12.84 -6.27 -1.70 0.11 
12.72 -6.51 -1.70 0.11 
6.58 -3.52 -0.89 0.29 
6.18 -3.47 -0.84 0.35 
5.86 -3.43 -0.81 0.39 
5.60 -3.42 -0.78 0.49 
5.38 -3.43 -0.76 0.53 
5.19 -3.45 -0.74 0.59 
5.06 -3.50 -0.73 0.81 
5.01 -3.61 -0.73 0.79 
4.97 -3.73 -0.74 0.73 
4.93 -3.84 -0.74 0.76 
4.91 -3.98 -0.75 0.65 
4.90 -4.13 -0.76 0.61 
10.45 -9.15 -1.65 0.39 
9.88 -8.98 -1.59 0.41 
9.44 -8.92 -1.54 0.11 
9.27 -9.10 -1.54 0.11 
9.10 -9.27 -1.54 0.11 
8.92 -9.44 -1.54 0.11 
8.74 -9.61 -1.54 0.11 
8.56 -9.77 -1.54 0.11 
8.37 -9.93 -1.54 0.11 
8.18 -10.09 -1.54 0.11 
7.99 -10.24 -1.54 0.11 
7.79 -10.39 -1.54 0.11 
7.59 -10.53 -1.54 0.11 
7.39 -10.67 -1.54 0.11 
7.19 -10.81 -1.54 0.11 
6.98 -10.94 -1.54 0.11 
6.77 -11.07 -1.54 0.11 
6.56 -11.20 -1.54 0.11 
6.35 -11.32 -1.54 0.11 
6.13 -11.44 -1.54 0.11 
5.91 -11.55 -1.54 0.11 
5.69 -11.66 -1.54 0.11 
5.47 -11.76 -1.54 0.11 
5.24 -11.86 -1.54 0.11 
5.02 -11.96 -1.54 0.11 
4.79 -12.05 -1.54 0.11 
4.56 -12.13 -1.54 0.11 
2.90 -8.18 -1.03 0.94 
2.73 -8.20 -1.03 0.94 
3.86 -12.37 -1.54 0.11 
3.63 -12.44 -1.54 0.11 
3.39 -12.50 -1.54 0.11 
2.95 -11.75 -1.44 0.75 
2.71 -11.74 -1.43 0.45 
2.68 -12.67 -1.54 0.11 
2.44 -12.71 -1.54 0.11 
2.19 -12.76 -1.54 0.11 
1.95 -12.79 -1.54 0.11 
1.71 -12.83 -1.54 0.11 
1.47 -12.85 -1.54 0.11 
1.22 -12.88 -1.54 0.11 
0.98 -12.90 -1.54 0.11 
0.73 -12.91 -1.54 0.11 
0.49 -12.92 -1.54 0.11 
0.24 -12.92 -1.54 0.11 
0.00 -12.92 -1.54 0.11 
-0.24 -12.92 -1.54 0.11 
-0.49 -12.91 -1.54 0.11 
-0.73 -12.89 -1.54 0.11 
-0.98 -12.88 -1.54 0.11 
-1.22 -12.85 -1.54 0.11 
-1.46 -12.82 -1.53 0.11 
-1.70 -12.79 -1.53 0.11 
-1.95 -12.75 -1.53 0.11 
-2.19 -12.71 -1.53 0.11 
-2.43 -12.67 -1.53 0.11 
-2.66 -12.62 -1.53 0.11 
-2.90 -12.56 -1.53 0.11 
-3.14 -12.50 -1.53 0.11 
-3.37 -12.44 -1.53 0.11 
-3.61 -12.37 -1.53 0.11 
-3.84 -12.30 -1.53 0.11 
-4.07 -12.22 -1.53 0.11 
-4.30 -12.14 -1.53 0.11 
-4.53 -12.05 -1.53 0.11 
-4.76 -11.96 -1.53 0.11 
-4.98 -11.86 -1.53 0.11 
-5.20 -11.77 -1.53 0.11 
-5.42 -11.66 -1.53 0.11 
-5.64 -11.56 -1.53 0.11 
-5.86 -11.44 -1.53 0.11 
-6.07 -11.33 -1.53 0.11 
-6.28 -11.21 -1.53 0.11 
-6.49 -11.09 -1.53 0.11 
-6.70 -10.96 -1.53 0.11 
-6.91 -10.83 -1.53 0.11 
-7.11 -10.69 -1.53 0.11 
-7.31 -10.55 -1.53 0.11 
-7.50 -10.41 -1.53 0.11 
-7.70 -10.27 -1.53 0.11 
-7.89 -10.12 -1.53 0.11 
-8.08 -9.96 -1.53 0.11 
-8.26 -9.81 -1.52 0.11 
-8.45 -9.65 -1.52 0.11 
-8.63 -9.48 -1.52 0.11 
-8.80 -9.32 -1.52 0.11 
-8.97 -9.15 -1.52 0.11 
-9.14 -8.97 -1.52 0.11 
-9.31 -8.80 -1.52 0.11 
-9.47 -8.62 -1.52 0.11 
-9.63 -8.43 -1.52 0.11 
-9.84 -8.29 -1.53 0.54 
-10.27 -8.33 -1.57 0.53 
-10.73 -8.37 -1.62 0.51 
-11.21 -8.40 -1.67 0.12 
-11.38 -8.21 -1.67 0.12 
-11.56 -8.01 -1.67 0.12 
-11.71 -7.78 -1.67 0.11 
-11.85 -7.56 -1.67 0.11 
-11.99 -7.33 -1.67 0.11 
-12.13 -7.10 -1.67 0.11 
-12.26 -6.87 -1.67 0.11 
-12.38 -6.64 -1.67 0.11 
-12.50 -6.40 -1.67 0.11 
-12.62 -6.16 -1.67 0.11 
-12.73 -5.92 -1.67 0.11 
-12.84 -5.68 -1.67 0.11 
-12.94 -5.43 -1.67 0.11 
-13.04 -5.19 -1.67 0.11 
-13.13 -4.94 -1.67 0.11 
-13.22 -4.69 -1.67 0.11 
-13.29 -4.43 -1.67 0.42 
-13.39 -4.18 -1.67 0.11 
-13.46 -3.93 -1.67 0.11 
-13.53 -3.67 -1.67 0.11 
-13.60 -3.41 -1.67 0.11 
-13.66 -3.16 -1.67 0.11 
-13.71 -2.90 -1.67 0.11 
-13.76 -2.64 -1.67 0.11 
-13.81 -2.37 -1.67 0.11 
-10.34 -1.58 -1.24 0.08 
-10.12 -1.35 -1.21 0.92 
-10.09 -1.15 -1.21 0.93 
-10.08 -0.96 -1.20 0.95 
-10.08 -0.76 -1.20 0.95 
-10.09 -0.57 -1.20 0.95 
-10.12 -0.38 -1.20 0.94 
-10.15 -0.19 -1.21 0.94 
-10.21 -0.00 -1.23 0.90 
-10.28 0.19 -1.23 0.89 
-10.78 0.41 -1.30 0.90 
-13.83 0.79 -1.66 0.11 
-13.81 1.05 -1.66 0.11 
-13.79 1.31 -1.66 0.11 
-13.76 1.57 -1.66 0.11 
-13.73 1.83 -1.66 0.11 
-13.69 2.09 -1.66 0.11 
-13.64 2.35 -1.66 0.11 
-13.60 2.60 -1.66 0.11 
-13.54 2.86 -1.66 0.11 
-13.49 3.12 -1.66 0.11 
-13.43 3.37 -1.66 0.11 
-13.36 3.62 -1.66 0.11 
-13.29 3.88 -1.66 0.11 
-13.21 4.13 -1.66 0.11 
-13.13 4.38 -1.66 0.11 
-13.04 4.62 -1.66 0.11 
-12.95 4.87 -1.66 0.11 
-12.86 5.11 -1.66 0.11 
-12.76 5.36 -1.66 0.11 
-12.66 5.60 -1.66 0.11 
-12.55 5.83 -1.66 0.11 
-12.43 6.07 -1.66 0.11 
-12.32 6.31 -1.66 0.11 
-10.11 5.42 -1.38 0.53 
-9.73 5.46 -1.34 0.54 
-9.39 5.50 -1.31 0.58 
-9.06 5.54 -1.28 0.60 
-8.76 5.58 -1.25 0.62 
-8.46 5.63 -1.22 0.63 
-8.18 5.66 -1.20 0.65 
-7.91 5.70 -1.17 0.65 
-7.65 5.74 -1.15 0.68 
-7.39 5.77 -1.13 0.62 
-7.06 5.73 -1.09 0.67 
-6.82 5.75 -1.07 0.69 
-6.60 5.77 -1.05 0.70 
-6.39 5.81 -1.04 0.79 
-6.20 5.86 -1.03 0.96 
-6.09 5.97 -1.02 0.96 
-5.98 6.10 -1.03 0.84 
-5.93 6.28 -1.04 0.83 
-5.90 6.49 -1.05 0.66 
-5.90 6.74 -1.08 0.60 
-5.94 7.04 -1.11 0.40 
-6.00 7.40 -1.14 0.31 
-8.48 10.87 -1.66 0.13 
-8.18 10.91 -1.64 0.81 
-7.89 10.95 -1.62 0.82 
-7.60 10.98 -1.60 0.83 
-7.32 11.01 -1.59 0.84 
-7.04 11.04 -1.57 0.85 
-6.77 11.07 -1.56 0.86 
-6.50 11.10 -1.55 0.86 
-6.24 11.13 -1.53 0.87 
-5.98 11.16 -1.52 0.88 
-5.74 11.22 -1.51 0.11 
-5.53 11.33 -1.51 0.11 
-5.32 11.43 -1.51 0.11 
-5.10 11.53 -1.51 0.11 
-4.88 11.63 -1.51 0.11 
-4.66 11.72 -1.51 0.11 
-4.44 11.81 -1.52 0.11 
-4.22 11.89 -1.52 0.11 
-3.99 11.97 -1.52 0.11 
-3.76 12.05 -1.52 0.11 
-3.54 12.12 -1.52 0.11 
-3.31 12.18 -1.52 0.11 
-3.08 12.25 -1.52 0.11 
-2.84 12.30 -1.52 0.11 
-2.61 12.36 -1.52 0.11 
-2.38 12.41 -1.52 0.11 
-2.14 12.45 -1.52 0.11 
-1.91 12.49 -1.52 0.11 
-1.67 12.53 -1.52 0.11 
-1.43 12.56 -1.52 0.11 
-1.19 12.59 -1.52 0.11 
-0.96 12.61 -1.52 0.11 
-0.72 12.63 -1.52 0.11 
-0.48 12.64 -1.52 0.11 
-0.24 12.65 -1.52 0.11 
0.00 12.65 -1.52 0.11 
0.24 12.65 -1.52 0.11 
0.48 12.65 -1.52 0.11 
0.72 12.64 -1.52 0.11 
0.96 12.63 -1.52 0.11 
1.20 12.61 -1.52 0.11 
1.44 12.59 -1.52 0.11 
1.67 12.56 -1.52 0.11 
1.91 12.53 -1.52 0.11 
2.15 12.49 -1.52 0.11 
2.38 12.45 -1.52 0.11 
2.62 12.41 -1.52 0.11 
2.86 12.36 -1.52 0.11 
3.09 12.30 -1.52 0.11 
3.32 12.25 -1.52 0.11 
3.55 12.18 -1.52 0.11 
3.79 12.12 -1.52 0.11 
4.01 12.04 -1.52 0.11 
4.24 11.97 -1.53 0.11 
4.47 11.89 -1.53 0.11 
4.69 11.80 -1.53 0.11 
4.92 11.72 -1.53 0.11 
5.14 11.62 -1.53 0.11 
5.36 11.53 -1.53 0.11 
5.58 11.43 -1.53 0.11 
5.79 11.32 -1.53 0.11 
6.01 11.21 -1.53 0.11 
6.22 11.10 -1.53 0.11 
6.45 11.02 -1.53 0.69 
6.71 10.98 -1.55 0.86 
6.98 10.94 -1.56 0.86 
7.25 10.90 -1.57 0.86 
7.52 10.86 -1.59 0.85 
7.80 10.82 -1.60 0.84 
8.08 10.77 -1.62 0.84 
8.36 10.72 -1.63 0.83 
8.65 10.67 -1.65 0.82 
8.95 10.62 -1.67 0.81 
9.20 10.51 -1.68 0.13 
9.41 10.35 -1.68 0.13 
9.62 10.18 -1.68 0.13 
9.83 10.01 -1.69 0.13 
10.02 9.83 -1.69 0.11 
10.20 9.64 -1.69 0.11 
10.39 9.45 -1.69 0.11 
10.57 9.25 -1.69 0.11 
10.74 9.05 -1.69 0.11 
10.91 8.85 -1.69 0.11 
11.08 8.64 -1.69 0.11 
11.24 8.43 -1.69 0.11 
11.40 8.22 -1.69 0.11 
11.56 8.00 -1.69 0.11 
11.71 7.78 -1.69 0.11 
11.86 7.56 -1.69 0.11 
12.00 7.34 -1.69 0.11 
12.14 7.11 -1.69 0.11 
12.28 6.88 -1.69 0.11 
12.41 6.65 -1.69 0.11 
12.53 6.41 -1.69 0.11 
12.65 6.18 -1.69 0.11 
12.77 5.94 -1.69 0.11 
12.88 5.70 -1.69 0.11 
12.99 5.45 -1.69 0.11 
13.09 5.21 -1.69 0.11 
13.19 4.96 -1.69 0.11 
13.28 4.71 -1.69 0.11 
13.37 4.46 -1.69 0.11 
13.46 4.20 -1.69 0.11 
13.54 3.95 -1.69 0.11 
13.61 3.69 -1.69 0.11 
13.68 3.44 -1.69 0.11 
13.75 3.18 -1.69 0.11 
13.80 2.92 -1.69 0.11 
13.86 2.65 -1.70 0.11 
13.91 2.39 -1.70 0.11 
13.95 2.13 -1.70 0.11 
13.99 1.86 -1.70 0.11 
14.03 1.60 -1.70 0.11 
14.06 1.33 -1.70 0.11 
14.08 1.07 -1.70 0.11 
14.10 0.80 -1.70 0.11 
14.12 0.53 -1.70 0.11 
14.12 0.27 -1.70 0.11 
14.13 -0.00 -1.70 0.11 
14.13 -0.27 -1.70 0.11 
14.12 -0.53 -1.70 0.11 
14.11 -0.80 -1.70 0.11 
14.09 -1.07 -1.70 0.11 
14.07 -1.34 -1.70 0.11 
14.05 -1.60 -1.70 0.11 
14.01 -1.87 -1.70 0.11 
13.98 -2.13 -1.70 0.11 
13.82 -2.38 -1.68 0.07 
13.89 -2.66 -1.70 0.11 
13.84 -2.92 -1.70 0.11 
13.78 -3.18 -1.70 0.11 
13.72 -3.44 -1.70 0.11 
13.65 -3.70 -1.70 0.11 
13.58 -3.96 -1.70 0.11 
13.50 -4.22 -1.70 0.11 
13.42 -4.47 -1.70 0.11 
13.33 -4.73 -1.70 0.11 
13.24 -4.98 -1.70 0.11 
13.15 -5.23 -1.70 0.11 
13.04 -5.48 -1.70 0.11 
12.94 -5.72 -1.70 0.11 
12.83 -5.97 -1.70 0.11 
12.71 -6.21 -1.70 0.11 
12.59 -6.45 -1.70 0.11 
6.57 -3.52 -0.90 0.29 
6.18 -3.46 -0.85 0.35 
5.86 -3.43 -0.82 0.39 
5.59 -3.42 -0.79 0.49 
5.38 -3.43 -0.77 0.53 
5.18 -3.45 -0.75 0.59 
5.05 -3.50 -0.74 0.94 
5.01 -3.61 -0.74 0.79 
4.96 -3.72 -0.75 0.73 
4.92 -3.84 -0.75 0.76 
4.90 -3.98 -0.76 0.65 
4.90 -4.13 -0.77 0.61 
10.45 -9.15 -1.67 0.39 
9.87 -8.98 -1.60 0.41 
9.37 -8.85 -1.55 0.40 
9.18 -9.01 -1.54 0.11 
9.01 -9.18 -1.54 0.11 
8.83 -9.35 -1.54 0.11 
8.65 -9.51 -1.54 0.11 
8.47 -9.67 -1.54 0.11 
8.28 -9.83 -1.54 0.11 
8.10 -9.99 -1.54 0.11 
7.91 -10.14 -1.54 0.11 
7.71 -10.28 -1.54 0.11 
7.51 -10.43 -1.54 0.11 
7.32 -10.57 -1.54 0.11 
7.11 -10.70 -1.54 0.11 
6.91 -10.83 -1.54 0.11 
6.70 -10.96 -1.54 0.11 
6.49 -11.08 -1.54 0.11 
6.28 -11.20 -1.54 0.11 
6.07 -11.32 -1.54 0.11 
5.85 -11.43 -1.54 0.11 
5.63 -11.54 -1.54 0.11 
5.41 -11.64 -1.54 0.11 
5.19 -11.74 -1.54 0.11 
4.97 -11.83 -1.54 0.11 
4.74 -11.92 -1.54 0.11 
4.51 -12.01 -1.54 0.11 
2.90 -8.18 -1.04 0.94 
2.73 -8.19 -1.04 0.94 
3.82 -12.24 -1.54 0.11 
3.59 -12.31 -1.54 0.11 
3.36 -12.37 -1.54 0.11 
2.95 -11.75 -1.46 0.66 
2.71 -11.73 -1.45 0.56 
2.65 -12.54 -1.54 0.11 
2.41 -12.58 -1.54 0.11 
2.17 -12.63 -1.54 0.11 
1.93 -12.66 -1.54 0.11 
1.69 -12.70 -1.54 0.11 
1.45 -12.72 -1.54 0.11 
1.21 -12.75 -1.54 0.11 
0.97 -12.76 -1.54 0.11 
0.73 -12.78 -1.54 0.11 
0.48 -12.79 -1.54 0.11 
0.24 -12.79 -1.54 0.11 
0.00 -12.79 -1.54 0.11 
-0.24 -12.79 -1.54 0.11 
-0.48 -12.78 -1.54 0.11 
-0.73 -12.76 -1.54 0.11 
-0.97 -12.75 -1.54 0.11 
-1.21 -12.72 -1.53 0.11 
-1.45 -12.69 -1.53 0.11 
-1.69 -12.66 -1.53 0.11 
-1.93 -12.63 -1.53 0.11 
-2.16 -12.58 -1.53 0.11 
-2.40 -12.54 -1.53 0.11 
-2.64 -12.49 -1.53 0.11 
-2.87 -12.43 -1.53 0.11 
-3.11 -12.37 -1.53 0.11 
-3.34 -12.31 -1.53 0.11 
-3.57 -12.24 -1.53 0.11 
-3.80 -12.17 -1.53 0.11 
-4.03 -12.09 -1.53 0.11 
-4.26 -12.01 -1.53 0.11 
-4.48 -11.93 -1.53 0.11 
-4.71 -11.84 -1.53 0.11 
-4.93 -11.74 -1.53 0.11 
-5.15 -11.65 -1.53 0.11 
-5.37 -11.55 -1.53 0.11 
-5.59 -11.44 -1.53 0.11 
-5.80 -11.33 -1.53 0.11 
-6.01 -11.21 -1.53 0.11 
-6.22 -11.10 -1.53 0.11 
-6.43 -10.97 -1.53 0.11 
-6.63 -10.85 -1.53 0.11 
-6.84 -10.72 -1.53 0.11 
-7.04 -10.59 -1.53 0.11 
-7.23 -10.45 -1.53 0.11 
-7.43 -10.31 -1.53 0.11 
-7.62 -10.16 -1.53 0.11 
-7.81 -10.01 -1.53 0.11 
-8.00 -9.86 -1.53 0.11 
-8.18 -9.71 -1.52 0.11 
-8.36 -9.55 -1.52 0.11 
-8.54 -9.39 -1.52 0.11 
-8.71 -9.22 -1.52 0.11 
-8.88 -9.05 -1.52 0.11 
-9.05 -8.88 -1.52 0.11 
-9.22 -8.71 -1.52 0.11 
-9.38 -8.53 -1.52 0.11 
-9.54 -8.35 -1.52 0.11 
-9.84 -8.29 -1.55 0.54 
-10.27 -8.33 -1.59 0.53 
-10.73 -8.37 -1.63 0.51 
-11.10 -8.32 -1.67 0.12 
-11.28 -8.13 -1.67 0.12 
-11.45 -7.93 -1.67 0.11 
-11.59 -7.71 -1.67 0.11 
-11.73 -7.48 -1.67 0.11 
-11.87 -7.26 -1.67 0.11 
-12.00 -7.03 -1.67 0.11 
-12.13 -6.80 -1.67 0.11 
-12.26 -6.57 -1.67 0.11 
-12.38 -6.34 -1.67 0.11 
-12.49 -6.10 -1.67 0.11 
-12.60 -5.86 -1.67 0.11 
-12.71 -5.62 -1.67 0.11 
-12.81 -5.38 -1.67 0.11 
-12.91 -5.13 -1.67 0.11 
-13.00 -4.89 -1.67 0.11 
-13.09 -4.64 -1.67 0.11 
-13.17 -4.39 -1.67 0.11 
-13.25 -4.14 -1.67 0.11 
-13.33 -3.89 -1.67 0.11 
-13.40 -3.63 -1.67 0.11 
-13.46 -3.38 -1.67 0.11 
-13.52 -3.12 -1.67 0.11 
-13.57 -2.87 -1.67 0.11 
-13.62 -2.61 -1.67 0.11 
-13.67 -2.35 -1.67 0.11 
-10.37 -1.58 -1.26 0.08 
-10.12 -1.35 -1.23 0.92 
-10.09 -1.15 -1.22 0.93 
-10.07 -0.96 -1.22 0.95 
-10.08 -0.76 -1.21 0.95 
-10.09 -0.57 -1.21 0.95 
-10.12 -0.38 -1.22 0.94 
-10.15 -0.19 -1.22 0.94 
-10.20 -0.00 -1.24 0.90 
-10.28 0.19 -1.25 0.89 
-10.79 0.41 -1.31 0.90 
-13.69 0.78 -1.66 0.12 
-13.67 1.04 -1.66 0.12 
-13.65 1.30 -1.66 0.12 
-13.62 1.55 -1.66 0.12 
-13.59 1.81 -1.66 0.12 
-13.55 2.07 -1.66 0.12 
-13.51 2.32 -1.66 0.12 
-13.46 2.58 -1.66 0.12 
-13.41 2.83 -1.66 0.12 
-13.35 3.09 -1.66 0.12 
-13.29 3.34 -1.66 0.12 
-13.23 3.59 -1.66 0.12 
-13.16 3.84 -1.66 0.12 
-13.08 4.09 -1.66 0.12 
-13.00 4.33 -1.66 0.12 
-12.91 4.58 -1.66 0.12 
-12.83 4.82 -1.66 0.12 
-12.73 5.06 -1.66 0.12 
-12.63 5.30 -1.66 0.12 
-12.53 5.54 -1.66 0.12 
-12.42 5.78 -1.66 0.12 
-12.31 6.01 -1.66 0.12 
-12.19 6.24 -1.66 0.12 
-10.11 5.42 -1.39 0.53 
-9.73 5.46 -1.35 0.54 
-9.39 5.50 -1.32 0.58 
-9.06 5.54 -1.29 0.60 
-8.75 5.58 -1.26 0.62 
-8.46 5.62 -1.23 0.63 
-8.18 5.66 -1.21 0.65 
-7.91 5.70 -1.18 0.65 
-7.65 5.74 -1.16 0.68 
-7.39 5.76 -1.14 0.62 
-7.06 5.73 -1.10 0.67 
-6.82 5.75 -1.08 0.69 
-6.60 5.77 -1.06 0.70 
-6.44 5.86 -1.06 0.60 
-6.20 5.86 -1.04 0.96 
-6.09 5.97 -1.03 0.97 
-5.98 6.10 -1.04 0.83 
-5.93 6.28 -1.05 0.82 
-5.90 6.49 -1.06 0.66 
-5.90 6.74 -1.09 0.60 
-5.94 7.05 -1.12 0.40 
-6.00 7.40 -1.16 0.31 
-8.40 10.77 -1.66 0.13 
-8.18 10.91 -1.65 0.81 
-7.89 10.94 -1.64 0.82 
-7.60 10.98 -1.62 0.83 
-7.32 11.01 -1.60 0.84 
-7.04 11.04 -1.59 0.85 
-6.77 11.07 -1.57 0.86 
-6.50 11.10 -1.56 0.86 
-6.24 11.13 -1.55 0.87 
-5.98 11.16 -1.54 0.88 
-5.73 11.18 -1.52 0.88 
-5.48 11.22 -1.51 0.12 
-5.26 11.32 -1.51 0.12 
-5.05 11.42 -1.51 0.12 
-4.83 11.51 -1.51 0.12 
-4.61 11.60 -1.52 0.12 
-4.39 11.69 -1.52 0.12 
-4.17 11.77 -1.52 0.12 
-3.95 11.85 -1.52 0.12 
-3.73 11.93 -1.52 0.12 
-3.50 12.00 -1.52 0.12 
-3.27 12.06 -1.52 0.12 
-3.04 12.12 -1.52 0.12 
-2.82 12.18 -1.52 0.12 
-2.58 12.23 -1.52 0.12 
-2.35 12.28 -1.52 0.12 
-2.12 12.33 -1.52 0.12 
-1.89 12.37 -1.52 0.12 
-1.65 12.40 -1.52 0.12 
-1.42 12.43 -1.52 0.12 
-1.18 12.46 -1.52 0.12 
-0.95 12.48 -1.52 0.12 
-0.71 12.50 -1.52 0.12 
-0.47 12.51 -1.52 0.12 
-0.24 12.52 -1.52 0.12 
0.00 12.53 -1.52 0.12 
0.24 12.53 -1.52 0.12 
0.47 12.52 -1.52 0.12 
0.71 12.51 -1.52 0.12 
0.95 12.50 -1.52 0.12 
1.18 12.48 -1.52 0.12 
1.42 12.46 -1.52 0.12 
1.66 12.43 -1.52 0.11 
1.89 12.40 -1.52 0.11 
2.13 12.37 -1.52 0.11 
2.36 12.33 -1.52 0.11 
2.59 12.28 -1.52 0.11 
2.83 12.23 -1.52 0.11 
3.06 12.18 -1.52 0.11 
3.29 12.12 -1.52 0.11 
3.52 12.06 -1.52 0.11 
3.75 11.99 -1.52 0.11 
3.97 11.92 -1.52 0.11 
4.20 11.85 -1.53 0.11 
4.42 11.77 -1.53 0.11 
4.65 11.69 -1.53 0.11 
4.87 11.60 -1.53 0.11 
5.09 11.51 -1.53 0.11 
5.31 11.41 -1.53 0.11 
5.52 11.31 -1.53 0.11 
5.74 11.21 -1.53 0.11 
5.95 11.10 -1.53 0.11 
6.19 11.05 -1.54 0.88 
6.45 11.01 -1.55 0.87 
6.71 10.98 -1.56 0.86 
6.98 10.94 -1.57 0.86 
7.25 10.90 -1.59 0.86 
7.52 10.86 -1.60 0.85 
7.80 10.82 -1.62 0.84 
8.08 10.77 -1.63 0.84 
8.36 10.72 -1.65 0.83 
8.65 10.67 -1.67 0.82 
8.91 10.57 -1.68 0.13 
9.12 10.42 -1.68 0.13 
9.33 10.26 -1.68 0.13 
9.53 10.09 -1.68 0.13 
9.73 9.92 -1.69 0.11 
9.92 9.73 -1.69 0.11 
10.10 9.54 -1.69 0.11 
10.28 9.35 -1.69 0.11 
10.46 9.16 -1.69 0.11 
10.63 8.96 -1.69 0.11 
10.80 8.76 -1.69 0.11 
10.97 8.56 -1.69 0.11 
11.13 8.35 -1.69 0.11 
11.29 8.14 -1.69 0.11 
11.44 7.92 -1.69 0.11 
11.59 7.71 -1.69 0.11 
11.74 7.49 -1.69 0.11 
11.88 7.27 -1.69 0.11 
12.02 7.04 -1.69 0.11 
12.15 6.81 -1.69 0.11 
12.28 6.58 -1.69 0.11 
12.41 6.35 -1.69 0.11 
12.53 6.12 -1.69 0.11 
12.64 5.88 -1.69 0.11 
12.75 5.64 -1.69 0.11 
12.86 5.40 -1.69 0.11 
12.96 5.15 -1.69 0.11 
13.06 4.91 -1.69 0.11 
13.15 4.66 -1.69 0.11 
13.24 4.41 -1.69 0.11 
13.32 4.16 -1.69 0.11 
13.40 3.91 -1.69 0.11 
13.47 3.66 -1.69 0.11 
13.54 3.40 -1.69 0.11 
13.61 3.14 -1.69 0.11 
13.67 2.89 -1.69 0.11 
13.72 2.63 -1.69 0.11 
13.77 2.37 -1.70 0.11 
13.81 2.11 -1.70 0.11 
13.85 1.85 -1.70 0.11 
13.89 1.58 -1.70 0.11 
13.92 1.32 -1.70 0.11 
13.94 1.06 -1.70 0.11 
13.96 0.79 -1.70 0.11 
13.97 0.53 -1.70 0.11 
13.98 0.26 -1.70 0.11 
13.99 -0.00 -1.70 0.11 
13.98 -0.26 -1.70 0.11 
13.98 -0.53 -1.70 0.11 
13.97 -0.79 -1.70 0.11 
13.95 -1.06 -1.70 0.11 
13.93 -1.32 -1.70 0.11 
13.90 -1.59 -1.70 0.11 
13.87 -1.85 -1.70 0.11 
13.84 -2.11 -1.70 0.11 
13.79 -2.37 -1.70 0.11 
13.75 -2.63 -1.70 0.11 
13.70 -2.89 -1.70 0.11 
13.64 -3.15 -1.70 0.11 
13.58 -3.41 -1.70 0.11 
13.51 -3.67 -1.70 0.11 
13.44 -3.92 -1.70 0.11 
13.37 -4.18 -1.70 0.11 
13.28 -4.43 -1.70 0.11 
13.20 -4.68 -1.70 0.11 
13.11 -4.93 -1.70 0.11 
13.01 -5.17 -1.70 0.11 
12.91 -5.42 -1.70 0.11 
12.81 -5.66 -1.70 0.11 
12.70 -5.91 -1.70 0.11 
12.59 -6.14 -1.70 0.11 
12.47 -6.38 -1.70 0.11 
6.56 -3.52 -0.90 0.29 
6.18 -3.46 -0.86 0.41 
5.86 -3.43 -0.82 0.39 
5.59 -3.42 -0.79 0.49 
5.37 -3.43 -0.77 0.53 
5.18 -3.44 -0.75 0.59 
5.05 -3.50 -0.75 0.95 
5.00 -3.61 -0.75 0.79 
4.96 -3.72 -0.75 0.73 
4.91 -3.83 -0.76 0.76 
4.90 -3.97 -0.77 0.60 
4.89 -4.12 -0.78 0.61 
10.44 -9.14 -1.68 0.39 
9.87 -8.97 -1.62 0.41 
9.36 -8.84 -1.56 0.46 
9.09 -8.92 -1.54 0.11 
8.92 -9.09 -1.54 0.11 
8.74 -9.25 -1.54 0.11 
8.56 -9.42 -1.54 0.11 
8.38 -9.58 -1.54 0.11 
8.20 -9.73 -1.54 0.11 
8.01 -9.88 -1.54 0.11 
7.83 -10.03 -1.54 0.11 
7.63 -10.18 -1.54 0.11 
7.44 -10.32 -1.54 0.11 
7.24 -10.46 -1.54 0.11 
7.04 -10.59 -1.54 0.11 
6.84 -10.72 -1.54 0.11 
6.63 -10.85 -1.54 0.11 
6.43 -10.97 -1.54 0.11 
6.22 -11.09 -1.54 0.11 
6.01 -11.20 -1.54 0.11 
5.79 -11.31 -1.54 0.11 
5.58 -11.42 -1.54 0.11 
5.36 -11.52 -1.54 0.11 
5.14 -11.62 -1.54 0.11 
4.92 -11.71 -1.54 0.11 
4.69 -11.80 -1.54 0.11 
4.47 -11.89 -1.54 0.11 
2.90 -8.17 -1.05 0.94 
2.73 -8.19 -1.05 0.94 
3.79 -12.12 -1.54 0.11 
3.56 -12.19 -1.54 0.11 
3.32 -12.25 -1.54 0.11 
2.95 -11.76 -1.47 0.44 
2.71 -11.72 -1.46 0.60 
2.62 -12.41 -1.54 0.11 
2.39 -12.46 -1.54 0.11 
2.15 -12.50 -1.54 0.11 
1.91 -12.54 -1.54 0.11 
1.67 -12.57 -1.54 0.11 
1.44 -12.59 -1.54 0.11 
1.20 -12.62 -1.54 0.11 
0.96 -12.64 -1.54 0.11 
0.72 -12.65 -1.54 0.11 
0.48 -12.66 -1.54 0.11 
0.24 -12.66 -1.54 0.11 
0.00 -12.66 -1.54 0.11 
-0.24 -12.66 -1.54 0.11 
-0.48 -12.65 -1.54 0.11 
-0.72 -12.64 -1.54 0.11 
-0.96 -12.62 -1.54 0.11 
-1.20 -12.59 -1.53 0.11 
-1.43 -12.57 -1.53 0.11 
-1.67 -12.54 -1.53 0.11 
-1.91 -12.50 -1.53 0.11 
-2.14 -12.46 -1.53 0.11 
-2.38 -12.41 -1.53 0.11 
-2.61 -12.36 -1.53 0.11 
-2.84 -12.31 -1.53 0.11 
-3.08 -12.25 -1.53 0.11 
-3.31 -12.19 -1.53 0.11 
-3.54 -12.12 -1.53 0.11 
-3.76 -12.05 -1.53 0.11 
-3.99 -11.97 -1.53 0.11 
-4.22 -11.89 -1.53 0.11 
-4.44 -11.81 -1.53 0.11 
-4.66 -11.72 -1.53 0.11 
-4.88 -11.63 -1.53 0.11 
-5.10 -11.53 -1.53 0.11 
-5.32 -11.43 -1.53 0.11 
-5.53 -11.32 -1.53 0.11 
-5.74 -11.22 -1.53 0.11 
-5.95 -11.10 -1.53 0.11 
-6.16 -10.99 -1.53 0.11 
-6.36 -10.86 -1.53 0.11 
-6.57 -10.74 -1.53 0.11 
-6.77 -10.61 -1.53 0.11 
-6.97 -10.48 -1.53 0.11 
-7.16 -10.34 -1.53 0.11 
-7.36 -10.20 -1.53 0.11 
-7.55 -10.06 -1.53 0.11 
-7.73 -9.91 -1.53 0.11 
-7.92 -9.76 -1.53 0.11 
-8.10 -9.61 -1.52 0.11 
-8.28 -9.45 -1.52 0.11 
-8.45 -9.29 -1.52 0.11 
-8.63 -9.13 -1.52 0.11 
-8.80 -8.96 -1.52 0.11 
-8.96 -8.79 -1.52 0.11 
-9.12 -8.62 -1.52 0.11 
-9.28 -8.44 -1.52 0.11 
-9.44 -8.27 -1.52 0.11 
-9.83 -8.29 -1.56 0.54 
-10.26 -8.32 -1.60 0.53 
-10.72 -8.36 -1.65 0.51 
-11.00 -8.25 -1.67 0.12 
-11.17 -8.05 -1.67 0.12 
-11.33 -7.85 -1.67 0.11 
-11.48 -7.63 -1.67 0.11 
-11.62 -7.41 -1.67 0.11 
-11.75 -7.19 -1.67 0.11 
-11.88 -6.96 -1.67 0.11 
-12.01 -6.73 -1.67 0.11 
-12.14 -6.51 -1.67 0.11 
-12.25 -6.27 -1.67 0.11 
-12.37 -6.04 -1.67 0.11 
-12.48 -5.80 -1.67 0.11 
-12.58 -5.56 -1.67 0.11 
-12.69 -5.32 -1.67 0.11 
-12.78 -5.08 -1.67 0.11 
-12.87 -4.84 -1.67 0.11 
-12.96 -4.59 -1.67 0.11 
-13.04 -4.35 -1.67 0.11 
-13.12 -4.10 -1.67 0.11 
-13.19 -3.85 -1.67 0.11 
-13.26 -3.60 -1.67 0.11 
-13.33 -3.35 -1.67 0.11 
-13.39 -3.09 -1.67 0.11 
-13.44 -2.84 -1.67 0.11 
-13.49 -2.58 -1.67 0.11 
-13.53 -2.33 -1.67 0.11 
-10.39 -1.59 -1.28 0.08 
-10.12 -1.35 -1.24 0.92 
-10.09 -1.15 -1.23 0.93 
-10.07 -0.96 -1.23 0.95 
-10.08 -0.76 -1.23 0.95 
-10.09 -0.57 -1.23 0.95 
-10.12 -0.38 -1.23 0.94 
-10.15 -0.19 -1.23 0.94 
-10.20 -0.00 -1.25 0.90 
-10.27 0.19 -1.26 0.89 
-10.79 0.41 -1.32 0.90 
-13.56 0.77 -1.66 0.12 
-13.54 1.03 -1.66 0.12 
-13.52 1.28 -1.66 0.12 
-13.49 1.54 -1.66 0.12 
-13.46 1.79 -1.66 0.12 
-13.42 2.05 -1.66 0.12 
-13.38 2.30 -1.66 0.12 
-13.33 2.55 -1.66 0.12 
-13.28 2.81 -1.66 0.12 
-13.22 3.06 -1.66 0.12 
-13.16 3.31 -1.66 0.12 
-13.10 3.55 -1.66 0.12 
-13.03 3.80 -1.66 0.12 
-12.95 4.05 -1.66 0.12 
-12.87 4.29 -1.66 0.12 
-12.79 4.53 -1.66 0.12 
-12.70 4.77 -1.66 0.12 
-12.61 5.01 -1.66 0.12 
-12.51 5.25 -1.66 0.12 
-12.41 5.49 -1.66 0.12 
-12.30 5.72 -1.66 0.12 
-12.19 5.95 -1.66 0.12 
-12.08 6.18 -1.66 0.12 
-10.11 5.42 -1.41 0.53 
-9.73 5.46 -1.37 0.54 
-9.39 5.50 -1.33 0.58 
-9.06 5.54 -1.30 0.60 
-8.75 5.58 -1.27 0.62 
-8.46 5.62 -1.24 0.63 
-8.18 5.66 -1.22 0.65 
-7.91 5.70 -1.19 0.65 
-7.65 5.73 -1.17 0.68 
-7.39 5.76 -1.15 0.62 
-7.06 5.73 -1.11 0.67 
-6.82 5.75 -1.09 0.69 
-6.60 5.77 -1.07 0.70 
-6.43 5.85 -1.07 0.60 
-6.20 5.86 -1.05 0.81 
-6.08 5.97 -1.04 0.97 
-5.98 6.09 -1.05 0.83 
-5.93 6.28 -1.06 0.82 
-5.90 6.49 -1.07 0.66 
-5.90 6.74 -1.10 0.66 
-5.94 7.05 -1.13 0.40 
-5.99 7.39 -1.17 0.31 
-8.33 10.68 -1.66 0.13 
-8.12 10.82 -1.66 0.13 
-7.89 10.94 -1.65 0.82 
-7.60 10.97 -1.64 0.83 
-7.32 11.01 -1.62 0.84 
-7.04 11.04 -1.60 0.85 
-6.77 11.07 -1.59 0.86 
-6.50 11.10 -1.58 0.87 
-6.24 11.13 -1.56 0.87 
-5.98 11.16 -1.55 0.88 
-5.72 11.18 -1.54 0.88 
-5.47 11.21 -1.53 0.89 
-5.22 11.24 -1.52 0.71 
-5.00 11.31 -1.51 0.12 
-4.79 11.40 -1.52 0.12 
-4.57 11.49 -1.52 0.12 
-4.35 11.58 -1.52 0.12 
-4.13 11.66 -1.52 0.12 
-3.91 11.74 -1.52 0.12 
-3.69 11.81 -1.52 0.12 
-3.47 11.88 -1.52 0.12 
-3.24 11.94 -1.52 0.12 
-3.01 12.00 -1.52 0.12 
-2.79 12.06 -1.52 0.12 
-2.56 12.11 -1.52 0.12 
-2.33 12.16 -1.52 0.12 
-2.10 12.21 -1.52 0.12 
-1.87 12.25 -1.52 0.12 
-1.64 12.28 -1.52 0.12 
-1.40 12.31 -1.52 0.12 
-1.17 12.34 -1.52 0.12 
-0.94 12.36 -1.52 0.12 
-0.70 12.38 -1.52 0.12 
-0.47 12.39 -1.52 0.12 
-0.23 12.40 -1.52 0.12 
0.00 12.40 -1.52 0.12 
0.23 12.40 -1.52 0.12 
0.47 12.40 -1.52 0.12 
0.70 12.39 -1.52 0.12 
0.94 12.38 -1.52 0.12 
1.17 12.36 -1.52 0.12 
1.41 12.34 -1.52 0.12 
1.64 12.31 -1.52 0.12 
1.87 12.28 -1.52 0.12 
2.11 12.25 -1.52 0.12 
2.34 12.21 -1.52 0.12 
2.57 12.16 -1.52 0.12 
2.80 12.11 -1.52 0.12 
3.03 12.06 -1.52 0.12 
3.26 12.00 -1.52 0.12 
3.48 11.94 -1.52 0.12 
3.71 11.88 -1.52 0.12 
3.94 11.81 -1.52 0.12 
4.16 11.73 -1.53 0.12 
4.38 11.65 -1.53 0.12 
4.60 11.57 -1.53 0.12 
4.82 11.48 -1.53 0.12 
5.04 11.39 -1.53 0.12 
5.25 11.30 -1.53 0.12 
5.47 11.20 -1.53 0.12 
5.69 11.11 -1.53 0.70 
5.94 11.08 -1.54 0.89 
6.19 11.04 -1.55 0.88 
6.45 11.01 -1.56 0.87 
6.71 10.98 -1.58 0.86 
6.98 10.94 -1.59 0.86 
7.24 10.90 -1.60 0.86 
7.52 10.86 -1.62 0.85 
7.79 10.81 -1.63 0.84 
8.08 10.77 -1.65 0.84 
8.36 10.72 -1.67 0.83 
8.62 10.63 -1.68 0.13 
8.83 10.48 -1.68 0.13 
9.04 10.32 -1.68 0.13 
9.25 10.16 -1.68 0.13 
9.44 10.00 -1.68 0.11 
9.63 9.82 -1.69 0.11 
9.82 9.63 -1.69 0.11 
10.00 9.45 -1.69 0.11 
10.18 9.26 -1.69 0.11 
10.36 9.07 -1.69 0.11 
10.53 8.87 -1.69 0.11 
10.70 8.67 -1.69 0.11 
10.86 8.47 -1.69 0.11 
11.02 8.26 -1.69 0.11 
11.18 8.06 -1.69 0.11 
11.33 7.84 -1.69 0.11 
11.48 7.63 -1.69 0.11 
11.62 7.41 -1.69 0.11 
11.76 7.19 -1.69 0.11 
11.90 6.97 -1.69 0.11 
12.03 6.75 -1.69 0.11 
12.16 6.52 -1.69 0.11 
12.28 6.29 -1.69 0.11 
12.40 6.05 -1.69 0.11 
12.52 5.82 -1.69 0.11 
12.63 5.58 -1.69 0.11 
12.73 5.34 -1.69 0.11 
12.83 5.10 -1.69 0.11 
12.93 4.86 -1.69 0.11 
13.02 4.62 -1.69 0.11 
13.11 4.37 -1.69 0.11 
13.19 4.12 -1.69 0.11 
13.27 3.87 -1.69 0.11 
13.34 3.62 -1.69 0.11 
13.41 3.37 -1.69 0.11 
13.47 3.11 -1.69 0.11 
13.53 2.86 -1.69 0.11 
13.58 2.60 -1.69 0.11 
13.63 2.34 -1.69 0.11 
13.67 2.09 -1.70 0.11 
13.71 1.83 -1.70 0.11 
13.75 1.57 -1.70 0.11 
13.78 1.31 -1.70 0.11 
13.80 1.05 -1.70 0.11 
13.82 0.79 -1.70 0.11 
13.83 0.52 -1.70 0.11 
13.84 0.26 -1.70 0.11 
13.85 -0.00 -1.70 0.11 
13.84 -0.26 -1.70 0.11 
13.84 -0.52 -1.70 0.11 
13.83 -0.79 -1.70 0.11 
13.81 -1.05 -1.70 0.11 
13.79 -1.31 -1.70 0.11 
13.76 -1.57 -1.70 0.11 
13.73 -1.83 -1.70 0.11 
13.70 -2.09 -1.70 0.11 
13.66 -2.35 -1.70 0.11 
13.61 -2.61 -1.70 0.11 
13.56 -2.86 -1.70 0.11 
13.50 -3.12 -1.70 0.11 
13.44 -3.38 -1.70 0.11 
13.38 -3.63 -1.70 0.11 
13.31 -3.88 -1.70 0.11 
13.23 -4.13 -1.70 0.11 
13.15 -4.38 -1.70 0.11 
13.07 -4.63 -1.70 0.11 
12.98 -4.88 -1.70 0.11 
12.88 -5.12 -1.70 0.11 
12.78 -5.37 -1.70 0.11 
12.68 -5.61 -1.70 0.11 
12.57 -5.85 -1.70 0.11 
12.46 -6.08 -1.70 0.11 
12.34 -6.32 -1.70 0.11 
6.55 -3.51 -0.91 0.29 
6.17 -3.46 -0.87 0.41 
5.85 -3.43 -0.83 0.39 
5.58 -3.41 -0.80 0.49 
5.37 -3.42 -0.78 0.53 
5.18 -3.44 -0.76 0.59 
5.05 -3.50 -0.75 0.95 
5.00 -3.60 -0.75 0.79 
4.95 -3.71 -0.76 0.73 
4.91 -3.83 -0.76 0.76 
4.89 -3.97 -0.77 0.66 
4.89 -4.12 -0.78 0.61 
10.38 -9.09 -1.69 0.12 
9.86 -8.97 -1.63 0.41 
9.36 -8.84 -1.58 0.46 
9.00 -8.83 -1.54 0.11 
8.83 -8.99 -1.54 0.11 
8.65 -9.16 -1.54 0.11 
8.48 -9.32 -1.54 0.11 
8.30 -9.48 -1.54 0.11 
8.12 -9.63 -1.54 0.11 
7.93 -9.79 -1.54 0.11 
7.75 -9.93 -1.54 0.11 
7.56 -10.08 -1.54 0.11 
7.36 -10.22 -1.54 0.11 
7.17 -10.35 -1.54 0.11 
6.97 -10.49 -1.54 0.11 
6.77 -10.62 -1.54 0.11 
6.57 -10.74 -1.54 0.11 
6.36 -10.86 -1.54 0.11 
6.16 -10.98 -1.54 0.11 
5.95 -11.09 -1.54 0.11 
5.73 -11.20 -1.54 0.11 
5.52 -11.31 -1.54 0.11 
5.31 -11.41 -1.54 0.11 
5.09 -11.51 -1.54 0.11 
4.87 -11.60 -1.54 0.11 
4.65 -11.69 -1.54 0.11 
4.42 -11.77 -1.54 0.11 
2.90 -8.17 -1.06 0.94 
2.73 -8.19 -1.06 0.94 
3.75 -12.00 -1.54 0.11 
3.52 -12.06 -1.54 0.11 
3.29 -12.13 -1.54 0.11 
3.06 -12.19 -1.54 0.11 
2.71 -11.72 -1.47 0.58 
2.60 -12.29 -1.54 0.11 
2.36 -12.33 -1.54 0.11 
2.13 -12.37 -1.54 0.11 
1.89 -12.41 -1.54 0.11 
1.66 -12.44 -1.54 0.11 
1.42 -12.47 -1.54 0.11 
1.19 -12.49 -1.54 0.11 
0.95 -12.51 -1.54 0.11 
0.71 -12.52 -1.54 0.11 
0.47 -12.53 -1.54 0.11 
0.24 -12.54 -1.54 0.12 
0.00 -12.54 -1.54 0.12 
-0.24 -12.53 -1.54 0.12 
-0.47 -12.52 -1.54 0.12 
-0.71 -12.51 -1.54 0.12 
-0.95 -12.49 -1.54 0.12 
-1.18 -12.47 -1.53 0.12 
-1.42 -12.44 -1.53 0.12 
-1.65 -12.41 -1.53 0.12 
-1.89 -12.37 -1.53 0.12 
-2.12 -12.33 -1.53 0.12 
-2.35 -12.29 -1.53 0.12 
-2.59 -12.24 -1.53 0.12 
-2.82 -12.19 -1.53 0.12 
-3.05 -12.13 -1.53 0.12 
-3.27 -12.07 -1.53 0.12 
-3.50 -12.00 -1.53 0.12 
-3.73 -11.93 -1.53 0.12 
-3.95 -11.85 -1.53 0.12 
-4.17 -11.77 -1.53 0.12 
-4.40 -11.69 -1.53 0.12 
-4.61 -11.60 -1.53 0.12 
-4.83 -11.51 -1.53 0.12 
-5.05 -11.42 -1.53 0.12 
-5.26 -11.32 -1.53 0.12 
-5.47 -11.21 -1.53 0.12 
-5.68 -11.10 -1.53 0.12 
-5.89 -10.99 -1.53 0.12 
-6.10 -10.88 -1.53 0.12 
-6.30 -10.76 -1.53 0.12 
-6.50 -10.63 -1.53 0.12 
-6.70 -10.51 -1.53 0.12 
-6.90 -10.38 -1.53 0.12 
-7.09 -10.24 -1.53 0.12 
-7.28 -10.10 -1.53 0.12 
-7.47 -9.96 -1.53 0.12 
-7.66 -9.82 -1.53 0.12 
-7.84 -9.67 -1.53 0.12 
-8.02 -9.52 -1.52 0.12 
-8.20 -9.36 -1.52 0.12 
-8.37 -9.20 -1.52 0.12 
-8.54 -9.04 -1.52 0.12 
-8.71 -8.88 -1.52 0.12 
-8.87 -8.71 -1.52 0.12 
-9.03 -8.54 -1.52 0.12 
-9.19 -8.36 -1.52 0.12 
-9.42 -8.25 -1.53 0.56 
-9.83 -8.28 -1.58 0.54 
-10.26 -8.32 -1.62 0.53 
-10.72 -8.36 -1.67 0.51 
-10.90 -8.17 -1.67 0.12 
-11.07 -7.98 -1.67 0.12 
-11.22 -7.77 -1.67 0.12 
-11.36 -7.55 -1.67 0.12 
-11.50 -7.34 -1.67 0.12 
-11.64 -7.12 -1.67 0.12 
-11.77 -6.89 -1.67 0.12 
-11.89 -6.67 -1.67 0.12 
-12.02 -6.44 -1.67 0.12 
-12.13 -6.21 -1.67 0.12 
-12.25 -5.98 -1.67 0.12 
-12.36 -5.75 -1.67 0.12 
-12.46 -5.51 -1.67 0.12 
-12.56 -5.27 -1.67 0.12 
-12.66 -5.03 -1.67 0.12 
-12.75 -4.79 -1.67 0.12 
-12.83 -4.55 -1.67 0.12 
-12.91 -4.30 -1.67 0.12 
-12.99 -4.06 -1.67 0.12 
-13.06 -3.81 -1.67 0.12 
-13.13 -3.56 -1.67 0.12 
-13.20 -3.31 -1.67 0.12 
-13.25 -3.06 -1.67 0.12 
-13.31 -2.81 -1.67 0.12 
-13.36 -2.56 -1.67 0.12 
-13.40 -2.31 -1.67 0.12 
-10.58 -1.61 -1.31 0.91 
-10.12 -1.35 -1.25 0.92 
-10.09 -1.15 -1.24 0.93 
-10.07 -0.96 -1.24 0.95 
-10.08 -0.76 -1.24 0.95 
-10.09 -0.57 -1.24 0.95 
-10.12 -0.38 -1.24 0.94 
-10.15 -0.19 -1.24 0.94 
-10.20 -0.00 -1.26 0.90 
-10.27 0.19 -1.27 0.89 
-10.79 0.41 -1.34 0.90 
-13.43 0.76 -1.66 0.12 
-13.41 1.02 -1.66 0.12 
-13.39 1.27 -1.66 0.12 
-13.36 1.52 -1.66 0.12 
-13.33 1.78 -1.66 0.12 
-13.29 2.03 -1.66 0.12 
-13.25 2.28 -1.66 0.12 
-13.20 2.53 -1.66 0.12 
-13.15 2.78 -1.66 0.12 
-13.09 3.03 -1.66 0.12 
-13.03 3.27 -1.66 0.12 
-12.97 3.52 -1.66 0.12 
-12.90 3.76 -1.66 0.12 
-12.83 4.01 -1.66 0.12 
-12.75 4.25 -1.66 0.12 
-12.66 4.49 -1.66 0.12 
-12.58 4.73 -1.66 0.12 
-12.48 4.96 -1.66 0.12 
-12.39 5.20 -1.66 0.12 
-12.29 5.43 -1.66 0.12 
-12.18 5.66 -1.66 0.12 
-12.07 5.89 -1.66 0.12 
-11.96 6.12 -1.66 0.12 
-10.11 5.42 -1.42 0.53 
-9.74 5.46 -1.38 0.54 
-9.39 5.50 -1.35 0.58 
-9.06 5.54 -1.31 0.60 
-8.75 5.58 -1.28 0.62 
-8.46 5.62 -1.26 0.63 
-8.18 5.66 -1.23 0.65 
-7.90 5.70 -1.21 0.65 
-7.65 5.73 -1.18 0.68 
-7.39 5.76 -1.16 0.62 
-7.06 5.73 -1.13 0.67 
-6.82 5.75 -1.10 0.69 
-6.60 5.77 -1.08 0.70 
-6.43 5.84 -1.07 0.60 
-6.20 5.86 -1.06 0.82 
-6.08 5.97 -1.05 0.97 
-5.98 6.09 -1.06 0.83 
-5.93 6.27 -1.07 0.82 
-5.90 6.49 -1.09 0.66 
-5.90 6.74 -1.11 0.66 
-5.94 7.05 -1.14 0.40 
-5.99 7.39 -1.18 0.44 
-8.26 10.59 -1.66 0.13 
-8.05 10.73 -1.66 0.13 
-7.83 10.87 -1.66 0.13 
-7.60 10.97 -1.65 0.83 
-7.31 11.00 -1.64 0.84 
-7.04 11.03 -1.62 0.85 
-6.77 11.07 -1.61 0.86 
-6.50 11.10 -1.59 0.87 
-6.24 11.13 -1.58 0.87 
-5.98 11.15 -1.57 0.88 
-5.72 11.18 -1.55 0.88 
-5.47 11.21 -1.54 0.89 
-5.22 11.23 -1.53 0.90 
-4.98 11.26 -1.52 0.90 
-4.74 11.29 -1.52 0.12 
-4.53 11.38 -1.52 0.12 
-4.31 11.46 -1.52 0.12 
-4.09 11.54 -1.52 0.12 
-3.87 11.62 -1.52 0.12 
-3.65 11.69 -1.52 0.12 
-3.43 11.76 -1.52 0.12 
-3.21 11.83 -1.52 0.12 
-2.99 11.89 -1.52 0.12 
-2.76 11.94 -1.52 0.12 
-2.53 12.00 -1.52 0.12 
-2.31 12.04 -1.52 0.12 
-2.08 12.09 -1.52 0.12 
-1.85 12.13 -1.52 0.12 
-1.62 12.16 -1.52 0.12 
-1.39 12.19 -1.52 0.12 
-1.16 12.22 -1.52 0.12 
-0.93 12.24 -1.52 0.12 
-0.70 12.26 -1.52 0.12 
-0.46 12.27 -1.52 0.12 
-0.23 12.28 -1.52 0.12 
0.00 12.28 -1.52 0.12 
0.23 12.28 -1.52 0.12 
0.47 12.28 -1.52 0.12 
0.70 12.27 -1.52 0.12 
0.93 12.26 -1.52 0.12 
1.16 12.24 -1.52 0.12 
1.39 12.22 -1.52 0.12 
1.62 12.19 -1.52 0.12 
1.86 12.16 -1.52 0.12 
2.09 12.13 -1.52 0.12 
2.32 12.09 -1.52 0.12 
2.54 12.04 -1.52 0.12 
2.77 11.99 -1.52 0.12 
3.00 11.94 -1.52 0.12 
3.23 11.89 -1.52 0.12 
3.45 11.83 -1.52 0.12 
3.67 11.76 -1.52 0.12 
3.90 11.69 -1.53 0.12 
4.12 11.62 -1.53 0.12 
4.34 11.54 -1.53 0.12 
4.56 11.46 -1.53 0.12 
4.77 11.37 -1.53 0.12 
4.99 11.28 -1.53 0.12 
5.20 11.19 -1.53 0.12 
5.44 11.13 -1.53 0.71 
5.68 11.11 -1.54 0.89 
5.94 11.07 -1.55 0.89 
6.19 11.04 -1.57 0.88 
6.45 11.01 -1.58 0.87 
6.71 10.97 -1.59 0.86 
6.97 10.94 -1.61 0.86 
7.24 10.89 -1.62 0.86 
7.51 10.85 -1.63 0.85 
7.79 10.81 -1.65 0.84 
8.07 10.77 -1.67 0.84 
8.33 10.68 -1.68 0.13 
8.54 10.54 -1.68 0.13 
8.75 10.39 -1.68 0.13 
8.96 10.23 -1.68 0.13 
9.16 10.07 -1.68 0.12 
9.35 9.90 -1.68 0.12 
9.54 9.72 -1.69 0.12 
9.72 9.54 -1.69 0.12 
9.90 9.36 -1.69 0.12 
10.08 9.17 -1.69 0.12 
10.25 8.98 -1.69 0.12 
10.42 8.78 -1.69 0.12 
10.59 8.59 -1.69 0.12 
10.75 8.39 -1.69 0.12 
10.91 8.18 -1.69 0.12 
11.07 7.98 -1.69 0.12 
11.22 7.77 -1.69 0.12 
11.36 7.55 -1.69 0.12 
11.51 7.34 -1.69 0.12 
11.65 7.12 -1.69 0.12 
11.78 6.90 -1.69 0.12 
11.91 6.68 -1.69 0.12 
12.04 6.45 -1.69 0.12 
12.16 6.23 -1.69 0.12 
12.28 5.99 -1.69 0.12 
12.39 5.76 -1.69 0.12 
12.50 5.53 -1.69 0.12 
12.60 5.29 -1.69 0.12 
12.70 5.05 -1.69 0.12 
12.80 4.81 -1.69 0.12 
12.89 4.57 -1.69 0.12 
12.98 4.33 -1.69 0.12 
13.06 4.08 -1.69 0.12 
13.14 3.83 -1.69 0.12 
13.21 3.58 -1.69 0.12 
13.27 3.33 -1.69 0.12 
13.34 3.08 -1.69 0.12 
13.40 2.83 -1.69 0.12 
13.45 2.58 -1.69 0.12 
13.50 2.32 -1.69 0.12 
13.54 2.07 -1.70 0.12 
13.58 1.81 -1.70 0.12 
13.61 1.55 -1.70 0.12 
13.64 1.29 -1.70 0.12 
13.66 1.04 -1.70 0.12 
13.68 0.78 -1.70 0.12 
13.70 0.52 -1.70 0.12 
13.70 0.26 -1.70 0.12 
13.71 -0.00 -1.70 0.12 
13.71 -0.26 -1.70 0.12 
13.70 -0.52 -1.70 0.12 
13.69 -0.78 -1.70 0.12 
13.67 -1.04 -1.70 0.12 
13.65 -1.30 -1.70 0.12 
13.63 -1.55 -1.70 0.12 
13.60 -1.81 -1.70 0.12 
13.56 -2.07 -1.70 0.12 
13.52 -2.33 -1.70 0.12 
13.48 -2.58 -1.70 0.12 
13.42 -2.84 -1.70 0.12 
13.37 -3.09 -1.70 0.11 
13.31 -3.34 -1.70 0.11 
13.24 -3.59 -1.70 0.11 
13.17 -3.84 -1.70 0.11 
13.10 -4.09 -1.70 0.11 
13.02 -4.34 -1.70 0.11 
12.94 -4.59 -1.70 0.11 
12.85 -4.83 -1.70 0.11 
12.75 -5.07 -1.70 0.11 
12.66 -5.31 -1.70 0.11 
12.55 -5.55 -1.70 0.11 
12.45 -5.79 -1.70 0.11 
12.34 -6.02 -1.70 0.11 
12.22 -6.26 -1.70 0.11 
6.55 -3.51 -0.92 0.30 
6.17 -3.46 -0.88 0.41 
5.85 -3.43 -0.84 0.39 
5.58 -3.41 -0.81 0.47 
5.36 -3.42 -0.79 0.54 
5.17 -3.44 -0.77 0.59 
5.05 -3.49 -0.76 0.95 
4.99 -3.60 -0.76 0.87 
4.95 -3.71 -0.76 0.81 
4.91 -3.83 -0.77 0.83 
4.89 -3.96 -0.78 0.66 
4.88 -4.11 -0.79 0.61 
10.29 -9.01 -1.69 0.12 
9.86 -8.96 -1.65 0.41 
9.35 -8.84 -1.59 0.46 
8.91 -8.74 -1.54 0.12 
8.74 -8.91 -1.54 0.12 
8.57 -9.07 -1.54 0.12 
8.39 -9.23 -1.54 0.12 
8.22 -9.39 -1.54 0.12 
8.04 -9.54 -1.54 0.12 
7.86 -9.69 -1.54 0.12 
7.67 -9.83 -1.54 0.12 
7.48 -9.98 -1.54 0.12 
7.29 -10.12 -1.54 0.12 
7.10 -10.25 -1.54 0.12 
6.90 -10.38 -1.54 0.12 
6.70 -10.51 -1.54 0.12 
6.50 -10.63 -1.54 0.12 
6.30 -10.75 -1.54 0.12 
6.09 -10.87 -1.54 0.12 
5.89 -10.98 -1.54 0.12 
5.68 -11.09 -1.54 0.12 
5.47 -11.20 -1.54 0.12 
5.25 -11.30 -1.54 0.12 
5.04 -11.39 -1.54 0.12 
4.82 -11.48 -1.54 0.12 
4.60 -11.57 -1.54 0.12 
4.38 -11.65 -1.54 0.12 
2.90 -8.17 -1.07 0.94 
2.73 -8.19 -1.07 0.94 
3.71 -11.88 -1.54 0.12 
3.49 -11.95 -1.54 0.12 
3.26 -12.01 -1.54 0.12 
3.03 -12.07 -1.54 0.12 
2.71 -11.72 -1.49 0.50 
2.57 -12.17 -1.54 0.12 
2.34 -12.21 -1.54 0.12 
2.11 -12.25 -1.54 0.12 
1.87 -12.29 -1.54 0.12 
1.64 -12.32 -1.54 0.12 
1.41 -12.35 -1.54 0.12 
1.17 -12.37 -1.54 0.12 
0.94 -12.39 -1.54 0.12 
0.70 -12.40 -1.54 0.12 
0.47 -12.41 -1.54 0.12 
0.23 -12.41 -1.54 0.12 
0.00 -12.41 -1.54 0.12 
-0.23 -12.41 -1.54 0.12 
-0.47 -12.40 -1.54 0.12 
-0.70 -12.39 -1.54 0.12 
-0.94 -12.37 -1.54 0.12 
-1.17 -12.35 -1.53 0.12 
-1.40 -12.32 -1.53 0.12 
-1.64 -12.29 -1.53 0.12 
-1.87 -12.25 -1.53 0.12 
-2.10 -12.21 -1.53 0.12 
-2.33 -12.17 -1.53 0.12 
-2.56 -12.12 -1.53 0.12 
-2.79 -12.07 -1.53 0.12 
-3.02 -12.01 -1.53 0.12 
-3.24 -11.95 -1.53 0.12 
-3.47 -11.88 -1.53 0.12 
-3.69 -11.81 -1.53 0.12 
-3.91 -11.74 -1.53 0.12 
-4.13 -11.66 -1.53 0.12 
-4.35 -11.58 -1.53 0.12 
-4.57 -11.49 -1.53 0.12 
-4.78 -11.40 -1.53 0.12 
-5.00 -11.30 -1.53 0.12 
-5.21 -11.21 -1.53 0.12 
-5.42 -11.10 -1.53 0.12 
-5.63 -11.00 -1.53 0.12 
-5.83 -10.88 -1.53 0.12 
-6.04 -10.77 -1.53 0.12 
-6.24 -10.65 -1.53 0.12 
-6.44 -10.53 -1.53 0.12 
-6.64 -10.40 -1.53 0.12 
-6.83 -10.27 -1.53 0.12 
-7.02 -10.14 -1.53 0.12 
-7.21 -10.00 -1.53 0.12 
-7.40 -9.86 -1.53 0.12 
-7.58 -9.72 -1.53 0.12 
-7.76 -9.57 -1.53 0.12 
-7.94 -9.42 -1.52 0.12 
-8.12 -9.27 -1.52 0.12 
-8.29 -9.11 -1.52 0.12 
-8.46 -8.95 -1.52 0.12 
-8.62 -8.79 -1.52 0.12 
-8.79 -8.62 -1.52 0.12 
-8.95 -8.45 -1.52 0.12 
-9.10 -8.28 -1.52 0.12 
-9.42 -8.24 -1.55 0.56 
-9.83 -8.28 -1.59 0.54 
-10.26 -8.32 -1.63 0.53 
-10.62 -8.28 -1.67 0.13 
-10.80 -8.10 -1.67 0.13 
-10.97 -7.90 -1.67 0.12 
-11.11 -7.69 -1.67 0.12 
-11.25 -7.48 -1.67 0.12 
-11.39 -7.26 -1.67 0.12 
-11.52 -7.05 -1.67 0.12 
-11.65 -6.83 -1.67 0.12 
-11.78 -6.60 -1.67 0.12 
-11.90 -6.38 -1.67 0.12 
-12.02 -6.15 -1.67 0.12 
-12.13 -5.92 -1.67 0.12 
-12.24 -5.69 -1.67 0.12 
-12.34 -5.46 -1.67 0.12 
-12.44 -5.22 -1.67 0.12 
-12.53 -4.98 -1.67 0.12 
-12.62 -4.75 -1.67 0.12 
-12.71 -4.50 -1.67 0.12 
-12.79 -4.26 -1.67 0.12 
-12.87 -4.02 -1.67 0.12 
-12.94 -3.77 -1.67 0.12 
-13.00 -3.53 -1.67 0.12 
-13.07 -3.28 -1.67 0.12 
-13.13 -3.03 -1.67 0.12 
-13.18 -2.78 -1.67 0.12 
-13.23 -2.53 -1.67 0.12 
-13.27 -2.28 -1.67 0.12 
-10.58 -1.61 -1.32 0.91 
-10.12 -1.35 -1.26 0.92 
-10.09 -1.15 -1.26 0.93 
-10.07 -0.96 -1.25 0.95 
-10.08 -0.76 -1.25 0.95 
-10.09 -0.57 -1.25 0.95 
-10.12 -0.38 -1.25 0.94 
-10.15 -0.19 -1.26 0.94 
-13.32 -0.00 -1.66 0.12 
-10.77 0.20 -1.35 0.90 
-10.79 0.41 -1.35 0.90 
-13.30 0.76 -1.66 0.12 
-13.28 1.01 -1.66 0.12 
-13.26 1.26 -1.66 0.12 
-13.23 1.51 -1.66 0.12 
-13.20 1.76 -1.66 0.12 
-13.16 2.01 -1.66 0.12 
-13.12 2.26 -1.66 0.12 
-13.07 2.50 -1.66 0.12 
-13.02 2.75 -1.66 0.12 
-12.97 3.00 -1.66 0.12 
-12.91 3.24 -1.66 0.12 
-12.84 3.49 -1.66 0.12 
-12.78 3.73 -1.66 0.12 
-12.70 3.97 -1.66 0.12 
-12.62 4.21 -1.66 0.12 
-12.54 4.45 -1.66 0.12 
-12.46 4.68 -1.66 0.12 
-12.36 4.92 -1.66 0.12 
-12.27 5.15 -1.66 0.12 
-12.17 5.38 -1.66 0.12 
-12.06 5.61 -1.66 0.12 
-11.96 5.84 -1.66 0.12 
-11.84 6.06 -1.66 0.12 
-10.11 5.42 -1.43 0.53 
-9.74 5.46 -1.39 0.54 
-9.39 5.50 -1.36 0.58 
-9.06 5.54 -1.33 0.59 
-8.75 5.58 -1.30 0.62 
-8.46 5.62 -1.27 0.63 
-8.18 5.66 -1.24 0.65 
-7.90 5.70 -1.22 0.65 
-7.64 5.73 -1.19 0.68 
-7.39 5.76 -1.17 0.62 
-7.06 5.73 -1.14 0.67 
-6.82 5.75 -1.12 0.69 
-6.60 5.77 -1.10 0.70 
-6.42 5.84 -1.08 0.60 
-6.20 5.86 -1.07 0.82 
-6.08 5.97 -1.07 0.97 
-5.98 6.09 -1.07 0.83 
-5.93 6.27 -1.08 0.82 
-5.90 6.49 -1.10 0.66 
-5.90 6.74 -1.12 0.66 
-5.94 7.05 -1.15 0.40 
-5.99 7.39 -1.19 0.44 
-8.19 10.50 -1.66 0.13 
-7.98 10.64 -1.66 0.13 
-7.77 10.77 -1.66 0.13 
-7.55 10.91 -1.66 0.13 
-7.31 11.00 -1.65 0.84 
-7.04 11.03 -1.64 0.85 
-6.76 11.06 -1.62 0.86 
-6.50 11.09 -1.61 0.87 
-6.24 11.12 -1.59 0.87 
-5.98 11.15 -1.58 0.88 
-5.72 11.18 -1.57 0.88 
-5.47 11.20 -1.56 0.89 
-5.22 11.23 -1.55 0.90 
-4.98 11.25 -1.54 0.90 
-4.73 11.27 -1.53 0.90 
-4.49 11.29 -1.52 0.72 
-4.27 11.35 -1.52 0.12 
-4.05 11.43 -1.52 0.12 
-3.84 11.51 -1.52 0.12 
-3.62 11.58 -1.52 0.12 
-3.40 11.65 -1.52 0.12 
-3.18 11.71 -1.52 0.12 
-2.96 11.77 -1.52 0.12 
-2.73 11.83 -1.52 0.12 
-2.51 11.88 -1.52 0.12 
-2.28 11.93 -1.52 0.12 
-2.06 11.97 -1.52 0.12 
-1.83 12.01 -1.52 0.12 
-1.60 12.04 -1.52 0.12 
-1.38 12.07 -1.52 0.12 
-1.15 12.10 -1.52 0.12 
-0.92 12.12 -1.52 0.12 
-0.69 12.14 -1.52 0.12 
-0.46 12.15 -1.52 0.12 
-0.23 12.16 -1.52 0.12 
0.00 12.16 -1.52 0.12 
0.23 12.16 -1.52 0.12 
0.46 12.16 -1.52 0.12 
0.69 12.15 -1.52 0.12 
0.92 12.14 -1.52 0.12 
1.15 12.12 -1.52 0.12 
1.38 12.10 -1.52 0.12 
1.61 12.07 -1.52 0.12 
1.84 12.04 -1.52 0.12 
2.07 12.01 -1.52 0.12 
2.29 11.97 -1.52 0.12 
2.52 11.93 -1.52 0.12 
2.74 11.88 -1.52 0.12 
2.97 11.83 -1.52 0.12 
3.19 11.77 -1.52 0.12 
3.42 11.71 -1.52 0.12 
3.64 11.65 -1.52 0.12 
3.86 11.58 -1.53 0.12 
4.08 11.50 -1.53 0.12 
4.30 11.43 -1.53 0.12 
4.51 11.35 -1.53 0.12 
4.73 11.26 -1.53 0.12 
4.95 11.19 -1.53 0.72 
5.19 11.16 -1.54 0.90 
5.43 11.13 -1.55 0.89 
5.68 11.10 -1.56 0.89 
5.93 11.07 -1.57 0.89 
6.19 11.04 -1.58 0.88 
6.45 11.00 -1.59 0.87 
6.71 10.97 -1.61 0.86 
6.97 10.93 -1.62 0.86 
7.24 10.89 -1.63 0.86 
7.51 10.85 -1.65 0.85 
7.79 10.81 -1.66 0.84 
8.05 10.73 -1.68 0.13 
8.26 10.59 -1.68 0.13 
8.47 10.44 -1.68 0.13 
8.68 10.30 -1.68 0.13 
8.88 10.14 -1.68 0.12 
9.07 9.97 -1.68 0.12 
9.26 9.80 -1.68 0.12 
9.45 9.63 -1.69 0.12 
9.63 9.45 -1.69 0.12 
9.81 9.26 -1.69 0.12 
9.98 9.08 -1.69 0.12 
10.15 8.89 -1.69 0.12 
10.32 8.70 -1.69 0.12 
10.49 8.50 -1.69 0.12 
10.65 8.30 -1.69 0.12 
10.81 8.10 -1.69 0.12 
10.96 7.90 -1.69 0.12 
11.11 7.69 -1.69 0.12 
11.25 7.48 -1.69 0.12 
11.40 7.27 -1.69 0.12 
11.53 7.05 -1.69 0.12 
11.67 6.83 -1.69 0.12 
11.80 6.61 -1.69 0.12 
11.92 6.39 -1.69 0.12 
12.04 6.16 -1.69 0.12 
12.16 5.94 -1.69 0.12 
12.27 5.71 -1.69 0.12 
12.38 5.47 -1.69 0.12 
12.48 5.24 -1.69 0.12 
12.58 5.00 -1.69 0.12 
12.68 4.76 -1.69 0.12 
12.77 4.52 -1.69 0.12 
12.85 4.28 -1.69 0.12 
12.93 4.04 -1.69 0.12 
13.01 3.79 -1.69 0.12 
13.08 3.55 -1.69 0.12 
13.15 3.30 -1.69 0.12 
13.21 3.05 -1.69 0.12 
13.26 2.80 -1.69 0.12 
13.32 2.55 -1.69 0.12 
13.36 2.30 -1.69 0.12 
13.41 2.05 -1.69 0.12 
13.44 1.79 -1.70 0.12 
13.48 1.54 -1.70 0.12 
13.51 1.28 -1.70 0.12 
13.53 1.03 -1.70 0.12 
13.55 0.77 -1.70 0.12 
13.56 0.51 -1.70 0.12 
13.57 0.26 -1.70 0.12 
13.57 -0.00 -1.70 0.12 
13.57 -0.26 -1.70 0.12 
13.57 -0.51 -1.70 0.12 
13.56 -0.77 -1.70 0.12 
13.54 -1.03 -1.70 0.12 
13.52 -1.28 -1.70 0.12 
13.49 -1.54 -1.70 0.12 
13.46 -1.79 -1.70 0.12 
13.43 -2.05 -1.70 0.12 
13.39 -2.30 -1.70 0.12 
13.34 -2.56 -1.70 0.12 
13.29 -2.81 -1.70 0.12 
13.24 -3.06 -1.70 0.12 
13.18 -3.31 -1.70 0.12 
13.11 -3.56 -1.70 0.12 
13.05 -3.81 -1.70 0.12 
12.97 -4.05 -1.70 0.12 
12.89 -4.30 -1.70 0.12 
12.81 -4.54 -1.70 0.12 
12.72 -4.78 -1.70 0.12 
12.63 -5.02 -1.70 0.12 
12.53 -5.26 -1.70 0.12 
12.43 -5.50 -1.70 0.12 
12.33 -5.73 -1.70 0.12 
12.21 -5.96 -1.70 0.12 
12.10 -6.19 -1.70 0.12 
6.54 -3.50 -0.93 0.30 
6.17 -3.46 -0.88 0.41 
5.85 -3.43 -0.85 0.39 
5.58 -3.41 -0.82 0.47 
5.36 -3.42 -0.79 0.54 
5.17 -3.43 -0.78 0.59 
5.04 -3.49 -0.77 0.95 
4.99 -3.60 -0.77 0.87 
4.94 -3.71 -0.77 0.81 
4.90 -3.82 -0.78 0.83 
4.88 -3.96 -0.79 0.66 
4.88 -4.11 -0.80 0.61 
10.19 -8.92 -1.69 0.12 
9.85 -8.96 -1.66 0.41 
9.35 -8.83 -1.61 0.46 
8.89 -8.72 -1.56 0.48 
8.65 -8.82 -1.54 0.12 
8.48 -8.98 -1.54 0.12 
8.31 -9.14 -1.54 0.12 
8.14 -9.29 -1.54 0.12 
7.96 -9.45 -1.54 0.12 
7.78 -9.59 -1.54 0.12 
7.60 -9.74 -1.54 0.12 
7.41 -9.88 -1.54 0.12 
7.22 -10.02 -1.54 0.12 
7.03 -10.15 -1.54 0.12 
6.83 -10.28 -1.54 0.12 
6.64 -10.41 -1.54 0.12 
6.44 -10.53 -1.54 0.12 
6.24 -10.65 -1.54 0.12 
6.03 -10.76 -1.54 0.12 
5.83 -10.88 -1.54 0.12 
5.62 -10.98 -1.54 0.12 
5.41 -11.09 -1.54 0.12 
5.20 -11.18 -1.54 0.12 
4.99 -11.28 -1.54 0.12 
4.77 -11.37 -1.54 0.12 
4.56 -11.46 -1.54 0.12 
4.34 -11.54 -1.54 0.12 
2.90 -8.17 -1.08 0.94 
2.73 -8.19 -1.08 0.94 
3.67 -11.76 -1.54 0.12 
3.45 -11.83 -1.54 0.12 
3.23 -11.89 -1.54 0.12 
3.00 -11.95 -1.54 0.12 
2.71 -11.74 -1.51 0.31 
2.55 -12.05 -1.54 0.12 
2.32 -12.09 -1.54 0.12 
2.09 -12.13 -1.54 0.12 
1.86 -12.17 -1.54 0.12 
1.63 -12.20 -1.54 0.12 
1.39 -12.23 -1.54 0.12 
1.16 -12.25 -1.54 0.12 
0.93 -12.27 -1.54 0.12 
0.70 -12.28 -1.54 0.12 
0.47 -12.29 -1.54 0.12 
0.23 -12.29 -1.54 0.12 
0.00 -12.29 -1.54 0.12 
-0.23 -12.29 -1.54 0.12 
-0.47 -12.28 -1.54 0.12 
-0.70 -12.27 -1.54 0.12 
-0.93 -12.25 -1.53 0.12 
-1.16 -12.23 -1.53 0.12 
-1.39 -12.20 -1.53 0.12 
-1.62 -12.17 -1.53 0.12 
-1.85 -12.13 -1.53 0.12 
-2.08 -12.09 -1.53 0.12 
-2.31 -12.05 -1.53 0.12 
-2.54 -12.00 -1.53 0.12 
-2.76 -11.95 -1.53 0.12 
-2.99 -11.89 -1.53 0.12 
-3.21 -11.83 -1.53 0.12 
-3.43 -11.77 -1.53 0.12 
-3.65 -11.70 -1.53 0.12 
-3.87 -11.62 -1.53 0.12 
-4.09 -11.55 -1.53 0.12 
-4.31 -11.46 -1.53 0.12 
-4.52 -11.38 -1.53 0.12 
-4.74 -11.29 -1.53 0.12 
-4.95 -11.19 -1.53 0.12 
-5.16 -11.10 -1.53 0.12 
-5.37 -10.99 -1.53 0.12 
-5.57 -10.89 -1.53 0.12 
-5.78 -10.78 -1.53 0.12 
-5.98 -10.67 -1.53 0.12 
-6.18 -10.55 -1.53 0.12 
-6.38 -10.43 -1.53 0.12 
-6.57 -10.30 -1.53 0.12 
-6.76 -10.17 -1.53 0.12 
-6.95 -10.04 -1.53 0.12 
-7.14 -9.91 -1.53 0.12 
-7.33 -9.77 -1.53 0.12 
-7.51 -9.63 -1.53 0.12 
-7.69 -9.48 -1.53 0.12 
-7.86 -9.33 -1.52 0.12 
-8.04 -9.18 -1.52 0.12 
-8.21 -9.02 -1.52 0.12 
-8.38 -8.86 -1.52 0.12 
-8.54 -8.70 -1.52 0.12 
-8.70 -8.54 -1.52 0.12 
-8.86 -8.37 -1.52 0.12 
-9.03 -8.21 -1.53 0.48 
-9.41 -8.24 -1.56 0.56 
-9.82 -8.28 -1.61 0.54 
-10.25 -8.31 -1.65 0.53 
-10.53 -8.21 -1.67 0.13 
-10.70 -8.02 -1.67 0.13 
-10.86 -7.83 -1.67 0.12 
-11.00 -7.62 -1.67 0.12 
-11.14 -7.41 -1.67 0.12 
-11.28 -7.19 -1.67 0.12 
-11.41 -6.98 -1.67 0.12 
-11.54 -6.76 -1.67 0.12 
-11.66 -6.54 -1.67 0.12 
-11.78 -6.32 -1.67 0.12 
-11.90 -6.09 -1.67 0.12 
-12.01 -5.86 -1.67 0.12 
-12.12 -5.63 -1.67 0.12 
-12.22 -5.40 -1.67 0.12 
-12.32 -5.17 -1.67 0.12 
-12.41 -4.94 -1.67 0.12 
-12.50 -4.70 -1.67 0.12 
-12.59 -4.46 -1.67 0.12 
-12.67 -4.22 -1.67 0.12 
-12.74 -3.98 -1.67 0.12 
-12.81 -3.74 -1.67 0.12 
-12.88 -3.49 -1.67 0.12 
-12.94 -3.25 -1.67 0.12 
-13.00 -3.00 -1.67 0.12 
-13.05 -2.76 -1.67 0.12 
-13.10 -2.51 -1.67 0.12 
-13.14 -2.26 -1.67 0.12 
-10.58 -1.61 -1.34 0.91 
-10.12 -1.35 -1.28 0.92 
-10.09 -1.15 -1.27 0.93 
-13.27 -1.26 -1.67 0.12 
-13.29 -1.01 -1.67 0.12 
-13.31 -0.76 -1.67 0.12 
-13.32 -0.50 -1.67 0.12 
-13.32 -0.25 -1.67 0.12 
-13.20 0.00 -1.67 0.12 
-10.78 0.20 -1.36 0.90 
-10.80 0.41 -1.36 0.90 
-13.17 0.75 -1.66 0.12 
-13.15 1.00 -1.66 0.12 
-13.13 1.25 -1.66 0.12 
-13.10 1.49 -1.66 0.12 
-13.07 1.74 -1.66 0.12 
-13.04 1.99 -1.66 0.12 
-13.00 2.24 -1.66 0.12 
-12.95 2.48 -1.66 0.12 
-12.90 2.72 -1.66 0.12 
-12.85 2.97 -1.66 0.12 
-12.79 3.21 -1.66 0.12 
-12.72 3.45 -1.66 0.12 
-12.65 3.69 -1.66 0.12 
-12.58 3.93 -1.66 0.12 
-12.50 4.17 -1.66 0.12 
-12.42 4.40 -1.66 0.12 
-12.34 4.64 -1.66 0.12 
-12.25 4.87 -1.66 0.12 
-12.15 5.10 -1.66 0.12 
-12.05 5.33 -1.66 0.12 
-11.95 5.56 -1.66 0.12 
-11.84 5.78 -1.66 0.12 
-11.73 6.01 -1.66 0.12 
-10.11 5.42 -1.45 0.53 
-9.74 5.46 -1.41 0.54 
-9.71 5.69 -1.42 0.57 
-9.06 5.54 -1.34 0.59 
-8.75 5.58 -1.31 0.62 
-8.46 5.62 -1.28 0.63 
-8.17 5.66 -1.25 0.65 
-7.90 5.70 -1.23 0.65 
-7.64 5.73 -1.21 0.68 
-7.39 5.76 -1.18 0.62 
-7.06 5.73 -1.15 0.67 
-6.82 5.75 -1.13 0.69 
-6.60 5.77 -1.11 0.70 
-6.41 5.83 -1.09 0.60 
-6.20 5.86 -1.08 0.82 
-6.08 5.97 -1.08 0.97 
-5.97 6.09 -1.08 0.83 
-5.92 6.27 -1.09 0.82 
-5.90 6.48 -1.11 0.66 
-5.91 6.74 -1.13 0.66 
-5.94 7.05 -1.16 0.40 
-5.99 7.38 -1.20 0.44 
-8.11 10.40 -1.66 0.12 
-7.91 10.55 -1.66 0.13 
-7.70 10.68 -1.66 0.13 
-7.49 10.82 -1.66 0.13 
-7.28 10.94 -1.66 0.13 
-7.03 11.03 -1.65 0.85 
-6.76 11.06 -1.64 0.86 
-6.50 11.09 -1.62 0.87 
-6.23 11.12 -1.61 0.87 
-5.98 11.15 -1.60 0.88 
-5.72 11.17 -1.58 0.88 
-5.47 11.20 -1.57 0.89 
-5.22 11.23 -1.56 0.90 
-4.97 11.25 -1.55 0.90 
-4.73 11.27 -1.54 0.90 
-4.49 11.29 -1.53 0.91 
-4.25 11.31 -1.52 0.91 
-4.02 11.33 -1.52 0.73 
-3.80 11.40 -1.52 0.12 
-3.58 11.47 -1.52 0.12 
-3.37 11.54 -1.52 0.12 
-3.15 11.60 -1.52 0.12 
-2.93 11.66 -1.52 0.12 
-2.71 11.72 -1.52 0.12 
-2.49 11.77 -1.52 0.12 
-2.26 11.81 -1.52 0.12 
-2.04 11.86 -1.52 0.12 
-1.81 11.89 -1.52 0.12 
-1.59 11.93 -1.52 0.12 
-1.36 11.96 -1.52 0.12 
-1.14 11.98 -1.52 0.12 
-0.91 12.01 -1.52 0.12 
-0.68 12.02 -1.52 0.12 
-0.46 12.04 -1.52 0.12 
-0.23 12.04 -1.52 0.12 
0.00 12.05 -1.52 0.12 
0.23 12.05 -1.52 0.12 
0.46 12.04 -1.52 0.12 
