VERSION 0.7
FIELDS x y z intensity
SIZE 4 4 4 8
TYPE F F F F
COUNT 1 1 1 1
WIDTH 2075
HEIGHT 1
VIEWPOINT 0.0 0.0 0.0 1.0 0.0 0.0 0.0
POINTS 2075
DATA ascii
4.62 -3.46 -0.96 0.80 
4.60 -3.59 -0.97 0.76 
4.58 -3.71 -0.98 0.78 
4.57 -3.85 -1.00 0.72 
7.75 -6.78 -1.71 0.15 
7.62 -6.93 -1.71 0.15 
7.48 -7.07 -1.71 0.15 
7.34 -7.21 -1.71 0.15 
7.20 -7.34 -1.71 0.15 
7.05 -7.47 -1.71 0.16 
6.90 -7.59 -1.71 0.17 
6.74 -7.70 -1.70 0.17 
6.55 -7.78 -1.69 0.69 
6.29 -7.76 -1.66 0.71 
6.04 -7.75 -1.64 0.72 
5.80 -7.74 -1.61 0.73 
5.57 -7.72 -1.58 0.74 
5.34 -7.71 -1.56 0.75 
5.16 -7.76 -1.55 0.16 
5.01 -7.85 -1.55 0.16 
4.86 -7.94 -1.55 0.16 
4.70 -8.03 -1.55 0.16 
4.55 -8.11 -1.55 0.16 
4.39 -8.20 -1.55 0.16 
4.24 -8.27 -1.55 0.16 
4.08 -8.35 -1.55 0.16 
3.92 -8.42 -1.55 0.16 
3.75 -8.49 -1.55 0.16 
3.59 -8.56 -1.54 0.16 
3.43 -8.62 -1.54 0.16 
3.26 -8.68 -1.54 0.16 
3.10 -8.73 -1.54 0.16 
2.93 -8.79 -1.54 0.16 
2.76 -8.84 -1.54 0.16 
2.59 -8.88 -1.54 0.16 
2.42 -8.93 -1.54 0.16 
2.25 -8.97 -1.54 0.16 
2.08 -9.00 -1.54 0.16 
1.91 -9.04 -1.54 0.16 
1.74 -9.07 -1.54 0.16 
1.56 -9.09 -1.54 0.16 
1.39 -9.12 -1.54 0.16 
1.22 -9.14 -1.53 0.16 
1.04 -9.16 -1.53 0.16 
0.87 -9.17 -1.53 0.16 
0.70 -9.18 -1.53 0.16 
0.52 -9.19 -1.53 0.16 
0.35 -9.19 -1.53 0.16 
0.17 -9.19 -1.53 0.16 
-0.00 -9.19 -1.53 0.16 
-0.17 -9.18 -1.53 0.16 
-0.35 -9.17 -1.53 0.16 
-0.52 -9.16 -1.53 0.16 
-0.69 -9.14 -1.53 0.16 
-0.87 -9.12 -1.53 0.16 
-1.04 -9.10 -1.53 0.16 
-1.21 -9.08 -1.52 0.16 
-1.38 -9.05 -1.52 0.16 
-1.55 -9.02 -1.52 0.16 
-1.72 -8.98 -1.52 0.16 
-1.89 -8.94 -1.52 0.16 
-2.06 -8.90 -1.52 0.16 
-2.22 -8.86 -1.52 0.16 
-2.39 -8.81 -1.52 0.16 
-2.55 -8.76 -1.52 0.16 
-2.72 -8.70 -1.52 0.16 
-2.88 -8.65 -1.52 0.16 
-3.04 -8.59 -1.52 0.16 
-3.20 -8.52 -1.52 0.16 
-3.36 -8.46 -1.52 0.16 
-3.52 -8.39 -1.51 0.16 
-3.68 -8.32 -1.51 0.16 
-3.83 -8.24 -1.51 0.16 
-3.99 -8.16 -1.51 0.16 
-4.14 -8.08 -1.51 0.16 
-4.29 -8.00 -1.51 0.16 
-4.44 -7.91 -1.51 0.16 
-4.61 -7.86 -1.52 0.82 
-4.81 -7.87 -1.54 0.81 
-5.02 -7.87 -1.55 0.80 
-5.23 -7.87 -1.57 0.79 
-5.45 -7.88 -1.60 0.78 
-5.68 -7.88 -1.62 0.77 
-5.91 -7.88 -1.64 0.76 
-6.09 -7.81 -1.65 0.17 
-6.24 -7.70 -1.65 0.17 
-6.39 -7.59 -1.65 0.17 
-6.54 -7.47 -1.65 0.17 
-6.68 -7.35 -1.65 0.16 
-6.82 -7.21 -1.65 0.16 
-6.95 -7.08 -1.65 0.16 
-7.08 -6.95 -1.65 0.16 
-7.21 -6.81 -1.65 0.16 
-7.33 -6.67 -1.65 0.16 
-7.45 -6.53 -1.65 0.16 
-7.57 -6.38 -1.65 0.16 
-7.69 -6.24 -1.65 0.16 
-7.81 -6.09 -1.65 0.16 
-7.92 -5.94 -1.65 0.16 
-8.02 -5.78 -1.65 0.16 
-8.13 -5.63 -1.65 0.16 
-8.23 -5.47 -1.65 0.16 
-8.33 -5.31 -1.65 0.16 
-8.43 -5.15 -1.64 0.16 
-8.52 -4.99 -1.64 0.16 
-8.61 -4.83 -1.64 0.16 
-8.70 -4.66 -1.64 0.16 
-8.79 -4.50 -1.64 0.16 
-8.87 -4.33 -1.64 0.16 
-8.95 -4.16 -1.64 0.16 
-9.02 -3.99 -1.64 0.16 
-9.09 -3.82 -1.64 0.16 
-9.16 -3.64 -1.64 0.16 
-9.23 -3.47 -1.64 0.16 
-9.29 -3.29 -1.64 0.16 
-9.35 -3.12 -1.64 0.16 
-9.40 -2.94 -1.64 0.16 
-9.46 -2.76 -1.64 0.16 
-9.51 -2.58 -1.64 0.16 
-1.25 -0.31 -0.21 0.14 
-1.26 -0.29 -0.21 0.14 
-1.26 -0.27 -0.21 0.14 
-1.27 -0.24 -0.21 0.14 
-1.27 -0.22 -0.21 0.17 
-1.27 -0.19 -0.21 0.17 
-1.27 -0.17 -0.21 0.17 
-1.27 -0.14 -0.21 0.17 
-1.26 -0.12 -0.21 0.17 
-1.26 -0.10 -0.21 0.17 
-1.26 -0.07 -0.21 0.17 
-1.26 -0.05 -0.21 0.17 
-1.26 -0.02 -0.21 0.17 
-1.24 -0.00 -0.21 0.17 
-1.24 0.02 -0.21 0.17 
-1.23 0.05 -0.21 0.17 
-1.23 0.07 -0.21 0.17 
-1.23 0.09 -0.21 0.17 
-1.24 0.12 -0.21 0.17 
-1.24 0.14 -0.21 0.17 
-1.24 0.17 -0.21 0.17 
-1.24 0.19 -0.21 0.17 
-1.24 0.21 -0.21 0.17 
-1.24 0.24 -0.21 0.17 
-1.24 0.26 -0.21 0.17 
-1.24 0.29 -0.21 0.17 
-1.23 0.31 -0.21 0.17 
-1.23 0.33 -0.21 0.14 
-1.22 0.36 -0.21 0.14 
-1.22 0.38 -0.21 0.14 
-1.21 0.40 -0.21 0.14 
-1.20 0.43 -0.21 0.15 
-9.15 3.44 -1.64 0.16 
-9.08 3.61 -1.64 0.16 
-9.02 3.78 -1.64 0.16 
-8.94 3.96 -1.64 0.16 
-8.87 4.12 -1.64 0.16 
-8.79 4.29 -1.64 0.16 
-8.71 4.46 -1.64 0.16 
-8.63 4.62 -1.64 0.16 
-8.54 4.79 -1.64 0.16 
-8.45 4.95 -1.64 0.16 
-8.35 5.11 -1.64 0.16 
-4.32 2.75 -0.86 0.53 
-4.16 2.76 -0.84 0.58 
-4.00 2.77 -0.82 0.59 
-3.86 2.78 -0.80 0.62 
-3.72 2.79 -0.78 0.64 
-3.59 2.80 -0.76 0.64 
-3.48 2.82 -0.75 0.73 
-3.37 2.84 -0.74 0.74 
-3.27 2.86 -0.73 0.75 
-3.17 2.89 -0.72 0.78 
-3.08 2.91 -0.71 0.80 
-2.99 2.94 -0.70 0.83 
-2.92 2.97 -0.70 0.92 
-2.87 3.04 -0.70 0.71 
-2.85 3.13 -0.71 0.72 
-2.82 3.22 -0.72 0.61 
-2.80 3.32 -0.73 0.67 
-2.79 3.44 -0.74 0.41 
-2.80 3.59 -0.76 0.49 
-5.91 7.88 -1.65 0.16 
-5.76 7.99 -1.65 0.16 
-5.61 8.10 -1.65 0.16 
-5.46 8.21 -1.65 0.16 
-5.30 8.32 -1.65 0.16 
-5.15 8.42 -1.66 0.16 
-4.99 8.52 -1.66 0.16 
-4.83 8.61 -1.66 0.16 
-4.67 8.71 -1.66 0.16 
-4.50 8.80 -1.66 0.16 
-4.34 8.89 -1.66 0.16 
-4.17 8.97 -1.66 0.16 
-4.00 9.05 -1.66 0.16 
-3.83 9.13 -1.66 0.16 
-3.66 9.20 -1.66 0.16 
-3.49 9.28 -1.66 0.16 
-3.31 9.34 -1.66 0.16 
-3.14 9.41 -1.66 0.16 
-2.96 9.47 -1.66 0.16 
-2.78 9.53 -1.66 0.16 
-2.60 9.59 -1.67 0.16 
-2.42 9.64 -1.67 0.16 
-2.24 9.69 -1.67 0.16 
-2.06 9.73 -1.67 0.16 
-1.87 9.77 -1.67 0.16 
-1.69 9.81 -1.67 0.16 
-1.50 9.85 -1.67 0.16 
-1.32 9.88 -1.67 0.16 
-1.13 9.90 -1.67 0.16 
-0.94 9.93 -1.67 0.16 
-0.48 6.31 -1.06 0.17 
-0.34 6.02 -1.01 0.58 
-0.23 5.97 -1.00 0.93 
-0.11 5.95 -1.00 0.96 
0.00 5.95 -1.00 0.96 
0.11 5.95 -1.00 0.96 
0.23 5.96 -1.00 0.96 
0.34 5.96 -1.00 0.96 
0.47 6.26 -1.05 0.96 
0.57 6.00 -1.01 0.95 
0.68 6.00 -1.01 0.95 
0.80 6.00 -1.02 0.95 
0.92 6.01 -1.02 0.94 
1.03 6.01 -1.02 0.94 
1.15 6.02 -1.03 0.93 
1.27 6.03 -1.03 0.93 
1.39 6.03 -1.04 0.93 
1.52 6.04 -1.04 0.93 
1.64 6.05 -1.05 0.92 
1.77 6.05 -1.06 0.92 
1.89 6.06 -1.07 0.91 
2.02 6.07 -1.07 0.90 
2.15 6.08 -1.08 0.90 
2.29 6.08 -1.09 0.89 
2.42 6.09 -1.10 0.89 
2.56 6.09 -1.11 0.88 
2.70 6.10 -1.12 0.87 
2.84 6.10 -1.13 0.89 
2.98 6.10 -1.14 0.82 
3.09 6.04 -1.14 0.84 
3.24 6.04 -1.15 0.83 
3.39 6.04 -1.16 0.82 
3.54 6.05 -1.18 0.81 
3.70 6.05 -1.19 0.80 
3.88 6.09 -1.21 0.70 
4.09 6.15 -1.24 0.28 
5.78 8.34 -1.70 0.16 
5.94 8.23 -1.70 0.16 
6.09 8.12 -1.70 0.16 
6.25 8.01 -1.70 0.16 
6.40 7.89 -1.70 0.16 
6.55 7.77 -1.71 0.16 
6.70 7.65 -1.71 0.16 
6.85 7.53 -1.71 0.16 
6.99 7.40 -1.71 0.16 
7.13 7.27 -1.71 0.16 
7.27 7.13 -1.71 0.16 
7.41 7.00 -1.71 0.16 
7.54 6.86 -1.71 0.16 
7.67 6.72 -1.71 0.16 
7.80 6.57 -1.71 0.16 
7.93 6.43 -1.71 0.16 
8.05 6.28 -1.71 0.16 
8.17 6.13 -1.71 0.16 
8.29 5.97 -1.71 0.16 
8.40 5.82 -1.71 0.16 
8.51 5.66 -1.71 0.16 
8.62 5.50 -1.71 0.16 
8.72 5.34 -1.72 0.16 
8.83 5.17 -1.72 0.16 
8.93 5.00 -1.72 0.16 
9.02 4.84 -1.72 0.16 
9.11 4.67 -1.72 0.16 
9.20 4.49 -1.72 0.16 
9.29 4.32 -1.72 0.16 
9.37 4.14 -1.72 0.16 
9.45 3.97 -1.72 0.16 
9.52 3.79 -1.72 0.16 
9.60 3.61 -1.72 0.16 
9.66 3.43 -1.72 0.15 
9.73 3.24 -1.72 0.15 
9.79 3.06 -1.72 0.15 
9.85 2.87 -1.72 0.15 
9.90 2.69 -1.72 0.15 
9.95 2.50 -1.72 0.15 
10.00 2.31 -1.72 0.15 
10.04 2.12 -1.72 0.15 
10.08 1.93 -1.72 0.15 
10.12 1.74 -1.72 0.15 
10.15 1.55 -1.72 0.15 
10.18 1.36 -1.72 0.15 
10.21 1.16 -1.72 0.15 
10.23 0.97 -1.72 0.15 
10.24 0.78 -1.72 0.15 
10.26 0.58 -1.72 0.15 
10.27 0.39 -1.72 0.15 
10.27 0.19 -1.72 0.15 
10.28 -0.00 -1.72 0.15 
10.27 -0.19 -1.72 0.15 
10.27 -0.39 -1.72 0.15 
10.26 -0.58 -1.72 0.15 
10.25 -0.78 -1.72 0.15 
10.23 -0.97 -1.72 0.15 
10.21 -1.16 -1.72 0.15 
10.19 -1.36 -1.72 0.15 
10.16 -1.55 -1.72 0.15 
10.13 -1.74 -1.72 0.15 
10.09 -1.93 -1.72 0.15 
10.05 -2.12 -1.72 0.15 
10.01 -2.31 -1.72 0.15 
9.96 -2.50 -1.72 0.15 
9.91 -2.69 -1.72 0.15 
9.86 -2.88 -1.72 0.15 
9.80 -3.06 -1.72 0.15 
9.74 -3.25 -1.72 0.15 
9.68 -3.43 -1.72 0.15 
9.61 -3.61 -1.72 0.15 
9.54 -3.79 -1.72 0.15 
9.46 -3.97 -1.72 0.15 
9.38 -4.15 -1.72 0.15 
9.30 -4.33 -1.72 0.15 
6.30 -3.08 -1.18 0.49 
6.05 -3.10 -1.14 0.45 
5.79 -3.10 -1.10 0.46 
5.54 -3.11 -1.07 0.51 
5.32 -3.12 -1.03 0.53 
5.13 -3.14 -1.01 0.60 
4.96 -3.16 -0.99 0.64 
4.81 -3.20 -0.97 0.76 
4.72 -3.27 -0.96 0.88 
4.65 -3.35 -0.96 0.88 
4.61 -3.46 -0.97 0.80 
4.59 -3.58 -0.98 0.76 
4.58 -3.71 -0.99 0.78 
4.57 -3.85 -1.00 0.72 
7.69 -6.73 -1.71 0.16 
7.56 -6.88 -1.71 0.16 
7.42 -7.01 -1.71 0.16 
7.29 -7.15 -1.71 0.16 
7.15 -7.29 -1.71 0.16 
7.01 -7.41 -1.71 0.17 
6.85 -7.53 -1.71 0.17 
6.70 -7.65 -1.70 0.17 
6.54 -7.76 -1.70 0.17 
6.29 -7.76 -1.68 0.71 
6.04 -7.75 -1.65 0.72 
5.80 -7.73 -1.62 0.73 
5.56 -7.72 -1.60 0.74 
5.34 -7.71 -1.57 0.75 
5.12 -7.70 -1.55 0.16 
4.97 -7.79 -1.55 0.16 
4.82 -7.88 -1.55 0.16 
4.67 -7.97 -1.55 0.16 
4.52 -8.05 -1.55 0.16 
4.36 -8.13 -1.55 0.16 
4.20 -8.21 -1.55 0.16 
4.05 -8.29 -1.55 0.16 
3.89 -8.36 -1.55 0.16 
3.73 -8.43 -1.55 0.16 
3.56 -8.49 -1.54 0.16 
3.40 -8.55 -1.54 0.16 
3.24 -8.61 -1.54 0.16 
3.07 -8.67 -1.54 0.16 
2.91 -8.72 -1.54 0.16 
2.74 -8.77 -1.54 0.16 
2.57 -8.82 -1.54 0.16 
2.40 -8.86 -1.54 0.16 
2.24 -8.90 -1.54 0.16 
2.07 -8.94 -1.54 0.16 
1.89 -8.97 -1.54 0.16 
1.72 -9.00 -1.54 0.16 
1.55 -9.03 -1.54 0.16 
1.38 -9.05 -1.54 0.16 
1.21 -9.07 -1.53 0.16 
1.04 -9.09 -1.53 0.16 
0.86 -9.10 -1.53 0.16 
0.69 -9.11 -1.53 0.16 
0.52 -9.12 -1.53 0.16 
0.35 -9.12 -1.53 0.16 
0.17 -9.12 -1.53 0.16 
-0.00 -9.12 -1.53 0.16 
-0.17 -9.11 -1.53 0.16 
-0.34 -9.11 -1.53 0.16 
-0.52 -9.09 -1.53 0.16 
-0.69 -9.08 -1.53 0.16 
-0.86 -9.06 -1.53 0.16 
-1.03 -9.04 -1.53 0.16 
-1.20 -9.01 -1.52 0.16 
-1.37 -8.98 -1.52 0.16 
-1.54 -8.95 -1.52 0.16 
-1.71 -8.91 -1.52 0.16 
-1.88 -8.88 -1.52 0.16 
-2.04 -8.84 -1.52 0.16 
-2.21 -8.79 -1.52 0.16 
-2.37 -8.74 -1.52 0.16 
-2.54 -8.69 -1.52 0.16 
-2.70 -8.64 -1.52 0.16 
-2.86 -8.58 -1.52 0.16 
-3.02 -8.52 -1.52 0.16 
-3.18 -8.46 -1.52 0.16 
-3.34 -8.40 -1.52 0.16 
-3.50 -8.33 -1.51 0.16 
-3.65 -8.26 -1.51 0.16 
-3.80 -8.18 -1.51 0.16 
-3.96 -8.10 -1.51 0.16 
-4.11 -8.02 -1.51 0.16 
-4.26 -7.94 -1.51 0.16 
-4.41 -7.86 -1.51 0.69 
-4.61 -7.86 -1.53 0.82 
-4.81 -7.87 -1.55 0.81 
-5.02 -7.87 -1.57 0.80 
-5.23 -7.87 -1.59 0.79 
-5.45 -7.88 -1.61 0.78 
-5.68 -7.88 -1.63 0.77 
-5.90 -7.87 -1.65 0.17 
-6.05 -7.76 -1.65 0.17 
-6.20 -7.65 -1.65 0.17 
-6.35 -7.54 -1.65 0.17 
-6.50 -7.42 -1.65 0.16 
-6.63 -7.29 -1.65 0.16 
-6.77 -7.16 -1.65 0.16 
-6.90 -7.03 -1.65 0.16 
-7.03 -6.90 -1.65 0.16 
-7.16 -6.76 -1.65 0.16 
-7.28 -6.62 -1.65 0.16 
-7.40 -6.48 -1.65 0.16 
-7.52 -6.34 -1.65 0.16 
-7.64 -6.19 -1.65 0.16 
-7.75 -6.04 -1.65 0.16 
-7.86 -5.89 -1.65 0.16 
-7.97 -5.74 -1.65 0.16 
-8.07 -5.59 -1.65 0.16 
-8.17 -5.43 -1.65 0.16 
-8.27 -5.28 -1.65 0.16 
-8.37 -5.12 -1.65 0.16 
-8.46 -4.96 -1.64 0.16 
-8.55 -4.79 -1.64 0.16 
-8.64 -4.63 -1.64 0.16 
-8.72 -4.47 -1.64 0.16 
-8.80 -4.30 -1.64 0.16 
-8.88 -4.13 -1.64 0.16 
-8.96 -3.96 -1.64 0.16 
-9.03 -3.79 -1.64 0.16 
-9.10 -3.62 -1.64 0.16 
-9.16 -3.44 -1.64 0.16 
-9.22 -3.27 -1.64 0.16 
-9.28 -3.09 -1.64 0.16 
-9.34 -2.92 -1.64 0.16 
-9.39 -2.74 -1.64 0.16 
-9.44 -2.56 -1.64 0.16 
-1.24 -0.31 -0.21 0.14 
-1.25 -0.29 -0.21 0.14 
-1.25 -0.26 -0.21 0.14 
-1.26 -0.24 -0.21 0.14 
-1.26 -0.22 -0.21 0.17 
-1.26 -0.19 -0.21 0.17 
-1.26 -0.17 -0.21 0.17 
-1.26 -0.14 -0.21 0.17 
-1.26 -0.12 -0.21 0.17 
-1.25 -0.10 -0.21 0.17 
-1.25 -0.07 -0.21 0.17 
-1.25 -0.05 -0.21 0.17 
-1.25 -0.02 -0.21 0.17 
-1.23 -0.00 -0.21 0.17 
-1.23 0.02 -0.21 0.17 
-1.23 0.05 -0.21 0.18 
-1.22 0.07 -0.21 0.17 
-1.23 0.09 -0.21 0.17 
-1.23 0.12 -0.21 0.17 
-1.23 0.14 -0.21 0.17 
-1.23 0.16 -0.21 0.17 
-1.23 0.19 -0.21 0.17 
-1.23 0.21 -0.21 0.17 
-1.23 0.24 -0.21 0.17 
-1.23 0.26 -0.21 0.17 
-1.23 0.28 -0.21 0.17 
-1.23 0.31 -0.21 0.17 
-1.22 0.33 -0.21 0.15 
-1.21 0.35 -0.21 0.15 
-1.21 0.38 -0.21 0.15 
-1.20 0.40 -0.21 0.15 
-1.19 0.42 -0.21 0.15 
-9.09 3.42 -1.64 0.16 
-9.02 3.59 -1.64 0.16 
-8.95 3.76 -1.64 0.16 
-8.88 3.93 -1.64 0.16 
-8.81 4.10 -1.64 0.16 
-8.73 4.26 -1.64 0.16 
-8.65 4.43 -1.64 0.16 
-8.56 4.59 -1.64 0.16 
-8.48 4.75 -1.64 0.16 
-8.39 4.91 -1.64 0.16 
-8.30 5.07 -1.64 0.16 
-4.32 2.75 -0.86 0.53 
-4.15 2.76 -0.84 0.58 
-4.00 2.77 -0.82 0.59 
-3.86 2.78 -0.80 0.62 
-3.72 2.79 -0.79 0.64 
-3.59 2.80 -0.77 0.65 
-3.48 2.82 -0.76 0.73 
-3.37 2.84 -0.74 0.74 
-3.27 2.86 -0.73 0.75 
-3.17 2.89 -0.72 0.78 
-3.08 2.91 -0.72 0.80 
-2.99 2.93 -0.71 0.83 
-2.92 2.97 -0.70 0.92 
-2.87 3.03 -0.70 0.72 
-2.84 3.13 -0.71 0.72 
-2.82 3.22 -0.72 0.62 
-2.80 3.32 -0.73 0.67 
-2.78 3.43 -0.75 0.41 
-2.79 3.58 -0.77 0.49 
-5.87 7.82 -1.65 0.16 
-5.72 7.94 -1.65 0.16 
-5.57 8.05 -1.65 0.16 
-5.42 8.15 -1.65 0.16 
-5.27 8.26 -1.65 0.16 
-5.11 8.36 -1.66 0.16 
-4.95 8.46 -1.66 0.16 
-4.80 8.55 -1.66 0.16 
-4.63 8.65 -1.66 0.16 
-4.47 8.74 -1.66 0.16 
-4.31 8.82 -1.66 0.16 
-4.14 8.91 -1.66 0.16 
-3.97 8.99 -1.66 0.16 
-3.80 9.06 -1.66 0.16 
-3.63 9.14 -1.66 0.16 
-3.46 9.21 -1.66 0.16 
-3.29 9.28 -1.66 0.16 
-3.11 9.34 -1.66 0.16 
-2.94 9.40 -1.66 0.16 
-2.76 9.46 -1.66 0.16 
-2.58 9.52 -1.67 0.16 
-2.40 9.57 -1.67 0.16 
-2.22 9.62 -1.67 0.16 
-2.04 9.66 -1.67 0.16 
-1.86 9.70 -1.67 0.16 
-1.68 9.74 -1.67 0.16 
-1.49 9.77 -1.67 0.16 
-1.31 9.80 -1.67 0.16 
-1.12 9.83 -1.67 0.16 
-0.94 9.86 -1.67 0.16 
-0.48 6.30 -1.07 0.17 
-0.34 6.02 -1.02 0.58 
-0.23 5.96 -1.01 0.93 
-0.11 5.95 -1.00 0.96 
-0.00 5.95 -1.01 0.96 
0.11 5.95 -1.01 0.96 
0.23 5.96 -1.01 0.96 
0.34 5.96 -1.01 0.96 
0.45 5.96 -1.01 0.96 
0.57 6.00 -1.02 0.95 
0.68 6.00 -1.02 0.95 
0.80 6.00 -1.02 0.95 
0.92 6.01 -1.03 0.94 
1.03 6.01 -1.03 0.94 
1.15 6.02 -1.04 0.93 
1.27 6.02 -1.04 0.94 
1.39 6.03 -1.05 0.93 
1.52 6.04 -1.05 0.93 
1.64 6.05 -1.06 0.92 
1.77 6.05 -1.07 0.92 
1.89 6.06 -1.07 0.91 
2.02 6.07 -1.08 0.90 
2.15 6.07 -1.09 0.90 
2.29 6.08 -1.10 0.89 
2.42 6.08 -1.11 0.89 
2.56 6.09 -1.12 0.88 
2.70 6.10 -1.13 0.87 
2.84 6.10 -1.14 0.89 
2.98 6.10 -1.15 0.82 
3.09 6.04 -1.15 0.84 
3.24 6.04 -1.16 0.83 
3.39 6.04 -1.17 0.82 
3.54 6.05 -1.18 0.81 
3.70 6.05 -1.20 0.80 
3.88 6.09 -1.22 0.70 
4.09 6.15 -1.25 0.28 
5.73 8.28 -1.70 0.16 
5.89 8.17 -1.70 0.16 
6.05 8.06 -1.70 0.16 
6.20 7.95 -1.70 0.16 
6.35 7.84 -1.70 0.16 
6.50 7.72 -1.71 0.16 
6.65 7.60 -1.71 0.16 
6.80 7.47 -1.71 0.16 
6.94 7.34 -1.71 0.16 
7.08 7.21 -1.71 0.16 
7.22 7.08 -1.71 0.16 
7.35 6.95 -1.71 0.16 
7.49 6.81 -1.71 0.16 
7.62 6.67 -1.71 0.16 
7.74 6.52 -1.71 0.16 
7.87 6.38 -1.71 0.16 
7.99 6.23 -1.71 0.16 
8.11 6.08 -1.71 0.16 
8.22 5.93 -1.71 0.16 
8.34 5.77 -1.71 0.16 
8.45 5.62 -1.71 0.16 
8.56 5.46 -1.71 0.16 
8.66 5.30 -1.71 0.16 
8.76 5.13 -1.72 0.16 
8.86 4.97 -1.72 0.16 
8.95 4.80 -1.72 0.16 
9.05 4.63 -1.72 0.16 
9.13 4.46 -1.72 0.16 
9.22 4.29 -1.72 0.16 
9.30 4.11 -1.72 0.16 
9.38 3.94 -1.72 0.16 
9.45 3.76 -1.72 0.16 
9.52 3.58 -1.72 0.16 
9.59 3.40 -1.72 0.16 
9.66 3.22 -1.72 0.16 
9.72 3.04 -1.72 0.16 
9.78 2.85 -1.72 0.16 
9.83 2.67 -1.72 0.16 
9.88 2.48 -1.72 0.16 
9.93 2.29 -1.72 0.16 
9.97 2.11 -1.72 0.16 
10.01 1.92 -1.72 0.16 
10.04 1.73 -1.72 0.16 
10.08 1.54 -1.72 0.16 
10.10 1.35 -1.72 0.16 
10.13 1.16 -1.72 0.16 
10.15 0.96 -1.72 0.16 
10.17 0.77 -1.72 0.16 
10.18 0.58 -1.72 0.16 
10.19 0.39 -1.72 0.16 
10.20 0.19 -1.72 0.16 
10.20 -0.00 -1.72 0.16 
10.20 -0.19 -1.72 0.16 
10.19 -0.39 -1.72 0.16 
10.18 -0.58 -1.72 0.16 
10.17 -0.77 -1.72 0.16 
10.15 -0.96 -1.72 0.16 
10.13 -1.16 -1.72 0.16 
10.11 -1.35 -1.72 0.16 
10.08 -1.54 -1.72 0.16 
10.05 -1.73 -1.72 0.16 
10.02 -1.92 -1.72 0.16 
9.98 -2.11 -1.72 0.16 
9.93 -2.30 -1.72 0.16 
9.89 -2.48 -1.72 0.16 
9.84 -2.67 -1.72 0.16 
9.78 -2.85 -1.72 0.16 
9.73 -3.04 -1.72 0.16 
9.67 -3.22 -1.72 0.16 
9.60 -3.40 -1.72 0.16 
9.54 -3.58 -1.72 0.16 
9.47 -3.76 -1.72 0.16 
9.39 -3.94 -1.72 0.16 
9.31 -4.12 -1.72 0.16 
9.23 -4.29 -1.72 0.16 
6.30 -3.07 -1.18 0.49 
6.05 -3.10 -1.15 0.45 
5.78 -3.10 -1.11 0.46 
5.54 -3.10 -1.07 0.51 
5.32 -3.12 -1.04 0.53 
5.13 -3.14 -1.02 0.60 
4.96 -3.16 -0.99 0.64 
4.81 -3.20 -0.98 0.76 
4.72 -3.27 -0.97 0.88 
4.65 -3.35 -0.97 0.88 
4.61 -3.46 -0.97 0.80 
4.59 -3.58 -0.98 0.76 
4.57 -3.71 -1.00 0.78 
4.57 -3.85 -1.01 0.72 
7.63 -6.68 -1.71 0.16 
7.50 -6.82 -1.71 0.16 
7.37 -6.96 -1.71 0.16 
7.23 -7.10 -1.71 0.16 
7.10 -7.23 -1.71 0.16 
6.96 -7.36 -1.71 0.16 
6.80 -7.48 -1.71 0.17 
6.65 -7.60 -1.71 0.17 
6.49 -7.71 -1.70 0.17 
6.29 -7.76 -1.69 0.71 
6.04 -7.74 -1.66 0.72 
5.80 -7.73 -1.63 0.73 
5.56 -7.72 -1.61 0.74 
5.33 -7.70 -1.58 0.75 
5.11 -7.69 -1.56 0.77 
4.93 -7.74 -1.55 0.16 
4.79 -7.83 -1.55 0.16 
4.63 -7.91 -1.55 0.16 
4.48 -7.99 -1.55 0.16 
4.33 -8.07 -1.55 0.16 
4.17 -8.15 -1.55 0.16 
4.02 -8.23 -1.55 0.16 
3.86 -8.30 -1.55 0.16 
3.70 -8.36 -1.55 0.16 
3.54 -8.43 -1.54 0.16 
3.38 -8.49 -1.54 0.16 
3.21 -8.55 -1.54 0.16 
3.05 -8.61 -1.54 0.16 
2.89 -8.66 -1.54 0.16 
2.72 -8.71 -1.54 0.16 
2.55 -8.75 -1.54 0.16 
2.39 -8.80 -1.54 0.16 
2.22 -8.84 -1.54 0.16 
2.05 -8.87 -1.54 0.16 
1.88 -8.90 -1.54 0.16 
1.71 -8.93 -1.54 0.16 
1.54 -8.96 -1.54 0.16 
1.37 -8.98 -1.54 0.16 
1.20 -9.00 -1.53 0.16 
1.03 -9.02 -1.53 0.16 
0.86 -9.04 -1.53 0.16 
0.69 -9.05 -1.53 0.16 
0.51 -9.05 -1.53 0.16 
0.34 -9.06 -1.53 0.16 
0.17 -9.06 -1.53 0.16 
-0.00 -9.05 -1.53 0.16 
-0.17 -9.05 -1.53 0.16 
-0.34 -9.04 -1.53 0.16 
-0.51 -9.03 -1.53 0.16 
-0.68 -9.01 -1.53 0.16 
-0.85 -8.99 -1.53 0.16 
-1.02 -8.97 -1.53 0.16 
-1.19 -8.94 -1.52 0.16 
-1.36 -8.92 -1.52 0.16 
-1.53 -8.88 -1.52 0.16 
-1.70 -8.85 -1.52 0.16 
-1.86 -8.81 -1.52 0.16 
-2.03 -8.77 -1.52 0.16 
-2.19 -8.73 -1.52 0.16 
-2.36 -8.68 -1.52 0.16 
-2.52 -8.63 -1.52 0.16 
-2.68 -8.58 -1.52 0.16 
-2.84 -8.52 -1.52 0.16 
-3.00 -8.46 -1.52 0.16 
-3.16 -8.40 -1.52 0.16 
-3.31 -8.33 -1.52 0.16 
-3.47 -8.27 -1.51 0.16 
-3.62 -8.20 -1.51 0.16 
-3.78 -8.12 -1.51 0.16 
-3.93 -8.05 -1.51 0.16 
-4.08 -7.97 -1.51 0.16 
-4.23 -7.88 -1.51 0.16 
-4.41 -7.86 -1.52 0.83 
-4.60 -7.86 -1.54 0.82 
-4.81 -7.86 -1.56 0.81 
-5.02 -7.87 -1.58 0.80 
-5.23 -7.87 -1.60 0.79 
-5.45 -7.87 -1.62 0.78 
-5.68 -7.88 -1.64 0.77 
-5.86 -7.81 -1.65 0.17 
-6.01 -7.71 -1.65 0.17 
-6.16 -7.60 -1.65 0.17 
-6.31 -7.49 -1.65 0.17 
-6.45 -7.37 -1.65 0.16 
-6.59 -7.24 -1.65 0.16 
-6.72 -7.11 -1.65 0.16 
-6.85 -6.98 -1.65 0.16 
-6.98 -6.85 -1.65 0.16 
-7.10 -6.71 -1.65 0.16 
-7.23 -6.57 -1.65 0.16 
-7.35 -6.43 -1.65 0.16 
-7.47 -6.29 -1.65 0.16 
-7.58 -6.15 -1.65 0.16 
-7.69 -6.00 -1.65 0.16 
-7.80 -5.85 -1.65 0.16 
-7.91 -5.70 -1.65 0.16 
-8.01 -5.55 -1.65 0.16 
-8.12 -5.39 -1.65 0.16 
-8.21 -5.24 -1.65 0.16 
-8.31 -5.08 -1.65 0.16 
-8.40 -4.92 -1.64 0.16 
-8.49 -4.76 -1.64 0.16 
-8.58 -4.60 -1.64 0.16 
-8.66 -4.43 -1.64 0.16 
-8.74 -4.27 -1.64 0.16 
-8.82 -4.10 -1.64 0.16 
-8.89 -3.93 -1.64 0.16 
-8.96 -3.76 -1.64 0.16 
-9.03 -3.59 -1.64 0.16 
-9.10 -3.42 -1.64 0.16 
-9.16 -3.25 -1.64 0.16 
-9.22 -3.07 -1.64 0.16 
-9.27 -2.90 -1.64 0.16 
-9.32 -2.72 -1.64 0.16 
-9.37 -2.54 -1.64 0.16 
-1.23 -0.31 -0.21 0.15 
-1.24 -0.29 -0.21 0.15 
-1.24 -0.26 -0.21 0.15 
-1.25 -0.24 -0.21 0.15 
-1.25 -0.22 -0.21 0.17 
-1.25 -0.19 -0.21 0.17 
-1.25 -0.17 -0.21 0.17 
-1.25 -0.14 -0.21 0.17 
-1.25 -0.12 -0.21 0.17 
-1.25 -0.09 -0.21 0.17 
-1.24 -0.07 -0.21 0.17 
-1.24 -0.05 -0.21 0.17 
-1.24 -0.02 -0.21 0.17 
-1.23 -0.00 -0.21 0.18 
-1.22 0.02 -0.21 0.18 
-1.22 0.05 -0.21 0.18 
-1.21 0.07 -0.21 0.17 
-1.22 0.09 -0.21 0.17 
-1.22 0.12 -0.21 0.17 
-1.22 0.14 -0.21 0.17 
-1.22 0.16 -0.21 0.17 
-1.22 0.19 -0.21 0.17 
-1.22 0.21 -0.21 0.17 
-1.22 0.23 -0.21 0.17 
-1.22 0.26 -0.21 0.17 
-1.22 0.28 -0.21 0.17 
-1.22 0.31 -0.21 0.17 
-1.21 0.33 -0.21 0.15 
-1.20 0.35 -0.21 0.15 
-1.20 0.37 -0.21 0.15 
-1.19 0.40 -0.21 0.15 
-1.18 0.42 -0.21 0.15 
-1.17 0.44 -0.21 0.15 
-8.96 3.56 -1.64 0.17 
-8.89 3.73 -1.64 0.17 
-8.82 3.90 -1.64 0.17 
-8.74 4.07 -1.64 0.17 
-8.67 4.23 -1.64 0.17 
-8.59 4.40 -1.64 0.17 
-8.50 4.56 -1.64 0.17 
-8.42 4.72 -1.64 0.17 
-8.33 4.88 -1.64 0.16 
-8.24 5.04 -1.64 0.16 
-4.31 2.75 -0.87 0.53 
-4.15 2.76 -0.85 0.58 
-4.00 2.77 -0.83 0.59 
-3.86 2.78 -0.81 0.62 
-3.72 2.79 -0.79 0.64 
-3.59 2.80 -0.77 0.65 
-3.47 2.82 -0.76 0.73 
-3.37 2.84 -0.75 0.74 
-3.27 2.86 -0.74 0.75 
-3.17 2.88 -0.73 0.78 
-3.08 2.91 -0.72 0.80 
-2.99 2.93 -0.71 0.83 
-2.91 2.97 -0.71 0.92 
-2.86 3.03 -0.71 0.72 
-2.84 3.12 -0.72 0.72 
-2.81 3.21 -0.73 0.62 
-2.80 3.32 -0.74 0.67 
-2.78 3.42 -0.75 0.44 
-2.79 3.58 -0.77 0.50 
-5.83 7.77 -1.65 0.16 
-5.68 7.88 -1.65 0.16 
-5.53 7.99 -1.65 0.16 
-5.38 8.10 -1.65 0.16 
-5.23 8.20 -1.65 0.16 
-5.08 8.30 -1.66 0.16 
-4.92 8.40 -1.66 0.16 
-4.76 8.49 -1.66 0.16 
-4.60 8.58 -1.66 0.16 
-4.44 8.67 -1.66 0.16 
-4.28 8.76 -1.66 0.16 
-4.11 8.84 -1.66 0.16 
-3.95 8.92 -1.66 0.16 
-3.78 9.00 -1.66 0.16 
-3.61 9.07 -1.66 0.16 
-3.44 9.14 -1.66 0.16 
-3.26 9.21 -1.66 0.16 
-3.09 9.27 -1.66 0.16 
-2.92 9.34 -1.66 0.16 
-2.74 9.39 -1.67 0.16 
-2.56 9.45 -1.67 0.16 
-2.39 9.50 -1.67 0.16 
-2.21 9.55 -1.67 0.16 
-2.03 9.59 -1.67 0.16 
-1.84 9.63 -1.67 0.16 
-1.66 9.67 -1.67 0.16 
-1.48 9.70 -1.67 0.16 
-1.30 9.73 -1.67 0.16 
-1.11 9.76 -1.67 0.16 
-0.93 9.79 -1.67 0.16 
-0.48 6.28 -1.07 0.17 
-0.34 6.02 -1.03 0.58 
-0.23 5.96 -1.02 0.93 
-0.11 5.95 -1.01 0.96 
0.00 5.95 -1.01 0.96 
0.11 5.95 -1.01 0.96 
0.23 5.96 -1.01 0.96 
0.34 5.96 -1.02 0.96 
0.45 5.96 -1.02 0.96 
0.57 6.00 -1.03 0.95 
0.68 6.00 -1.03 0.95 
0.80 6.00 -1.03 0.95 
0.92 6.01 -1.03 0.94 
1.03 6.01 -1.04 0.94 
1.15 6.02 -1.04 0.94 
1.27 6.02 -1.05 0.94 
1.39 6.03 -1.05 0.93 
1.52 6.04 -1.06 0.93 
1.64 6.05 -1.07 0.92 
1.77 6.05 -1.07 0.92 
1.89 6.06 -1.08 0.91 
2.02 6.07 -1.09 0.90 
2.15 6.07 -1.10 0.90 
2.29 6.08 -1.11 0.89 
2.42 6.08 -1.11 0.89 
2.56 6.09 -1.12 0.88 
2.70 6.10 -1.13 0.87 
2.84 6.10 -1.14 0.89 
2.98 6.10 -1.15 0.82 
3.09 6.04 -1.15 0.84 
3.24 6.04 -1.17 0.83 
3.39 6.04 -1.18 0.82 
3.54 6.05 -1.19 0.81 
3.70 6.05 -1.21 0.80 
3.88 6.09 -1.23 0.70 
4.09 6.15 -1.26 0.28 
5.69 8.22 -1.70 0.16 
5.85 8.11 -1.70 0.16 
6.00 8.01 -1.70 0.16 
6.16 7.89 -1.70 0.16 
6.31 7.78 -1.70 0.16 
6.46 7.66 -1.70 0.16 
6.60 7.54 -1.71 0.16 
6.75 7.42 -1.71 0.16 
6.89 7.29 -1.71 0.16 
7.03 7.16 -1.71 0.16 
7.16 7.03 -1.71 0.16 
7.30 6.90 -1.71 0.16 
7.43 6.76 -1.71 0.16 
7.56 6.62 -1.71 0.16 
7.69 6.48 -1.71 0.16 
7.81 6.33 -1.71 0.16 
7.93 6.19 -1.71 0.16 
8.05 6.04 -1.71 0.16 
8.16 5.88 -1.71 0.16 
8.28 5.73 -1.71 0.16 
8.39 5.57 -1.71 0.16 
8.49 5.42 -1.71 0.16 
8.60 5.26 -1.71 0.16 
8.70 5.09 -1.72 0.16 
8.79 4.93 -1.72 0.16 
8.89 4.76 -1.72 0.16 
8.98 4.60 -1.72 0.16 
9.07 4.43 -1.72 0.16 
9.15 4.26 -1.72 0.16 
9.23 4.08 -1.72 0.16 
9.31 3.91 -1.72 0.16 
9.38 3.73 -1.72 0.16 
9.45 3.55 -1.72 0.16 
9.52 3.38 -1.72 0.16 
9.59 3.19 -1.72 0.16 
9.65 3.01 -1.72 0.16 
9.70 2.83 -1.72 0.16 
9.76 2.65 -1.72 0.16 
9.81 2.46 -1.72 0.16 
9.85 2.28 -1.72 0.16 
9.90 2.09 -1.72 0.16 
9.93 1.90 -1.72 0.16 
9.97 1.71 -1.72 0.16 
10.00 1.53 -1.72 0.16 
10.03 1.34 -1.72 0.16 
10.05 1.15 -1.72 0.16 
10.07 0.96 -1.72 0.16 
10.09 0.77 -1.72 0.16 
10.11 0.57 -1.72 0.16 
10.11 0.38 -1.72 0.16 
10.12 0.19 -1.72 0.16 
10.12 -0.00 -1.72 0.16 
10.12 -0.19 -1.72 0.16 
10.12 -0.38 -1.72 0.16 
10.11 -0.57 -1.72 0.16 
10.09 -0.77 -1.72 0.16 
10.08 -0.96 -1.72 0.16 
10.06 -1.15 -1.72 0.16 
10.03 -1.34 -1.72 0.16 
10.01 -1.53 -1.72 0.16 
9.98 -1.72 -1.72 0.16 
9.94 -1.90 -1.72 0.16 
9.90 -2.09 -1.72 0.16 
9.86 -2.28 -1.72 0.16 
9.81 -2.46 -1.72 0.16 
9.77 -2.65 -1.72 0.16 
9.71 -2.83 -1.72 0.16 
9.66 -3.02 -1.72 0.16 
9.60 -3.20 -1.72 0.16 
9.53 -3.38 -1.72 0.16 
9.47 -3.56 -1.72 0.16 
9.40 -3.74 -1.72 0.16 
9.32 -3.91 -1.72 0.16 
9.24 -4.09 -1.72 0.16 
9.16 -4.26 -1.72 0.16 
6.33 -3.09 -1.20 0.34 
6.05 -3.10 -1.16 0.45 
5.78 -3.10 -1.12 0.46 
5.54 -3.10 -1.08 0.51 
5.32 -3.11 -1.05 0.53 
5.13 -3.14 -1.02 0.60 
4.96 -3.16 -1.00 0.64 
4.81 -3.20 -0.98 0.76 
4.71 -3.26 -0.98 0.88 
4.65 -3.35 -0.97 0.88 
4.61 -3.45 -0.98 0.80 
4.59 -3.58 -0.99 0.76 
4.57 -3.71 -1.00 0.78 
4.57 -3.85 -1.02 0.72 
7.58 -6.63 -1.71 0.16 
7.45 -6.77 -1.71 0.16 
7.32 -6.91 -1.71 0.16 
7.18 -7.05 -1.71 0.16 
7.04 -7.18 -1.71 0.16 
6.90 -7.31 -1.71 0.16 
6.76 -7.43 -1.71 0.17 
6.60 -7.54 -1.71 0.17 
6.45 -7.65 -1.70 0.17 
6.29 -7.76 -1.70 0.71 
6.04 -7.74 -1.67 0.72 
5.80 -7.73 -1.64 0.73 
5.56 -7.72 -1.62 0.74 
5.33 -7.70 -1.59 0.75 
5.11 -7.69 -1.57 0.77 
4.90 -7.69 -1.55 0.67 
4.75 -7.77 -1.55 0.16 
4.60 -7.85 -1.55 0.16 
4.45 -7.94 -1.55 0.16 
4.30 -8.02 -1.55 0.16 
4.14 -8.09 -1.55 0.16 
3.99 -8.17 -1.55 0.16 
3.83 -8.24 -1.55 0.16 
3.67 -8.30 -1.55 0.16 
3.51 -8.37 -1.54 0.16 
3.35 -8.43 -1.54 0.16 
3.19 -8.49 -1.54 0.16 
3.03 -8.54 -1.54 0.16 
2.86 -8.59 -1.54 0.16 
2.70 -8.64 -1.54 0.16 
2.54 -8.69 -1.54 0.16 
2.37 -8.73 -1.54 0.16 
2.20 -8.77 -1.54 0.16 
2.04 -8.81 -1.54 0.16 
1.87 -8.84 -1.54 0.16 
1.70 -8.87 -1.54 0.16 
1.53 -8.90 -1.54 0.16 
1.36 -8.92 -1.54 0.16 
1.19 -8.94 -1.53 0.16 
1.02 -8.96 -1.53 0.16 
0.85 -8.97 -1.53 0.16 
0.68 -8.98 -1.53 0.16 
0.51 -8.99 -1.53 0.16 
0.34 -8.99 -1.53 0.16 
0.17 -8.99 -1.53 0.16 
-0.00 -8.99 -1.53 0.16 
-0.17 -8.98 -1.53 0.16 
-0.34 -8.97 -1.53 0.16 
-0.51 -8.96 -1.53 0.16 
-0.68 -8.95 -1.53 0.16 
-0.85 -8.93 -1.53 0.16 
-1.02 -8.91 -1.53 0.16 
-1.18 -8.88 -1.52 0.16 
-1.35 -8.85 -1.52 0.16 
-1.52 -8.82 -1.52 0.16 
-1.68 -8.79 -1.52 0.16 
-1.85 -8.75 -1.52 0.16 
-2.01 -8.71 -1.52 0.16 
-2.18 -8.66 -1.52 0.16 
-2.34 -8.62 -1.52 0.16 
-2.50 -8.57 -1.52 0.16 
-2.66 -8.52 -1.52 0.16 
-2.82 -8.46 -1.52 0.16 
-2.98 -8.40 -1.52 0.16 
-3.13 -8.34 -1.52 0.16 
-3.29 -8.27 -1.52 0.16 
-3.45 -8.21 -1.51 0.16 
-3.60 -8.14 -1.51 0.16 
-3.75 -8.06 -1.51 0.16 
-3.91 -8.00 -1.51 0.71 
-4.05 -7.91 -1.51 0.16 
-4.21 -7.85 -1.52 0.70 
-4.40 -7.86 -1.53 0.83 
-4.60 -7.86 -1.55 0.82 
-4.81 -7.86 -1.57 0.81 
-5.02 -7.86 -1.59 0.80 
-5.23 -7.87 -1.61 0.79 
-5.45 -7.87 -1.63 0.78 
-5.67 -7.87 -1.65 0.18 
-5.82 -7.76 -1.65 0.18 
-5.97 -7.66 -1.65 0.18 
-6.12 -7.55 -1.65 0.18 
-6.27 -7.44 -1.65 0.16 
-6.40 -7.31 -1.65 0.16 
-6.54 -7.19 -1.65 0.16 
-6.67 -7.06 -1.65 0.16 
-6.80 -6.93 -1.65 0.16 
-6.93 -6.80 -1.65 0.16 
-7.05 -6.66 -1.65 0.16 
-7.18 -6.53 -1.65 0.16 
-7.30 -6.39 -1.65 0.16 
-7.41 -6.25 -1.65 0.16 
-7.53 -6.10 -1.65 0.16 
-7.64 -5.96 -1.65 0.16 
-7.75 -5.81 -1.65 0.16 
-7.85 -5.66 -1.65 0.16 
-7.96 -5.51 -1.65 0.16 
-8.06 -5.36 -1.65 0.16 
-8.16 -5.20 -1.65 0.16 
-8.25 -5.05 -1.65 0.16 
-8.34 -4.89 -1.65 0.16 
-8.43 -4.73 -1.64 0.16 
-8.52 -4.57 -1.64 0.16 
-8.60 -4.40 -1.64 0.16 
-8.68 -4.24 -1.64 0.16 
-8.76 -4.07 -1.64 0.16 
-8.83 -3.90 -1.64 0.16 
-8.90 -3.74 -1.64 0.16 
-8.97 -3.57 -1.64 0.17 
-9.03 -3.40 -1.64 0.17 
-9.09 -3.22 -1.64 0.17 
-9.15 -3.05 -1.64 0.17 
-9.20 -2.88 -1.64 0.17 
-9.26 -2.70 -1.64 0.17 
-9.30 -2.52 -1.64 0.17 
-1.22 -0.31 -0.21 0.15 
-1.23 -0.28 -0.21 0.15 
-1.23 -0.26 -0.21 0.15 
-1.24 -0.24 -0.21 0.15 
-1.24 -0.21 -0.21 0.15 
-1.24 -0.19 -0.21 0.17 
-1.24 -0.17 -0.21 0.17 
-1.24 -0.14 -0.21 0.17 
-1.24 -0.12 -0.21 0.17 
-1.24 -0.09 -0.21 0.17 
-1.23 -0.07 -0.21 0.17 
-1.23 -0.05 -0.21 0.17 
-1.23 -0.02 -0.21 0.17 
-1.22 -0.00 -0.21 0.18 
-1.21 0.02 -0.21 0.18 
-1.21 0.05 -0.21 0.18 
-1.21 0.07 -0.21 0.17 
-1.21 0.09 -0.21 0.17 
-1.21 0.11 -0.21 0.17 
-1.21 0.14 -0.21 0.17 
-1.21 0.16 -0.21 0.17 
-1.21 0.19 -0.21 0.17 
-1.21 0.21 -0.21 0.17 
-1.21 0.23 -0.21 0.17 
-1.21 0.26 -0.21 0.17 
-1.21 0.28 -0.21 0.17 
-1.21 0.30 -0.21 0.15 
-1.20 0.33 -0.21 0.15 
-1.19 0.35 -0.21 0.15 
-1.19 0.37 -0.21 0.15 
-1.18 0.39 -0.21 0.15 
-1.17 0.42 -0.21 0.15 
-1.16 0.44 -0.21 0.15 
-8.89 3.54 -1.64 0.17 
-8.83 3.71 -1.64 0.17 
-8.76 3.87 -1.64 0.17 
-8.68 4.04 -1.64 0.17 
-8.61 4.20 -1.64 0.17 
-8.53 4.36 -1.64 0.17 
-8.44 4.53 -1.64 0.17 
-8.36 4.69 -1.64 0.17 
-8.27 4.84 -1.64 0.17 
-8.18 5.00 -1.64 0.17 
-4.31 2.75 -0.88 0.53 
-4.15 2.76 -0.85 0.58 
-4.00 2.77 -0.83 0.59 
-3.86 2.78 -0.81 0.62 
-3.72 2.79 -0.80 0.64 
-3.59 2.80 -0.78 0.65 
-3.47 2.82 -0.77 0.73 
-3.37 2.84 -0.75 0.74 
-3.26 2.86 -0.74 0.75 
-3.17 2.88 -0.73 0.78 
-3.08 2.91 -0.73 0.80 
-2.99 2.93 -0.72 0.83 
-2.91 2.97 -0.71 0.92 
-2.86 3.03 -0.71 0.72 
-2.84 3.12 -0.72 0.72 
-2.81 3.21 -0.73 0.62 
-2.79 3.31 -0.74 0.67 
-2.77 3.42 -0.75 0.44 
-2.79 3.57 -0.78 0.50 
-5.78 7.71 -1.65 0.17 
-5.64 7.82 -1.65 0.17 
-5.49 7.93 -1.65 0.17 
-5.34 8.04 -1.65 0.16 
-5.19 8.14 -1.65 0.16 
-5.04 8.24 -1.66 0.16 
-4.88 8.34 -1.66 0.16 
-4.73 8.43 -1.66 0.16 
-4.57 8.52 -1.66 0.16 
-4.41 8.61 -1.66 0.16 
-4.25 8.70 -1.66 0.16 
-4.08 8.78 -1.66 0.16 
-3.92 8.86 -1.66 0.16 
-3.75 8.94 -1.66 0.16 
-3.58 9.01 -1.66 0.16 
-3.41 9.08 -1.66 0.16 
-3.24 9.15 -1.66 0.16 
-3.07 9.21 -1.66 0.16 
-2.90 9.27 -1.66 0.16 
-2.72 9.33 -1.67 0.16 
-2.55 9.38 -1.67 0.16 
-2.37 9.43 -1.67 0.16 
-2.19 9.48 -1.67 0.16 
-2.01 9.52 -1.67 0.16 
-1.83 9.56 -1.67 0.16 
-1.65 9.60 -1.67 0.16 
-1.47 9.63 -1.67 0.16 
-1.29 9.66 -1.67 0.16 
-1.11 9.69 -1.67 0.16 
-0.92 9.72 -1.67 0.16 
-0.48 6.27 -1.08 0.17 
-0.34 6.01 -1.03 0.58 
-0.23 5.96 -1.02 0.93 
-0.11 5.95 -1.02 0.96 
0.00 5.95 -1.02 0.96 
0.11 5.95 -1.02 0.96 
0.23 5.96 -1.02 0.96 
0.34 5.96 -1.02 0.96 
0.45 5.96 -1.02 0.96 
0.57 6.00 -1.03 0.95 
0.68 6.00 -1.03 0.95 
0.80 6.00 -1.04 0.95 
0.92 6.01 -1.04 0.94 
1.03 6.01 -1.05 0.95 
1.15 6.02 -1.05 0.94 
1.27 6.02 -1.06 0.94 
1.39 6.03 -1.06 0.93 
1.52 6.04 -1.07 0.93 
1.64 6.04 -1.07 0.92 
1.77 6.05 -1.08 0.92 
1.89 6.06 -1.09 0.91 
2.02 6.07 -1.10 0.90 
2.15 6.07 -1.10 0.90 
2.29 6.08 -1.11 0.89 
2.42 6.08 -1.12 0.89 
2.56 6.09 -1.13 0.88 
2.70 6.10 -1.14 0.87 
2.84 6.10 -1.15 0.89 
2.98 6.10 -1.16 0.81 
3.09 6.04 -1.16 0.84 
3.24 6.04 -1.17 0.83 
3.39 6.04 -1.19 0.82 
3.54 6.05 -1.20 0.81 
3.70 6.05 -1.22 0.80 
3.88 6.09 -1.24 0.70 
4.08 6.14 -1.26 0.28 
5.65 8.16 -1.70 0.16 
5.81 8.06 -1.70 0.16 
5.96 7.95 -1.70 0.16 
6.11 7.84 -1.70 0.16 
6.26 7.72 -1.70 0.16 
6.41 7.61 -1.70 0.16 
6.55 7.49 -1.71 0.16 
6.70 7.36 -1.71 0.16 
6.84 7.24 -1.71 0.16 
6.98 7.11 -1.71 0.16 
7.11 6.98 -1.71 0.16 
7.25 6.85 -1.71 0.16 
7.38 6.71 -1.71 0.16 
7.50 6.57 -1.71 0.16 
7.63 6.43 -1.71 0.16 
7.75 6.29 -1.71 0.16 
7.87 6.14 -1.71 0.16 
7.99 5.99 -1.71 0.16 
8.10 5.84 -1.71 0.16 
8.22 5.69 -1.71 0.16 
8.32 5.53 -1.71 0.16 
8.43 5.38 -1.71 0.16 
8.53 5.22 -1.71 0.16 
8.63 5.06 -1.71 0.16 
8.73 4.89 -1.72 0.16 
8.82 4.73 -1.72 0.16 
8.91 4.56 -1.72 0.16 
9.00 4.39 -1.72 0.16 
9.08 4.22 -1.72 0.16 
9.16 4.05 -1.72 0.16 
9.24 3.88 -1.72 0.16 
9.31 3.70 -1.72 0.16 
9.38 3.53 -1.72 0.16 
9.45 3.35 -1.72 0.16 
9.52 3.17 -1.72 0.16 
9.58 2.99 -1.72 0.16 
9.63 2.81 -1.72 0.16 
9.68 2.63 -1.72 0.16 
9.73 2.44 -1.72 0.16 
9.78 2.26 -1.72 0.16 
9.82 2.07 -1.72 0.16 
9.86 1.89 -1.72 0.16 
9.90 1.70 -1.72 0.16 
9.93 1.51 -1.72 0.16 
9.96 1.33 -1.72 0.16 
9.98 1.14 -1.72 0.16 
10.00 0.95 -1.72 0.16 
10.02 0.76 -1.72 0.16 
10.03 0.57 -1.72 0.16 
10.04 0.38 -1.72 0.16 
10.05 0.19 -1.72 0.16 
10.05 -0.00 -1.72 0.16 
10.05 -0.19 -1.72 0.16 
10.04 -0.38 -1.72 0.16 
10.03 -0.57 -1.72 0.16 
10.02 -0.76 -1.72 0.16 
10.00 -0.95 -1.72 0.16 
9.98 -1.14 -1.72 0.16 
9.96 -1.33 -1.72 0.16 
9.93 -1.52 -1.72 0.16 
9.90 -1.70 -1.72 0.16 
9.87 -1.89 -1.72 0.16 
9.83 -2.08 -1.72 0.16 
9.79 -2.26 -1.72 0.16 
9.74 -2.45 -1.72 0.16 
9.69 -2.63 -1.72 0.16 
9.64 -2.81 -1.72 0.16 
9.59 -2.99 -1.72 0.16 
9.53 -3.17 -1.72 0.16 
9.46 -3.35 -1.72 0.16 
9.40 -3.53 -1.72 0.16 
9.33 -3.71 -1.72 0.16 
9.25 -3.88 -1.72 0.16 
9.18 -4.06 -1.72 0.16 
9.10 -4.23 -1.72 0.16 
6.31 -3.08 -1.20 0.34 
6.05 -3.09 -1.16 0.45 
5.78 -3.10 -1.12 0.46 
5.53 -3.10 -1.09 0.51 
5.32 -3.11 -1.06 0.53 
5.13 -3.14 -1.03 0.61 
4.96 -3.16 -1.01 0.64 
4.81 -3.20 -0.99 0.76 
4.71 -3.26 -0.98 0.88 
4.64 -3.35 -0.98 0.88 
4.60 -3.45 -0.99 0.80 
4.58 -3.58 -1.00 0.77 
4.57 -3.70 -1.01 0.79 
4.56 -3.84 -1.02 0.75 
7.52 -6.59 -1.71 0.16 
7.39 -6.72 -1.71 0.16 
7.26 -6.86 -1.71 0.16 
7.13 -6.99 -1.71 0.16 
6.99 -7.13 -1.71 0.16 
6.85 -7.26 -1.71 0.16 
6.71 -7.38 -1.71 0.17 
6.56 -7.49 -1.71 0.17 
6.41 -7.60 -1.70 0.17 
6.25 -7.71 -1.70 0.17 
6.04 -7.74 -1.68 0.72 
5.79 -7.73 -1.66 0.73 
5.56 -7.71 -1.63 0.74 
5.33 -7.70 -1.61 0.75 
5.11 -7.69 -1.58 0.77 
4.90 -7.68 -1.56 0.80 
4.72 -7.71 -1.55 0.16 
4.57 -7.80 -1.55 0.16 
4.42 -7.88 -1.55 0.16 
4.27 -7.96 -1.55 0.16 
4.11 -8.03 -1.55 0.16 
3.96 -8.11 -1.55 0.16 
3.80 -8.18 -1.55 0.16 
3.65 -8.24 -1.54 0.16 
3.49 -8.31 -1.54 0.16 
3.33 -8.37 -1.54 0.16 
3.17 -8.43 -1.54 0.16 
3.01 -8.48 -1.54 0.16 
2.84 -8.53 -1.54 0.16 
2.68 -8.58 -1.54 0.16 
2.52 -8.63 -1.54 0.16 
2.35 -8.67 -1.54 0.16 
2.19 -8.71 -1.54 0.16 
2.02 -8.74 -1.54 0.16 
1.85 -8.78 -1.54 0.16 
1.69 -8.81 -1.54 0.16 
1.52 -8.83 -1.54 0.16 
1.35 -8.86 -1.54 0.16 
1.18 -8.87 -1.53 0.16 
1.01 -8.89 -1.53 0.16 
0.85 -8.90 -1.53 0.16 
0.68 -8.92 -1.53 0.16 
0.51 -8.92 -1.53 0.16 
0.34 -8.93 -1.53 0.16 
0.17 -8.93 -1.53 0.16 
-0.00 -8.92 -1.53 0.16 
-0.17 -8.92 -1.53 0.16 
-0.34 -8.91 -1.53 0.16 
-0.51 -8.90 -1.53 0.16 
-0.67 -8.88 -1.53 0.16 
-0.84 -8.86 -1.53 0.16 
-1.01 -8.84 -1.53 0.16 
-1.17 -8.82 -1.52 0.16 
-1.34 -8.79 -1.52 0.16 
-1.51 -8.76 -1.52 0.16 
-1.67 -8.72 -1.52 0.16 
-1.83 -8.69 -1.52 0.16 
-2.00 -8.65 -1.52 0.16 
-2.16 -8.60 -1.52 0.16 
-2.32 -8.56 -1.52 0.16 
-2.48 -8.51 -1.52 0.16 
-2.64 -8.45 -1.52 0.16 
-2.80 -8.40 -1.52 0.16 
-2.96 -8.34 -1.52 0.16 
-3.11 -8.28 -1.52 0.16 
-3.27 -8.22 -1.52 0.16 
-3.42 -8.15 -1.51 0.16 
-3.57 -8.08 -1.51 0.16 
-3.72 -8.01 -1.51 0.16 
-3.87 -7.93 -1.51 0.16 
-4.02 -7.85 -1.51 0.70 
-4.21 -7.85 -1.53 0.84 
-4.40 -7.85 -1.54 0.83 
-4.60 -7.86 -1.56 0.82 
-4.81 -7.86 -1.58 0.81 
-5.01 -7.86 -1.60 0.80 
-5.23 -7.87 -1.62 0.79 
-5.45 -7.87 -1.64 0.78 
-5.63 -7.81 -1.65 0.18 
-5.78 -7.71 -1.65 0.18 
-5.93 -7.61 -1.65 0.18 
-6.08 -7.50 -1.65 0.18 
-6.22 -7.38 -1.65 0.16 
-6.36 -7.26 -1.65 0.16 
-6.49 -7.14 -1.65 0.17 
-6.62 -7.01 -1.65 0.17 
-6.75 -6.88 -1.65 0.17 
-6.88 -6.75 -1.65 0.17 
-7.00 -6.62 -1.65 0.17 
-7.13 -6.48 -1.65 0.17 
-7.24 -6.34 -1.65 0.17 
-7.36 -6.20 -1.65 0.17 
-7.47 -6.06 -1.65 0.17 
-7.59 -5.92 -1.65 0.17 
-7.69 -5.77 -1.65 0.17 
-7.80 -5.62 -1.65 0.17 
-7.90 -5.47 -1.65 0.17 
-8.00 -5.32 -1.65 0.17 
-8.10 -5.17 -1.65 0.17 
-8.19 -5.01 -1.65 0.17 
-8.28 -4.85 -1.65 0.17 
-8.37 -4.69 -1.65 0.17 
-8.46 -4.53 -1.64 0.17 
-8.54 -4.37 -1.64 0.17 
-8.62 -4.21 -1.64 0.17 
-8.69 -4.04 -1.64 0.17 
-8.77 -3.88 -1.64 0.17 
-8.84 -3.71 -1.64 0.17 
-8.90 -3.54 -1.64 0.17 
-8.97 -3.37 -1.64 0.17 
-9.03 -3.20 -1.64 0.17 
-9.09 -3.03 -1.64 0.17 
-9.14 -2.86 -1.64 0.17 
-9.19 -2.68 -1.64 0.17 
-9.24 -2.51 -1.64 0.17 
-1.21 -0.30 -0.21 0.15 
-1.22 -0.28 -0.21 0.15 
-1.22 -0.26 -0.21 0.15 
-1.23 -0.23 -0.21 0.15 
-1.23 -0.21 -0.21 0.15 
-1.23 -0.19 -0.21 0.17 
-1.23 -0.16 -0.21 0.17 
-1.23 -0.14 -0.21 0.17 
-1.23 -0.12 -0.21 0.17 
-1.23 -0.09 -0.21 0.17 
-1.23 -0.07 -0.21 0.17 
-1.22 -0.05 -0.21 0.18 
-1.22 -0.02 -0.21 0.18 
-1.21 0.00 -0.21 0.18 
-1.21 0.02 -0.21 0.18 
-1.20 0.05 -0.21 0.18 
-1.20 0.07 -0.21 0.18 
-1.20 0.09 -0.21 0.18 
-1.20 0.11 -0.21 0.18 
-1.20 0.14 -0.21 0.17 
-1.20 0.16 -0.21 0.17 
-1.20 0.18 -0.21 0.17 
-1.20 0.21 -0.21 0.17 
-1.20 0.23 -0.21 0.17 
-1.20 0.25 -0.21 0.17 
-1.20 0.28 -0.21 0.17 
-1.20 0.30 -0.21 0.15 
-1.19 0.32 -0.21 0.15 
-1.18 0.35 -0.21 0.15 
-1.18 0.37 -0.21 0.15 
-1.17 0.39 -0.21 0.15 
-1.16 0.41 -0.21 0.15 
-1.15 0.43 -0.21 0.15 
-8.83 3.51 -1.64 0.17 
-8.77 3.68 -1.64 0.17 
-8.70 3.85 -1.64 0.17 
-8.62 4.01 -1.64 0.17 
-8.55 4.17 -1.64 0.17 
-8.47 4.33 -1.64 0.17 
-8.39 4.49 -1.64 0.17 
-8.30 4.65 -1.64 0.17 
-8.21 4.81 -1.64 0.17 
-8.12 4.97 -1.64 0.17 
-4.31 2.75 -0.88 0.53 
-4.15 2.76 -0.86 0.62 
-4.00 2.77 -0.84 0.59 
-3.86 2.78 -0.82 0.62 
-3.72 2.79 -0.80 0.64 
-3.59 2.80 -0.79 0.65 
-3.47 2.81 -0.77 0.73 
-3.36 2.84 -0.76 0.74 
-3.26 2.86 -0.75 0.75 
-3.17 2.88 -0.74 0.78 
-3.07 2.90 -0.73 0.82 
-2.99 2.93 -0.72 0.83 
-2.91 2.97 -0.72 0.92 
-2.86 3.02 -0.72 0.72 
-2.83 3.12 -0.73 0.72 
-2.81 3.21 -0.74 0.62 
-2.79 3.31 -0.75 0.67 
-2.77 3.41 -0.76 0.44 
-2.78 3.57 -0.78 0.50 
-2.86 3.81 -0.82 0.32 
-5.60 7.77 -1.65 0.17 
-5.45 7.88 -1.65 0.17 
-5.31 7.98 -1.65 0.17 
-5.16 8.08 -1.66 0.17 
-5.00 8.18 -1.66 0.17 
-4.85 8.28 -1.66 0.17 
-4.69 8.37 -1.66 0.17 
-4.54 8.46 -1.66 0.17 
-4.38 8.55 -1.66 0.17 
-4.22 8.64 -1.66 0.17 
-4.05 8.72 -1.66 0.17 
-3.89 8.80 -1.66 0.17 
-3.72 8.87 -1.66 0.17 
-3.56 8.94 -1.66 0.17 
-3.39 9.01 -1.66 0.17 
-3.22 9.08 -1.66 0.17 
-3.05 9.14 -1.66 0.17 
-2.88 9.20 -1.66 0.17 
-2.70 9.26 -1.67 0.17 
-2.53 9.31 -1.67 0.16 
-2.35 9.36 -1.67 0.16 
-2.17 9.41 -1.67 0.16 
-2.00 9.45 -1.67 0.16 
-1.82 9.50 -1.67 0.16 
-1.64 9.53 -1.67 0.16 
-1.46 9.57 -1.67 0.16 
-1.28 9.60 -1.67 0.16 
-1.10 9.62 -1.67 0.16 
-0.92 9.65 -1.67 0.16 
-0.47 6.25 -1.08 0.17 
-0.34 6.01 -1.04 0.58 
-0.23 5.96 -1.03 0.93 
-0.11 5.95 -1.03 0.96 
0.00 5.95 -1.03 0.96 
0.11 5.95 -1.03 0.96 
0.23 5.96 -1.03 0.96 
0.34 5.96 -1.03 0.96 
0.45 5.96 -1.03 0.96 
0.57 6.00 -1.04 0.95 
0.68 6.00 -1.04 0.95 
0.80 6.00 -1.05 0.96 
0.92 6.01 -1.05 0.95 
1.03 6.01 -1.05 0.95 
1.15 6.02 -1.06 0.94 
1.27 6.02 -1.06 0.94 
1.39 6.03 -1.07 0.93 
1.52 6.04 -1.07 0.93 
1.64 6.04 -1.08 0.92 
1.77 6.05 -1.09 0.92 
1.89 6.06 -1.10 0.91 
2.02 6.07 -1.10 0.90 
2.15 6.07 -1.11 0.90 
2.28 6.08 -1.12 0.89 
2.42 6.08 -1.13 0.89 
2.56 6.09 -1.14 0.87 
2.70 6.10 -1.15 0.87 
2.84 6.10 -1.16 0.89 
2.98 6.10 -1.17 0.81 
3.09 6.04 -1.17 0.84 
3.24 6.04 -1.18 0.83 
3.39 6.04 -1.20 0.82 
3.54 6.05 -1.21 0.81 
3.70 6.05 -1.22 0.80 
3.88 6.09 -1.25 0.70 
4.08 6.14 -1.27 0.28 
5.61 8.10 -1.70 0.16 
5.76 8.00 -1.70 0.16 
5.92 7.89 -1.70 0.16 
6.07 7.78 -1.70 0.16 
6.22 7.67 -1.70 0.16 
6.36 7.55 -1.70 0.16 
6.51 7.43 -1.71 0.16 
6.65 7.31 -1.71 0.16 
6.79 7.18 -1.71 0.16 
6.93 7.06 -1.71 0.16 
7.06 6.93 -1.71 0.16 
7.19 6.80 -1.71 0.16 
7.32 6.66 -1.71 0.16 
7.45 6.52 -1.71 0.16 
7.57 6.38 -1.71 0.16 
7.70 6.24 -1.71 0.16 
7.82 6.10 -1.71 0.16 
7.93 5.95 -1.71 0.16 
8.05 5.80 -1.71 0.16 
8.16 5.65 -1.71 0.16 
8.26 5.49 -1.71 0.16 
8.37 5.34 -1.71 0.16 
8.47 5.18 -1.71 0.16 
8.57 5.02 -1.71 0.16 
8.67 4.86 -1.72 0.16 
8.76 4.69 -1.72 0.16 
8.85 4.53 -1.72 0.16 
8.93 4.36 -1.72 0.16 
9.02 4.19 -1.72 0.16 
9.10 4.02 -1.72 0.16 
9.17 3.85 -1.72 0.16 
9.25 3.68 -1.72 0.16 
9.32 3.50 -1.72 0.16 
9.38 3.33 -1.72 0.16 
9.45 3.15 -1.72 0.16 
9.51 2.97 -1.72 0.16 
9.56 2.79 -1.72 0.16 
9.61 2.61 -1.72 0.16 
9.66 2.43 -1.72 0.16 
9.71 2.24 -1.72 0.16 
9.75 2.06 -1.72 0.16 
9.79 1.88 -1.72 0.16 
9.82 1.69 -1.72 0.16 
9.86 1.50 -1.72 0.16 
9.88 1.32 -1.72 0.16 
9.91 1.13 -1.72 0.16 
9.93 0.94 -1.72 0.16 
9.94 0.75 -1.72 0.16 
9.96 0.57 -1.72 0.16 
9.97 0.38 -1.72 0.16 
9.97 0.19 -1.72 0.16 
9.98 -0.00 -1.72 0.16 
9.97 -0.19 -1.72 0.16 
9.97 -0.38 -1.72 0.16 
9.96 -0.57 -1.72 0.16 
9.95 -0.75 -1.72 0.16 
9.93 -0.94 -1.72 0.16 
9.91 -1.13 -1.72 0.16 
9.89 -1.32 -1.72 0.16 
9.86 -1.50 -1.72 0.16 
9.83 -1.69 -1.72 0.16 
9.80 -1.88 -1.72 0.16 
9.76 -2.06 -1.72 0.16 
9.72 -2.25 -1.72 0.16 
9.67 -2.43 -1.72 0.16 
9.62 -2.61 -1.72 0.16 
9.57 -2.79 -1.72 0.16 
9.52 -2.97 -1.72 0.16 
9.46 -3.15 -1.72 0.16 
9.39 -3.33 -1.72 0.16 
9.33 -3.51 -1.72 0.16 
9.26 -3.68 -1.72 0.16 
9.19 -3.86 -1.72 0.16 
9.11 -4.03 -1.72 0.16 
9.03 -4.20 -1.72 0.16 
6.28 -3.07 -1.21 0.34 
6.04 -3.09 -1.17 0.45 
5.78 -3.10 -1.13 0.46 
5.53 -3.10 -1.09 0.51 
5.31 -3.11 -1.06 0.53 
5.13 -3.14 -1.04 0.61 
4.96 -3.16 -1.01 0.64 
4.81 -3.20 -1.00 0.75 
4.71 -3.26 -0.99 0.88 
4.64 -3.34 -0.99 0.92 
4.60 -3.45 -0.99 0.86 
4.58 -3.57 -1.00 0.77 
4.57 -3.70 -1.01 0.79 
4.56 -3.84 -1.03 0.75 
7.47 -6.54 -1.71 0.16 
7.34 -6.68 -1.71 0.16 
7.21 -6.81 -1.71 0.16 
7.08 -6.94 -1.71 0.16 
6.94 -7.07 -1.71 0.16 
6.80 -7.20 -1.71 0.16 
6.66 -7.33 -1.71 0.16 
6.52 -7.44 -1.71 0.17 
6.36 -7.55 -1.70 0.17 
6.21 -7.66 -1.70 0.17 
6.03 -7.74 -1.69 0.72 
5.79 -7.72 -1.67 0.73 
5.56 -7.71 -1.64 0.74 
5.33 -7.70 -1.62 0.75 
5.11 -7.69 -1.59 0.77 
4.90 -7.68 -1.57 0.80 
4.70 -7.68 -1.55 0.68 
4.53 -7.74 -1.55 0.16 
4.39 -7.82 -1.55 0.16 
4.23 -7.90 -1.55 0.16 
4.08 -7.98 -1.55 0.16 
3.93 -8.05 -1.55 0.16 
3.77 -8.12 -1.55 0.16 
3.62 -8.18 -1.54 0.16 
3.46 -8.25 -1.54 0.16 
3.30 -8.31 -1.54 0.16 
3.14 -8.37 -1.54 0.16 
2.98 -8.42 -1.54 0.16 
2.82 -8.47 -1.54 0.16 
2.66 -8.52 -1.54 0.16 
2.50 -8.56 -1.54 0.16 
2.34 -8.61 -1.54 0.16 
2.17 -8.65 -1.54 0.16 
2.01 -8.68 -1.54 0.16 
1.84 -8.71 -1.54 0.16 
1.67 -8.74 -1.54 0.16 
1.51 -8.77 -1.54 0.16 
1.34 -8.79 -1.54 0.16 
1.17 -8.81 -1.53 0.16 
1.01 -8.83 -1.53 0.16 
0.84 -8.84 -1.53 0.16 
0.67 -8.85 -1.53 0.16 
0.50 -8.86 -1.53 0.16 
0.34 -8.86 -1.53 0.16 
0.17 -8.86 -1.53 0.16 
-0.00 -8.86 -1.53 0.16 
-0.17 -8.85 -1.53 0.16 
-0.34 -8.85 -1.53 0.16 
-0.50 -8.83 -1.53 0.16 
-0.67 -8.82 -1.53 0.16 
-0.84 -8.80 -1.53 0.16 
-1.00 -8.78 -1.53 0.16 
-1.17 -8.75 -1.52 0.16 
-1.33 -8.73 -1.52 0.16 
-1.50 -8.70 -1.52 0.16 
-1.66 -8.66 -1.52 0.16 
-1.82 -8.62 -1.52 0.16 
-1.98 -8.58 -1.52 0.16 
-2.14 -8.54 -1.52 0.16 
-2.31 -8.50 -1.52 0.16 
-2.46 -8.45 -1.52 0.17 
-2.62 -8.39 -1.52 0.17 
-2.78 -8.34 -1.52 0.17 
-2.94 -8.28 -1.52 0.17 
-3.09 -8.22 -1.52 0.17 
-3.24 -8.16 -1.52 0.17 
-3.40 -8.09 -1.51 0.17 
-3.55 -8.02 -1.51 0.17 
-3.70 -7.95 -1.51 0.17 
-3.85 -7.88 -1.51 0.17 
-4.02 -7.85 -1.52 0.85 
-4.21 -7.85 -1.54 0.84 
-4.40 -7.85 -1.55 0.83 
-4.60 -7.85 -1.57 0.82 
-4.80 -7.86 -1.59 0.81 
-5.01 -7.86 -1.61 0.80 
-5.23 -7.86 -1.63 0.79 
-5.44 -7.86 -1.65 0.18 
-5.60 -7.76 -1.65 0.18 
-5.75 -7.66 -1.65 0.18 
-5.89 -7.56 -1.65 0.18 
-6.04 -7.45 -1.66 0.18 
-6.18 -7.33 -1.66 0.17 
-6.31 -7.21 -1.65 0.17 
-6.45 -7.09 -1.65 0.17 
-6.58 -6.96 -1.65 0.17 
-6.71 -6.83 -1.65 0.17 
-6.83 -6.70 -1.65 0.17 
-6.95 -6.57 -1.65 0.17 
-7.08 -6.44 -1.65 0.17 
-7.19 -6.30 -1.65 0.17 
-7.31 -6.16 -1.65 0.17 
-7.42 -6.02 -1.65 0.17 
-7.53 -5.87 -1.65 0.17 
-7.64 -5.73 -1.65 0.17 
-7.74 -5.58 -1.65 0.17 
-7.85 -5.43 -1.65 0.17 
-7.95 -5.28 -1.65 0.17 
-8.04 -5.13 -1.65 0.17 
-8.14 -4.97 -1.65 0.17 
-8.23 -4.82 -1.65 0.17 
-8.31 -4.66 -1.65 0.17 
-8.40 -4.50 -1.64 0.17 
-8.48 -4.34 -1.64 0.17 
-8.56 -4.18 -1.64 0.17 
-8.63 -4.01 -1.64 0.17 
-8.71 -3.85 -1.64 0.17 
-8.78 -3.68 -1.64 0.17 
-8.84 -3.52 -1.64 0.17 
-8.91 -3.35 -1.64 0.17 
-8.97 -3.18 -1.64 0.17 
-9.02 -3.01 -1.64 0.17 
-9.08 -2.84 -1.64 0.17 
-9.13 -2.66 -1.64 0.17 
-9.17 -2.49 -1.64 0.17 
-1.20 -0.30 -0.21 0.15 
-1.21 -0.28 -0.21 0.15 
-1.21 -0.26 -0.21 0.15 
-1.22 -0.23 -0.21 0.15 
-1.22 -0.21 -0.21 0.15 
-1.22 -0.19 -0.21 0.17 
-1.22 -0.16 -0.21 0.17 
-1.22 -0.14 -0.21 0.17 
-1.22 -0.12 -0.21 0.18 
-1.22 -0.09 -0.21 0.18 
-1.22 -0.07 -0.21 0.18 
-1.22 -0.05 -0.21 0.18 
-1.21 -0.02 -0.21 0.18 
-1.20 -0.00 -0.21 0.18 
-1.20 0.02 -0.21 0.18 
-1.19 0.05 -0.21 0.18 
-1.19 0.07 -0.21 0.18 
-1.19 0.09 -0.21 0.18 
-1.19 0.11 -0.21 0.18 
-1.19 0.14 -0.21 0.18 
-1.20 0.16 -0.21 0.18 
-1.20 0.18 -0.21 0.17 
-1.20 0.21 -0.21 0.17 
-1.20 0.23 -0.21 0.17 
-1.19 0.25 -0.21 0.17 
-1.19 0.28 -0.21 0.17 
-1.19 0.30 -0.21 0.15 
-1.18 0.32 -0.21 0.15 
-1.18 0.34 -0.21 0.15 
-1.17 0.37 -0.21 0.15 
-1.16 0.39 -0.21 0.15 
-1.15 0.41 -0.21 0.15 
-1.14 0.43 -0.21 0.15 
-8.77 3.49 -1.64 0.17 
-8.70 3.65 -1.64 0.17 
-8.64 3.82 -1.64 0.17 
-8.56 3.98 -1.64 0.17 
-8.49 4.14 -1.64 0.17 
-8.41 4.30 -1.64 0.17 
-8.33 4.46 -1.64 0.17 
-8.24 4.62 -1.64 0.17 
-8.16 4.78 -1.64 0.17 
-8.07 4.93 -1.64 0.17 
-4.31 2.75 -0.89 0.53 
-4.15 2.76 -0.87 0.62 
-3.99 2.77 -0.84 0.59 
-3.86 2.78 -0.83 0.62 
-3.72 2.79 -0.81 0.64 
-3.59 2.80 -0.79 0.65 
-3.47 2.81 -0.78 0.71 
-3.36 2.83 -0.76 0.74 
-3.26 2.85 -0.75 0.77 
-3.16 2.88 -0.74 0.78 
-3.07 2.90 -0.73 0.82 
-2.98 2.93 -0.73 0.83 
-2.91 2.97 -0.72 0.92 
-2.85 3.02 -0.72 0.85 
-2.83 3.11 -0.73 0.72 
-2.80 3.20 -0.74 0.62 
-2.79 3.30 -0.75 0.71 
-2.76 3.41 -0.76 0.44 
-2.78 3.56 -0.79 0.50 
-2.85 3.80 -0.83 0.32 
-5.56 7.72 -1.65 0.17 
-5.42 7.82 -1.65 0.17 
-5.27 7.93 -1.65 0.17 
-5.12 8.03 -1.66 0.17 
-4.97 8.13 -1.66 0.17 
-4.82 8.22 -1.66 0.17 
-4.66 8.31 -1.66 0.17 
-4.50 8.40 -1.66 0.17 
-4.35 8.49 -1.66 0.17 
-4.19 8.58 -1.66 0.17 
-4.03 8.66 -1.66 0.17 
-3.86 8.73 -1.66 0.17 
-3.70 8.81 -1.66 0.17 
-3.53 8.88 -1.66 0.17 
-3.36 8.95 -1.66 0.17 
-3.20 9.02 -1.66 0.17 
-3.03 9.08 -1.66 0.17 
-2.86 9.14 -1.66 0.17 
-2.68 9.20 -1.67 0.17 
-2.51 9.25 -1.67 0.17 
-2.34 9.30 -1.67 0.17 
-2.16 9.35 -1.67 0.17 
-1.98 9.39 -1.67 0.17 
-1.81 9.43 -1.67 0.17 
-1.63 9.47 -1.67 0.17 
-1.45 9.50 -1.67 0.17 
-1.27 9.53 -1.67 0.17 
-1.09 9.56 -1.67 0.17 
-0.91 9.58 -1.67 0.17 
-0.47 6.24 -1.09 0.17 
-0.34 6.01 -1.05 0.58 
-0.23 5.95 -1.04 0.93 
-0.11 5.95 -1.03 0.96 
0.00 5.95 -1.03 0.96 
0.11 5.95 -1.04 0.96 
0.23 5.96 -1.04 0.96 
0.34 5.96 -1.04 0.96 
0.45 5.96 -1.04 0.96 
0.57 6.00 -1.05 0.95 
0.68 6.00 -1.05 0.95 
0.80 6.00 -1.05 0.96 
0.92 6.01 -1.06 0.95 
1.03 6.01 -1.06 0.95 
1.15 6.02 -1.07 0.94 
1.27 6.02 -1.07 0.94 
1.39 6.03 -1.08 0.93 
1.52 6.04 -1.08 0.93 
1.64 6.04 -1.09 0.92 
1.77 6.05 -1.10 0.92 
1.89 6.06 -1.10 0.91 
2.02 6.07 -1.11 0.90 
2.15 6.07 -1.12 0.90 
2.28 6.08 -1.13 0.89 
2.42 6.08 -1.14 0.89 
2.56 6.09 -1.15 0.87 
2.70 6.10 -1.16 0.87 
2.84 6.10 -1.17 0.89 
2.98 6.10 -1.18 0.81 
3.09 6.04 -1.18 0.84 
3.24 6.04 -1.19 0.83 
3.39 6.04 -1.20 0.82 
3.54 6.05 -1.22 0.81 
3.70 6.05 -1.23 0.80 
3.88 6.09 -1.26 0.70 
4.08 6.14 -1.28 0.28 
5.57 8.04 -1.70 0.16 
5.72 7.94 -1.70 0.16 
5.87 7.83 -1.70 0.16 
6.02 7.72 -1.70 0.16 
6.17 7.61 -1.70 0.16 
6.32 7.50 -1.70 0.16 
6.46 7.38 -1.70 0.16 
6.60 7.26 -1.71 0.16 
6.74 7.13 -1.71 0.16 
6.88 7.01 -1.71 0.16 
7.01 6.88 -1.71 0.16 
7.14 6.75 -1.71 0.16 
7.27 6.61 -1.71 0.16 
7.40 6.48 -1.71 0.16 
7.52 6.34 -1.71 0.16 
7.64 6.20 -1.71 0.16 
7.76 6.05 -1.71 0.16 
7.87 5.91 -1.71 0.16 
7.99 5.76 -1.71 0.16 
8.10 5.61 -1.71 0.16 
8.20 5.45 -1.71 0.16 
8.31 5.30 -1.71 0.16 
8.41 5.14 -1.71 0.16 
8.51 4.98 -1.71 0.16 
8.60 4.82 -1.71 0.16 
8.69 4.66 -1.72 0.16 
8.78 4.50 -1.72 0.16 
8.87 4.33 -1.72 0.16 
8.95 4.16 -1.72 0.16 
9.03 3.99 -1.72 0.16 
9.11 3.82 -1.72 0.16 
9.18 3.65 -1.72 0.16 
9.25 3.48 -1.72 0.16 
9.31 3.30 -1.72 0.16 
9.38 3.13 -1.72 0.16 
9.44 2.95 -1.72 0.16 
9.49 2.77 -1.72 0.16 
9.54 2.59 -1.72 0.16 
9.59 2.41 -1.72 0.16 
9.64 2.23 -1.72 0.16 
9.68 2.04 -1.72 0.16 
9.72 1.86 -1.72 0.16 
9.75 1.68 -1.72 0.16 
9.78 1.49 -1.72 0.16 
9.81 1.31 -1.72 0.16 
9.84 1.12 -1.72 0.16 
9.86 0.94 -1.72 0.16 
9.87 0.75 -1.72 0.16 
9.89 0.56 -1.72 0.16 
9.89 0.37 -1.72 0.16 
9.90 0.19 -1.72 0.16 
9.90 -0.00 -1.72 0.16 
9.90 -0.19 -1.72 0.16 
9.90 -0.37 -1.72 0.16 
9.89 -0.56 -1.72 0.16 
9.87 -0.75 -1.72 0.16 
9.86 -0.94 -1.72 0.16 
9.84 -1.12 -1.72 0.16 
9.82 -1.31 -1.72 0.16 
9.79 -1.49 -1.72 0.16 
9.76 -1.68 -1.72 0.16 
9.72 -1.86 -1.72 0.16 
9.69 -2.05 -1.72 0.16 
9.65 -2.23 -1.72 0.16 
9.60 -2.41 -1.72 0.16 
9.55 -2.59 -1.72 0.16 
9.50 -2.77 -1.72 0.16 
9.45 -2.95 -1.72 0.16 
9.39 -3.13 -1.72 0.16 
9.33 -3.31 -1.72 0.16 
9.26 -3.48 -1.72 0.16 
9.19 -3.66 -1.72 0.16 
9.12 -3.83 -1.72 0.16 
9.04 -4.00 -1.72 0.16 
8.96 -4.17 -1.72 0.16 
6.26 -3.06 -1.21 0.34 
6.04 -3.09 -1.18 0.43 
5.78 -3.10 -1.14 0.46 
5.53 -3.10 -1.10 0.51 
5.31 -3.11 -1.07 0.53 
5.13 -3.13 -1.04 0.61 
4.95 -3.16 -1.02 0.64 
4.81 -3.20 -1.00 0.75 
4.71 -3.26 -1.00 0.88 
4.64 -3.34 -0.99 0.92 
4.60 -3.45 -1.00 0.86 
4.58 -3.57 -1.01 0.80 
4.56 -3.70 -1.02 0.79 
4.56 -3.84 -1.04 0.75 
7.41 -6.49 -1.71 0.16 
7.29 -6.63 -1.71 0.16 
7.16 -6.76 -1.71 0.16 
7.03 -6.89 -1.71 0.16 
6.89 -7.02 -1.71 0.16 
6.76 -7.15 -1.71 0.16 
6.62 -7.27 -1.71 0.16 
6.47 -7.39 -1.71 0.17 
6.32 -7.50 -1.71 0.17 
6.17 -7.61 -1.70 0.17 
6.01 -7.71 -1.70 0.17 
5.79 -7.72 -1.68 0.73 
5.56 -7.71 -1.65 0.74 
5.33 -7.70 -1.63 0.75 
5.11 -7.68 -1.60 0.77 
4.90 -7.68 -1.58 0.80 
4.69 -7.67 -1.56 0.81 
4.50 -7.68 -1.55 0.16 
4.35 -7.77 -1.55 0.16 
4.20 -7.84 -1.55 0.16 
4.05 -7.92 -1.55 0.16 
3.90 -7.99 -1.55 0.16 
3.75 -8.06 -1.55 0.16 
3.59 -8.13 -1.54 0.16 
3.44 -8.19 -1.54 0.16 
3.28 -8.25 -1.54 0.16 
3.12 -8.31 -1.54 0.16 
2.96 -8.36 -1.54 0.16 
2.80 -8.41 -1.54 0.16 
2.64 -8.46 -1.54 0.16 
2.48 -8.50 -1.54 0.16 
2.32 -8.54 -1.54 0.16 
2.16 -8.58 -1.54 0.16 
1.99 -8.62 -1.54 0.16 
1.83 -8.65 -1.54 0.16 
1.66 -8.68 -1.54 0.16 
1.50 -8.71 -1.54 0.16 
1.33 -8.73 -1.54 0.16 
1.17 -8.75 -1.53 0.16 
1.00 -8.77 -1.53 0.16 
0.83 -8.78 -1.53 0.16 
0.67 -8.79 -1.53 0.16 
0.50 -8.80 -1.53 0.16 
0.33 -8.80 -1.53 0.16 
0.17 -8.80 -1.53 0.16 
0.00 -8.80 -1.53 0.17 
-0.17 -8.79 -1.53 0.17 
-0.33 -8.78 -1.53 0.17 
-0.50 -8.77 -1.53 0.17 
-0.66 -8.76 -1.53 0.17 
-0.83 -8.74 -1.53 0.17 
-0.99 -8.72 -1.53 0.17 
-1.16 -8.69 -1.52 0.17 
-1.32 -8.66 -1.52 0.17 
-1.49 -8.63 -1.52 0.17 
-1.65 -8.60 -1.52 0.17 
-1.81 -8.56 -1.52 0.17 
-1.97 -8.52 -1.52 0.17 
-2.13 -8.48 -1.52 0.17 
-2.29 -8.44 -1.52 0.17 
-2.45 -8.39 -1.52 0.17 
-2.60 -8.34 -1.52 0.17 
-2.76 -8.28 -1.52 0.17 
-2.92 -8.22 -1.52 0.17 
-3.07 -8.16 -1.52 0.17 
-3.22 -8.10 -1.52 0.17 
-3.37 -8.03 -1.51 0.17 
-3.52 -7.97 -1.51 0.17 
-3.67 -7.89 -1.51 0.17 
-3.83 -7.84 -1.52 0.71 
-4.02 -7.84 -1.53 0.85 
-4.21 -7.85 -1.55 0.84 
-4.40 -7.85 -1.56 0.83 
-4.60 -7.85 -1.58 0.82 
-4.80 -7.86 -1.60 0.81 
-5.01 -7.86 -1.62 0.80 
-5.23 -7.86 -1.64 0.79 
-5.41 -7.81 -1.65 0.18 
-5.56 -7.71 -1.65 0.18 
