VERSION 0.7
FIELDS x y z intensity
SIZE 4 4 4 8
TYPE F F F F
COUNT 1 1 1 1
WIDTH 1993
HEIGHT 1
VIEWPOINT 0.0 0.0 0.0 1.0 0.0 0.0 0.0
POINTS 1993
DATA ascii
-20.57 11.53 7.61 0.79 
-25.19 18.89 10.15 0.81 
-24.94 19.45 10.20 0.78 
-24.74 20.06 10.27 0.81 
-8.89 10.16 4.35 0.52 
-8.96 10.63 4.48 0.52 
-9.21 12.28 4.95 0.43 
-7.78 13.28 4.96 0.49 
-7.46 13.31 4.92 0.87 
-18.28 72.78 24.20 0.67 
-14.12 73.70 24.20 0.67 
8.29 12.48 4.83 0.37 
8.24 11.90 4.67 0.45 
8.20 11.37 4.52 0.55 
8.16 10.88 4.39 0.53 
8.06 10.34 4.23 0.44 
11.76 11.98 5.41 0.89 
25.20 7.35 8.47 0.83 
38.24 -0.72 12.34 0.55 
40.39 -3.06 13.07 0.67 
41.59 -3.95 13.47 0.76 
43.69 -5.82 14.22 0.79 
49.60 -23.06 17.64 0.68 
16.56 -8.48 6.00 0.60 
16.44 -8.81 6.02 0.56 
15.03 -20.05 8.08 0.84 
24.73 -38.77 14.83 0.72 
21.95 -35.89 13.57 0.60 
21.33 -36.41 13.61 0.26 
22.39 -39.93 14.76 0.71 
19.73 -36.81 13.47 0.83 
1.41 -8.18 2.68 0.85 
-20.57 11.53 7.57 0.79 
-25.19 18.89 10.11 0.81 
-24.94 19.45 10.16 0.79 
-24.74 20.06 10.23 0.81 
-8.89 10.16 4.34 0.52 
-8.95 10.63 4.46 0.52 
-9.21 12.29 4.93 0.43 
-7.78 13.28 4.94 0.49 
-7.46 13.31 4.90 0.87 
-18.27 72.77 24.10 0.67 
-16.88 73.06 24.09 0.68 
-16.33 77.30 25.38 0.68 
-14.11 73.69 24.10 0.67 
8.29 12.48 4.81 0.37 
8.24 11.90 4.65 0.46 
8.20 11.37 4.50 0.55 
8.16 10.88 4.37 0.53 
8.06 10.34 4.21 0.44 
11.76 11.98 5.39 0.89 
25.20 7.35 8.43 0.83 
38.89 -0.74 12.49 0.27 
40.39 -3.06 13.01 0.68 
41.59 -3.95 13.42 0.76 
43.73 -5.83 14.17 0.79 
49.64 -23.09 17.59 0.68 
16.55 -8.47 5.97 0.61 
16.43 -8.81 5.99 0.69 
16.40 -9.20 6.04 0.70 
15.03 -20.05 8.05 0.84 
24.75 -38.80 14.78 0.72 
21.94 -35.88 13.51 0.60 
21.33 -36.41 13.55 0.26 
22.40 -39.96 14.72 0.71 
19.74 -36.82 13.42 0.83 
1.41 -8.18 2.66 0.85 
-20.56 11.53 7.54 0.79 
-25.19 18.89 10.07 0.80 
-24.95 19.46 10.12 0.79 
-24.74 20.06 10.19 0.81 
-8.89 10.16 4.32 0.52 
-8.95 10.62 4.44 0.52 
-9.21 12.29 4.91 0.43 
-7.78 13.28 4.92 0.49 
-7.46 13.30 4.88 0.87 
-18.27 72.76 24.00 0.67 
-16.88 73.06 23.99 0.68 
-15.50 73.36 23.99 0.68 
-14.11 73.68 24.00 0.67 
8.29 12.48 4.79 0.37 
8.24 11.90 4.63 0.46 
8.20 11.37 4.48 0.55 
8.16 10.88 4.35 0.53 
8.07 10.34 4.20 0.47 
11.76 11.98 5.37 0.89 
25.20 7.35 8.40 0.83 
40.39 -3.06 12.96 0.68 
41.60 -3.95 13.37 0.76 
43.76 -5.83 14.12 0.79 
49.69 -23.11 17.53 0.68 
48.24 -23.55 17.17 0.48 
16.56 -8.48 5.95 0.69 
16.46 -8.82 5.97 0.69 
16.41 -9.20 6.02 0.60 
16.25 -9.52 6.02 0.70 
15.03 -20.05 8.02 0.84 
24.77 -38.84 14.74 0.72 
21.93 -35.86 13.45 0.60 
21.33 -36.41 13.50 0.26 
22.42 -39.99 14.67 0.71 
19.74 -36.83 13.37 0.83 
1.41 -8.18 2.65 0.85 
-20.56 11.53 7.51 0.79 
-25.18 18.89 10.03 0.80 
-24.95 19.46 10.08 0.79 
-24.75 20.07 10.15 0.81 
-8.89 10.16 4.30 0.52 
-8.95 10.62 4.42 0.52 
-9.22 12.29 4.89 0.43 
-9.27 12.86 5.05 0.26 
-7.78 13.27 4.90 0.49 
-7.46 13.30 4.86 0.87 
-18.27 72.75 23.90 0.67 
-17.79 76.98 25.17 0.68 
-15.50 73.35 23.89 0.68 
-14.11 73.67 23.90 0.67 
8.29 12.48 4.77 0.37 
8.24 11.90 4.61 0.46 
8.20 11.37 4.47 0.55 
8.16 10.88 4.33 0.53 
8.07 10.35 4.18 0.47 
11.76 11.98 5.35 0.89 
25.21 7.35 8.36 0.84 
43.27 -0.82 13.79 0.31 
40.40 -3.06 12.91 0.68 
41.60 -3.95 13.31 0.76 
43.79 -5.84 14.07 0.79 
49.74 -23.13 17.48 0.68 
48.31 -23.59 17.13 0.48 
16.58 -8.49 5.94 0.68 
16.48 -8.83 5.96 0.69 
16.25 -9.52 6.00 0.92 
15.03 -20.04 7.98 0.85 
24.80 -38.88 14.69 0.72 
21.92 -35.84 13.38 0.60 
21.33 -36.41 13.44 0.26 
22.44 -40.02 14.62 0.71 
19.75 -36.84 13.32 0.83 
1.41 -8.18 2.64 0.85 
-20.56 11.53 7.48 0.79 
-25.18 18.89 9.99 0.80 
-24.95 19.46 10.04 0.79 
-24.75 20.07 10.11 0.81 
-8.89 10.16 4.28 0.52 
-8.95 10.62 4.40 0.55 
-9.22 12.29 4.87 0.43 
-9.26 12.85 5.03 0.80 
-7.77 13.27 4.88 0.49 
-7.46 13.30 4.84 0.88 
-18.27 72.74 23.79 0.67 
-17.82 77.12 25.11 0.21 
-16.36 77.45 25.11 0.21 
-14.11 73.66 23.79 0.67 
8.29 12.48 4.75 0.37 
8.24 11.90 4.59 0.46 
8.20 11.37 4.45 0.55 
8.16 10.88 4.31 0.53 
8.07 10.35 4.16 0.47 
11.76 11.98 5.33 0.89 
25.21 7.35 8.33 0.84 
43.23 -0.82 13.72 0.31 
40.40 -3.06 12.85 0.68 
41.60 -3.95 13.26 0.76 
43.82 -5.84 14.03 0.77 
49.78 -23.15 17.42 0.61 
48.37 -23.62 17.08 0.48 
16.61 -8.50 5.92 0.72 
16.50 -8.85 5.94 0.35 
16.09 -9.84 5.98 0.92 
15.03 -20.04 7.95 0.85 
21.91 -35.83 13.32 0.60 
21.33 -36.41 13.39 0.26 
22.45 -40.05 14.57 0.71 
19.75 -36.85 13.27 0.83 
1.41 -8.18 2.63 0.85 
-20.56 11.53 7.45 0.79 
-25.18 18.88 9.94 0.80 
-24.95 19.46 10.00 0.79 
-24.75 20.07 10.07 0.81 
-8.89 10.16 4.26 0.52 
-8.94 10.61 4.39 0.40 
-9.22 12.29 4.86 0.43 
-9.26 12.85 5.01 0.48 
-7.77 13.27 4.86 0.50 
-7.46 13.30 4.82 0.88 
-18.26 72.73 23.69 0.67 
-14.11 73.65 23.69 0.67 
8.29 12.48 4.73 0.37 
8.24 11.90 4.57 0.46 
8.20 11.37 4.43 0.55 
8.16 10.88 4.30 0.53 
8.07 10.35 4.15 0.47 
11.76 11.98 5.30 0.89 
25.21 7.35 8.30 0.84 
43.18 -0.82 13.65 0.28 
40.40 -3.06 12.80 0.68 
41.61 -3.95 13.20 0.76 
43.86 -5.84 13.98 0.76 
49.80 -23.16 17.35 0.61 
48.44 -23.65 17.03 0.48 
16.72 -8.56 5.93 0.38 
16.55 -8.87 5.93 0.25 
48.25 -27.05 17.48 0.21 
16.11 -9.85 5.96 0.60 
15.03 -20.04 7.92 0.85 
21.90 -35.81 13.26 0.60 
21.33 -36.42 13.33 0.26 
22.47 -40.08 14.52 0.71 
19.76 -36.86 13.21 0.83 
1.41 -8.18 2.62 0.85 
-20.56 11.53 7.42 0.79 
-25.18 18.88 9.90 0.81 
-24.96 19.46 9.96 0.79 
-24.75 20.07 10.02 0.81 
-8.89 10.16 4.25 0.52 
-8.94 10.61 4.36 0.40 
-9.22 12.30 4.84 0.43 
-9.27 12.87 4.99 0.41 
-7.77 13.27 4.84 0.50 
-7.46 13.30 4.80 0.88 
-18.26 72.72 23.59 0.67 
-14.10 73.64 23.59 0.67 
8.29 12.47 4.71 0.37 
8.24 11.90 4.55 0.46 
8.20 11.37 4.41 0.55 
8.16 10.88 4.28 0.53 
8.08 10.35 4.13 0.47 
11.76 11.98 5.28 0.89 
25.21 7.36 8.26 0.84 
43.13 -0.82 13.57 0.30 
40.40 -3.06 12.75 0.68 
41.61 -3.95 13.15 0.76 
49.83 -23.17 17.29 0.61 
48.50 -23.68 16.98 0.48 
16.73 -8.57 5.91 0.45 
16.63 -8.92 5.94 0.16 
48.11 -26.97 17.35 0.32 
15.94 -10.17 5.95 0.69 
15.03 -20.04 7.88 0.85 
21.89 -35.79 13.20 0.60 
21.33 -36.42 13.28 0.26 
22.49 -40.11 14.47 0.71 
19.76 -36.87 13.16 0.83 
1.41 -8.18 2.61 0.85 
-20.56 11.53 7.39 0.79 
-25.18 18.88 9.86 0.81 
-24.96 19.47 9.92 0.79 
-24.75 20.07 9.98 0.81 
-8.89 10.16 4.23 0.52 
-8.93 10.60 4.34 0.40 
-9.22 12.30 4.82 0.43 
-7.77 13.27 4.82 0.50 
-7.46 13.30 4.78 0.88 
-18.26 72.71 23.49 0.67 
-14.10 73.63 23.49 0.67 
8.29 12.47 4.69 0.37 
8.24 11.90 4.53 0.46 
8.20 11.37 4.39 0.55 
8.16 10.88 4.26 0.53 
8.08 10.36 4.12 0.47 
11.76 11.98 5.26 0.89 
25.21 7.36 8.23 0.84 
43.09 -0.82 13.50 0.30 
40.40 -3.06 12.70 0.68 
41.61 -3.95 13.10 0.76 
49.75 -20.88 16.91 0.51 
50.10 -22.16 17.16 0.55 
49.85 -23.18 17.23 0.61 
48.57 -23.71 16.93 0.48 
16.84 -8.62 5.93 0.91 
48.01 -25.74 17.07 0.51 
47.97 -26.89 17.23 0.27 
15.94 -10.16 5.92 0.92 
15.03 -20.04 7.85 0.85 
21.88 -35.78 13.14 0.60 
21.33 -36.42 13.23 0.26 
22.51 -40.14 14.42 0.71 
19.77 -36.88 13.11 0.83 
1.41 -8.18 2.60 0.85 
-56.16 -126.99 43.51 0.03 
-20.56 11.53 7.35 0.79 
-25.18 18.88 9.82 0.81 
-24.96 19.47 9.88 0.79 
-24.75 20.07 9.94 0.81 
-8.89 10.16 4.21 0.49 
-8.93 10.60 4.32 0.52 
-9.22 12.30 4.80 0.42 
-7.77 13.26 4.80 0.50 
-7.46 13.30 4.76 0.88 
-18.26 72.70 23.39 0.67 
-14.10 73.62 23.39 0.67 
8.29 12.47 4.67 0.37 
8.24 11.90 4.51 0.46 
8.20 11.37 4.37 0.55 
8.16 10.88 4.24 0.53 
8.08 10.36 4.10 0.47 
11.76 11.98 5.24 0.89 
25.21 7.36 8.19 0.84 
43.06 -0.81 13.44 0.34 
40.40 -3.06 12.64 0.68 
41.61 -3.95 13.04 0.76 
49.71 -20.87 16.82 0.51 
50.04 -22.13 17.07 0.28 
49.87 -23.19 17.16 0.61 
48.63 -23.75 16.89 0.48 
16.85 -8.62 5.91 0.91 
48.06 -25.76 17.01 0.51 
48.61 -27.26 17.39 0.70 
15.95 -10.18 5.90 0.60 
15.03 -20.04 7.82 0.84 
21.87 -35.76 13.08 0.60 
21.34 -36.42 13.17 0.26 
22.52 -40.17 14.37 0.71 
19.77 -36.88 13.06 0.83 
1.41 -8.18 2.59 0.85 
-53.68 -127.87 43.27 0.17 
-56.01 -126.66 43.21 0.36 
-20.56 11.53 7.32 0.79 
-25.18 18.88 9.78 0.82 
-24.96 19.47 9.84 0.77 
-24.75 20.07 9.90 0.81 
-8.89 10.15 4.19 0.52 
-8.93 10.59 4.30 0.52 
-9.22 12.30 4.78 0.42 
-7.77 13.26 4.78 0.50 
-7.46 13.30 4.74 0.88 
-18.25 72.69 23.29 0.67 
-14.10 73.60 23.29 0.67 
8.29 12.47 4.65 0.37 
8.24 11.90 4.50 0.46 
8.20 11.37 4.35 0.55 
8.16 10.88 4.22 0.53 
8.08 10.36 4.08 0.47 
11.76 11.98 5.22 0.90 
25.21 7.36 8.16 0.84 
43.51 -0.82 13.52 0.41 
40.41 -3.06 12.59 0.68 
41.62 -3.95 12.99 0.76 
49.67 -20.85 16.74 0.46 
49.94 -22.09 16.97 0.28 
49.89 -23.20 17.10 0.61 
48.70 -23.78 16.84 0.48 
49.05 -25.11 17.12 0.32 
48.11 -25.79 16.96 0.51 
48.66 -27.28 17.33 0.70 
15.03 -20.04 7.78 0.84 
21.86 -35.74 13.02 0.60 
21.34 -36.42 13.12 0.26 
22.54 -40.20 14.32 0.53 
19.78 -36.89 13.01 0.83 
1.41 -8.18 2.58 0.85 
-53.71 -127.96 43.12 0.39 
-56.01 -126.66 43.03 0.36 
-20.56 11.52 7.29 0.79 
-25.18 18.88 9.74 0.82 
-24.96 19.47 9.79 0.82 
-24.75 20.07 9.86 0.81 
-8.89 10.15 4.17 0.43 
-8.92 10.59 4.29 0.52 
-9.22 12.30 4.76 0.42 
-7.77 13.26 4.75 0.50 
-7.46 13.30 4.72 0.88 
-18.25 72.68 23.18 0.67 
-14.10 73.59 23.18 0.67 
8.29 12.47 4.63 0.37 
8.24 11.90 4.48 0.46 
8.20 11.37 4.34 0.55 
8.16 10.88 4.21 0.51 
8.08 10.36 4.07 0.44 
11.76 11.98 5.20 0.90 
25.22 7.36 8.13 0.84 
43.61 -0.83 13.50 0.41 
40.41 -3.06 12.54 0.68 
41.62 -3.95 12.94 0.76 
49.61 -20.83 16.65 0.46 
49.86 -22.05 16.87 0.33 
49.92 -23.21 17.03 0.61 
48.77 -23.81 16.79 0.48 
49.10 -25.14 17.07 0.69 
48.15 -25.81 16.90 0.51 
15.03 -20.04 7.75 0.84 
21.85 -35.73 12.96 0.60 
21.34 -36.43 13.06 0.26 
22.56 -40.23 14.27 0.53 
19.78 -36.90 12.95 0.83 
1.41 -8.18 2.57 0.85 
-53.71 -127.96 42.94 0.39 
-56.01 -126.66 42.85 0.36 
-20.56 11.52 7.26 0.79 
-25.18 18.88 9.70 0.82 
-24.97 19.47 9.75 0.82 
-24.75 20.07 9.82 0.81 
-8.89 10.15 4.16 0.43 
-8.92 10.59 4.27 0.52 
-9.23 12.30 4.74 0.42 
-7.77 13.26 4.73 0.50 
-7.45 13.30 4.70 0.88 
-18.25 72.67 23.08 0.67 
-14.09 73.58 23.08 0.67 
8.29 12.47 4.61 0.37 
8.24 11.90 4.46 0.46 
8.20 11.37 4.32 0.55 
8.16 10.88 4.19 0.51 
8.09 10.37 4.05 0.44 
11.76 11.99 5.17 0.90 
25.22 7.36 8.09 0.84 
43.71 -0.83 13.47 0.40 
40.41 -3.06 12.49 0.68 
41.62 -3.95 12.88 0.76 
49.55 -20.80 16.56 0.47 
49.79 -22.02 16.77 0.32 
49.94 -23.22 16.97 0.61 
48.83 -23.84 16.74 0.48 
49.13 -25.15 17.01 0.69 
48.20 -25.84 16.85 0.50 
15.02 -20.03 7.72 0.84 
21.84 -35.71 12.90 0.60 
21.34 -36.43 13.01 0.26 
22.57 -40.26 14.22 0.53 
19.79 -36.91 12.90 0.83 
1.41 -8.18 2.56 0.86 
-53.71 -127.96 42.75 0.39 
-56.01 -126.66 42.67 0.36 
-20.55 11.52 7.23 0.79 
-25.18 18.88 9.66 0.82 
-24.97 19.47 9.71 0.82 
-24.75 20.07 9.77 0.81 
-8.89 10.15 4.14 0.43 
-8.92 10.58 4.25 0.52 
-9.23 12.30 4.72 0.42 
-7.77 13.26 4.71 0.50 
-7.45 13.30 4.68 0.88 
-18.25 72.66 22.98 0.67 
-14.09 73.57 22.98 0.67 
8.29 12.47 4.59 0.37 
8.24 11.90 4.44 0.46 
8.20 11.37 4.30 0.55 
8.15 10.87 4.17 0.51 
8.09 10.37 4.03 0.44 
11.76 11.99 5.15 0.90 
25.22 7.36 8.06 0.84 
40.41 -3.07 12.43 0.68 
41.63 -3.95 12.83 0.76 
49.50 -20.78 16.47 0.47 
49.72 -21.99 16.68 0.32 
49.96 -23.23 16.90 0.61 
48.90 -23.87 16.69 0.48 
49.16 -25.17 16.94 0.69 
49.35 -26.46 17.18 0.73 
15.02 -20.03 7.68 0.84 
21.83 -35.70 12.84 0.60 
21.34 -36.43 12.95 0.26 
22.59 -40.29 14.17 0.53 
1.41 -8.18 2.54 0.86 
-53.71 -127.96 42.57 0.39 
-56.01 -126.66 42.49 0.36 
-20.55 11.52 7.20 0.79 
-25.18 18.88 9.61 0.82 
-24.97 19.48 9.67 0.82 
-24.75 20.07 9.73 0.81 
-8.88 10.15 4.12 0.43 
-8.92 10.58 4.23 0.55 
-9.23 12.30 4.70 0.42 
-7.76 13.26 4.69 0.50 
-7.45 13.30 4.66 0.88 
-18.25 72.68 22.89 0.02 
-14.09 73.56 22.88 0.67 
8.29 12.47 4.57 0.37 
8.24 11.90 4.42 0.46 
8.20 11.37 4.28 0.55 
8.15 10.87 4.15 0.51 
8.09 10.37 4.02 0.43 
11.76 11.99 5.13 0.90 
25.22 7.36 8.03 0.84 
40.41 -3.07 12.38 0.68 
41.63 -3.95 12.77 0.76 
49.45 -20.76 16.38 0.48 
49.65 -21.96 16.58 0.32 
49.98 -23.24 16.84 0.61 
49.01 -23.93 16.66 0.08 
49.19 -25.18 16.88 0.69 
49.39 -26.48 17.12 0.73 
15.78 -10.49 5.79 0.67 
15.02 -20.03 7.65 0.85 
21.82 -35.68 12.78 0.60 
21.34 -36.43 12.90 0.26 
22.60 -40.31 14.12 0.53 
1.41 -8.18 2.53 0.86 
-53.71 -127.96 42.39 0.39 
-56.01 -126.66 42.30 0.36 
-20.55 11.52 7.17 0.79 
-25.18 18.88 9.57 0.82 
-24.98 19.48 9.63 0.82 
-24.75 20.07 9.69 0.81 
-8.88 10.14 4.10 0.43 
-8.91 10.58 4.21 0.57 
-9.23 12.30 4.68 0.42 
-7.76 13.25 4.67 0.50 
-7.45 13.29 4.64 0.88 
-19.01 75.72 23.75 0.70 
-14.09 73.55 22.78 0.67 
8.29 12.47 4.55 0.37 
8.24 11.90 4.40 0.45 
8.20 11.37 4.26 0.55 
8.15 10.87 4.13 0.51 
8.09 10.37 4.00 0.43 
11.76 11.99 5.11 0.90 
25.22 7.36 7.99 0.84 
40.41 -3.07 12.33 0.68 
41.63 -3.95 12.72 0.76 
50.49 -22.33 16.79 0.64 
50.01 -23.25 16.77 0.61 
49.27 -24.05 16.68 0.08 
49.22 -25.20 16.82 0.69 
49.44 -26.50 17.06 0.73 
15.78 -10.49 5.76 0.92 
15.02 -20.03 7.62 0.85 
21.81 -35.66 12.71 0.60 
21.34 -36.43 12.84 0.26 
22.62 -40.34 14.07 0.53 
1.41 -8.18 2.52 0.86 
-53.71 -127.96 42.21 0.39 
-56.01 -126.66 42.12 0.51 
-20.55 11.52 7.14 0.79 
-25.18 18.88 9.53 0.82 
-24.98 19.48 9.59 0.82 
-24.75 20.07 9.65 0.81 
-8.88 10.14 4.08 0.43 
-8.91 10.58 4.19 0.57 
-9.23 12.30 4.66 0.42 
-7.76 13.25 4.65 0.50 
-7.45 13.29 4.62 0.88 
-19.03 75.77 23.66 0.70 
-14.11 73.67 22.72 0.05 
8.29 12.47 4.54 0.37 
8.24 11.90 4.38 0.45 
8.20 11.37 4.24 0.55 
8.15 10.87 4.11 0.45 
8.09 10.37 3.98 0.43 
11.76 11.99 5.09 0.90 
25.22 7.36 7.96 0.84 
40.42 -3.07 12.28 0.68 
41.64 -3.95 12.67 0.76 
50.52 -22.34 16.73 0.71 
50.03 -23.27 16.71 0.61 
49.53 -24.18 16.69 0.08 
49.25 -25.21 16.76 0.69 
49.45 -26.51 16.99 0.78 
15.80 -10.50 5.74 0.58 
15.02 -20.03 7.58 0.85 
21.80 -35.65 12.65 0.60 
21.34 -36.44 12.79 0.26 
22.63 -40.37 14.02 0.53 
1.41 -8.18 2.51 0.86 
-53.71 -127.96 42.03 0.39 
-56.01 -126.66 41.94 0.51 
-20.55 11.52 7.10 0.79 
-25.18 18.88 9.49 0.82 
-24.98 19.48 9.55 0.82 
-24.75 20.07 9.61 0.81 
-8.88 10.14 4.06 0.43 
-8.91 10.58 4.17 0.57 
-9.23 12.30 4.64 0.47 
-7.76 13.25 4.63 0.50 
-7.45 13.29 4.60 0.88 
-19.04 75.82 23.57 0.70 
-17.87 77.31 23.93 0.70 
-16.40 77.64 23.93 0.70 
-14.70 76.75 23.56 0.70 
8.29 12.47 4.52 0.37 
8.24 11.90 4.36 0.45 
8.20 11.37 4.23 0.55 
8.15 10.87 4.10 0.45 
8.09 10.38 3.97 0.43 
11.76 11.99 5.06 0.90 
25.23 7.36 7.92 0.84 
40.42 -3.07 12.22 0.68 
41.64 -3.95 12.61 0.76 
50.54 -22.35 16.66 0.71 
50.05 -23.28 16.65 0.61 
49.68 -24.25 16.67 0.56 
49.29 -25.23 16.70 0.71 
49.46 -26.51 16.92 0.78 
15.02 -20.03 7.55 0.85 
21.79 -35.63 12.59 0.60 
21.35 -36.44 12.73 0.26 
1.41 -8.18 2.50 0.86 
-53.71 -127.96 41.85 0.39 
-56.01 -126.66 41.76 0.51 
-20.55 11.52 7.07 0.79 
-25.18 18.88 9.45 0.82 
-24.98 19.49 9.51 0.82 
-24.75 20.07 9.57 0.81 
-8.88 10.14 4.05 0.43 
-8.91 10.57 4.15 0.57 
-9.23 12.31 4.62 0.47 
-7.76 13.25 4.61 0.50 
-7.45 13.29 4.58 0.88 
-19.05 75.87 23.49 0.70 
-14.71 76.80 23.48 0.70 
8.29 12.47 4.50 0.37 
8.24 11.90 4.35 0.44 
8.20 11.37 4.21 0.55 
8.15 10.86 4.08 0.45 
8.09 10.38 3.95 0.43 
11.76 11.99 5.04 0.90 
25.23 7.36 7.89 0.84 
40.42 -3.07 12.17 0.68 
41.64 -3.95 12.56 0.76 
50.56 -22.36 16.60 0.71 
50.08 -23.29 16.58 0.61 
49.73 -24.28 16.62 0.61 
49.32 -25.25 16.64 0.71 
49.47 -26.52 16.85 0.78 
55.17 -41.38 20.71 0.33 
15.02 -20.03 7.52 0.85 
21.78 -35.62 12.53 0.61 
21.35 -36.44 12.68 0.26 
1.41 -8.18 2.49 0.86 
-53.71 -127.95 41.67 0.39 
-56.01 -126.66 41.58 0.51 
-20.55 11.52 7.04 0.79 
-25.18 18.88 9.41 0.82 
-24.99 19.49 9.47 0.82 
-24.75 20.07 9.52 0.81 
-8.87 10.13 4.03 0.43 
-8.91 10.57 4.13 0.57 
-9.23 12.31 4.60 0.45 
-7.76 13.25 4.59 0.50 
-7.45 13.29 4.56 0.88 
-19.30 76.87 23.69 0.71 
-14.72 76.85 23.39 0.70 
8.29 12.47 4.48 0.37 
8.24 11.90 4.33 0.44 
8.20 11.37 4.19 0.55 
8.15 10.86 4.06 0.45 
8.09 10.38 3.93 0.43 
11.76 11.99 5.02 0.90 
25.23 7.36 7.86 0.84 
40.42 -3.07 12.12 0.68 
41.65 -3.95 12.51 0.76 
50.58 -22.37 16.53 0.71 
50.10 -23.30 16.52 0.61 
49.80 -24.32 16.57 0.61 
49.35 -25.26 16.57 0.71 
51.84 -27.79 17.58 0.57 
55.31 -41.48 20.67 0.33 
50.92 -41.29 19.60 0.40 
15.02 -20.03 7.48 0.85 
21.77 -35.60 12.47 0.61 
21.35 -36.44 12.63 0.26 
1.41 -8.17 2.48 0.86 
-53.71 -127.95 41.48 0.39 
-56.01 -126.66 41.40 0.51 
-18.76 -7.46 6.04 0.59 
-20.55 11.52 7.01 0.80 
-25.18 18.89 9.37 0.82 
-24.99 19.49 9.43 0.82 
-24.75 20.06 9.48 0.80 
-8.87 10.13 4.01 0.45 
-8.91 10.57 4.12 0.58 
-9.23 12.31 4.58 0.45 
-7.76 13.24 4.57 0.50 
-7.45 13.29 4.53 0.88 
-19.31 76.88 23.59 0.71 
-14.73 76.90 23.31 0.70 
8.29 12.47 4.46 0.37 
8.24 11.90 4.31 0.44 
8.20 11.37 4.17 0.55 
8.14 10.86 4.04 0.46 
8.10 10.38 3.92 0.43 
11.76 11.99 5.00 0.90 
25.23 7.36 7.82 0.84 
40.42 -3.07 12.07 0.65 
41.65 -3.95 12.45 0.76 
50.60 -22.38 16.47 0.71 
50.38 -23.43 16.54 0.32 
49.87 -24.35 16.52 0.61 
49.38 -25.28 16.51 0.67 
55.45 -41.58 20.63 0.33 
51.03 -41.38 19.55 0.40 
15.02 -20.02 7.45 0.85 
21.76 -35.58 12.41 0.61 
21.35 -36.45 12.57 0.26 
1.41 -8.17 2.47 0.86 
-53.71 -127.95 41.30 0.39 
-56.01 -126.65 41.22 0.51 
-18.76 -7.88 6.06 0.60 
-18.74 -7.45 6.00 0.59 
-20.55 11.52 6.98 0.80 
-25.18 18.89 9.33 0.82 
-24.99 19.49 9.39 0.82 
-24.74 20.06 9.44 0.80 
-8.87 10.13 3.99 0.46 
-8.91 10.57 4.10 0.58 
-9.23 12.31 4.56 0.45 
-7.76 13.24 4.55 0.50 
-7.45 13.29 4.51 0.88 
-19.31 76.89 23.49 0.71 
-14.74 76.95 23.22 0.70 
8.29 12.47 4.44 0.37 
8.24 11.90 4.29 0.44 
8.20 11.37 4.15 0.55 
8.14 10.86 4.02 0.57 
8.10 10.38 3.90 0.43 
11.76 11.99 4.98 0.90 
25.23 7.36 7.79 0.84 
40.42 -3.07 12.01 0.66 
41.65 -3.95 12.40 0.76 
50.63 -22.39 16.40 0.71 
50.31 -23.40 16.44 0.32 
51.73 -25.26 17.06 0.25 
49.40 -25.29 16.45 0.67 
51.14 -41.46 19.51 0.40 
15.02 -20.02 7.42 0.85 
21.75 -35.57 12.35 0.61 
21.35 -36.45 12.52 0.26 
1.41 -8.17 2.46 0.86 
-53.71 -127.95 41.12 0.39 
-56.01 -126.65 41.04 0.51 
-18.74 -7.87 6.02 0.54 
-18.73 -7.45 5.97 0.66 
-20.55 11.52 6.95 0.79 
-25.19 18.89 9.29 0.82 
-24.99 19.49 9.35 0.82 
-24.74 20.06 9.40 0.80 
-8.87 10.13 3.97 0.46 
-8.91 10.57 4.08 0.58 
-9.23 12.31 4.54 0.45 
-7.76 13.24 4.53 0.50 
-7.45 13.29 4.49 0.88 
-19.31 76.91 23.40 0.71 
-14.75 77.01 23.13 0.70 
8.29 12.47 4.42 0.37 
8.24 11.91 4.27 0.44 
8.20 11.37 4.14 0.55 
8.14 10.86 4.00 0.53 
8.10 10.38 3.89 0.43 
11.76 11.99 4.96 0.90 
25.23 7.36 7.76 0.84 
40.42 -3.07 11.96 0.66 
41.65 -3.95 12.35 0.76 
50.67 -22.41 16.35 0.71 
50.25 -23.37 16.35 0.32 
51.68 -25.23 16.97 0.25 
49.42 -25.30 16.38 0.67 
50.17 -26.89 16.79 0.68 
15.61 -10.81 5.60 0.92 
51.33 -41.62 19.50 0.14 
15.01 -20.02 7.38 0.85 
21.74 -35.55 12.29 0.61 
21.35 -36.45 12.46 0.26 
1.41 -8.17 2.45 0.86 
-53.71 -127.95 40.94 0.39 
-56.01 -126.65 40.86 0.51 
-18.76 -7.87 6.00 0.63 
-18.76 -7.46 5.96 0.61 
-18.99 -7.14 5.98 0.34 
-20.54 11.52 6.92 0.79 
-34.60 22.07 12.06 0.64 
-25.19 18.89 9.25 0.82 
-25.00 19.49 9.31 0.82 
-24.74 20.06 9.36 0.80 
-8.87 10.13 3.96 0.46 
-8.91 10.57 4.06 0.58 
-9.23 12.31 4.52 0.45 
-7.76 13.24 4.51 0.50 
-7.45 13.29 4.47 0.88 
-19.32 76.92 23.30 0.71 
-14.92 77.90 23.30 0.71 
8.29 12.47 4.40 0.36 
8.24 11.91 4.25 0.44 
8.20 11.37 4.12 0.55 
8.14 10.85 3.99 0.53 
8.10 10.38 3.87 0.43 
11.76 11.99 4.93 0.90 
25.23 7.36 7.72 0.84 
40.43 -3.07 11.91 0.66 
41.66 -3.95 12.29 0.76 
50.72 -22.43 16.29 0.71 
50.18 -23.34 16.26 0.44 
51.63 -25.21 16.88 0.25 
49.44 -25.31 16.32 0.67 
15.62 -10.82 5.58 0.58 
51.59 -41.83 19.51 0.14 
15.01 -20.02 7.35 0.85 
21.73 -35.54 12.24 0.61 
21.35 -36.45 12.41 0.26 
1.41 -8.17 2.44 0.86 
-53.71 -127.95 40.76 0.39 
-56.01 -126.65 40.68 0.51 
-18.79 -8.31 6.03 0.89 
-18.84 -7.91 6.00 0.18 
-18.79 -7.47 5.94 0.61 
-19.03 -7.15 5.97 0.14 
-20.54 11.52 6.89 0.79 
-34.59 22.06 12.00 0.82 
-25.19 18.89 9.21 0.82 
-25.00 19.50 9.27 0.82 
-24.74 20.06 9.31 0.80 
-8.87 10.13 3.94 0.46 
-8.90 10.57 4.04 0.53 
-9.23 12.31 4.50 0.45 
-7.75 13.24 4.49 0.50 
-7.45 13.29 4.45 0.88 
-19.32 76.93 23.20 0.71 
-14.92 77.91 23.20 0.71 
8.29 12.47 4.38 0.36 
8.25 11.91 4.24 0.44 
8.20 11.37 4.10 0.55 
8.14 10.85 3.97 0.53 
8.10 10.39 3.85 0.43 
11.76 11.99 4.91 0.90 
25.24 7.36 7.69 0.84 
40.43 -3.07 11.86 0.66 
41.66 -3.95 12.24 0.76 
50.77 -22.45 16.23 0.71 
50.16 -23.33 16.18 0.44 
49.47 -25.32 16.25 0.67 
50.09 -26.85 16.62 0.42 
51.85 -42.04 19.52 0.28 
15.01 -20.02 7.32 0.85 
21.72 -35.52 12.18 0.61 
21.35 -36.45 12.36 0.26 
1.41 -8.17 2.43 0.86 
-53.71 -127.95 40.58 0.39 
-55.81 -126.20 40.36 0.44 
-18.81 -8.32 6.01 0.58 
-18.95 -7.96 6.01 0.18 
-18.82 -7.48 5.92 0.61 
-20.54 11.52 6.86 0.79 
-34.61 22.08 11.95 0.52 
-34.34 22.83 12.00 0.82 
-34.09 23.60 12.07 0.08 
-25.19 18.89 9.17 0.81 
-25.00 19.50 9.23 0.82 
-24.74 20.06 9.27 0.82 
-8.87 10.13 3.92 0.46 
-8.90 10.56 4.02 0.57 
-9.23 12.31 4.48 0.45 
-7.75 13.24 4.47 0.50 
-7.45 13.29 4.43 0.88 
-19.32 76.94 23.10 0.71 
-14.93 77.92 23.10 0.71 
8.29 12.47 4.36 0.31 
8.25 11.91 4.22 0.42 
8.20 11.37 4.08 0.55 
8.14 10.85 3.95 0.54 
8.10 10.39 3.84 0.43 
11.76 11.99 4.89 0.90 
25.24 7.36 7.65 0.84 
40.43 -3.07 11.80 0.66 
40.75 -3.87 11.92 0.55 
50.13 -23.31 16.10 0.44 
49.49 -25.33 16.19 0.67 
50.02 -26.81 16.52 0.42 
52.03 -42.18 19.50 0.28 
15.01 -20.02 7.28 0.85 
21.71 -35.50 12.12 0.61 
21.36 -36.46 12.30 0.26 
1.41 -8.17 2.41 0.86 
-53.71 -127.95 40.40 0.39 
-55.80 -126.19 40.17 0.44 
-18.72 -8.71 6.01 0.89 
-18.90 -7.52 5.92 0.84 
-20.54 11.52 6.83 0.79 
-34.38 22.85 11.96 0.52 
-34.05 23.58 12.01 0.81 
-25.19 18.89 9.13 0.81 
-25.00 19.50 9.19 0.82 
-24.74 20.06 9.23 0.82 
-8.87 10.13 3.90 0.46 
-8.90 10.57 4.01 0.57 
-9.23 12.31 4.46 0.46 
-7.75 13.23 4.45 0.50 
-7.45 13.29 4.41 0.88 
-18.21 72.50 21.67 0.69 
-14.93 77.93 23.00 0.71 
8.29 12.47 4.34 0.31 
8.25 11.91 4.20 0.42 
8.20 11.37 4.06 0.55 
8.13 10.85 3.93 0.54 
8.10 10.39 3.82 0.42 
11.76 11.99 4.87 0.90 
25.24 7.36 7.62 0.84 
40.43 -3.07 11.75 0.66 
40.75 -3.87 11.86 0.55 
40.98 -4.67 11.95 0.76 
50.41 -24.61 16.26 0.32 
49.51 -25.35 16.12 0.67 
49.94 -26.77 16.42 0.42 
49.69 -27.86 16.51 0.40 
52.17 -42.30 19.47 0.48 
15.01 -20.02 7.25 0.85 
21.36 -36.46 12.25 0.26 
1.41 -8.17 2.40 0.86 
-53.71 -127.95 40.22 0.39 
-55.79 -126.17 39.99 0.44 
-18.74 -8.71 5.99 0.59 
-18.93 -7.53 5.90 0.53 
-20.54 11.51 6.79 0.79 
-34.37 22.85 11.91 0.77 
-34.09 23.60 11.96 0.77 
-33.76 24.33 12.01 0.81 
-25.19 18.89 9.09 0.81 
-25.00 19.50 9.15 0.79 
-24.74 20.06 9.19 0.82 
-8.87 10.13 3.88 0.47 
-8.90 10.57 3.99 0.57 
-9.23 12.31 4.44 0.44 
-7.75 13.23 4.43 0.50 
-7.45 13.28 4.39 0.88 
-19.33 76.96 22.90 0.71 
-14.06 73.41 21.57 0.69 
8.29 12.47 4.32 0.31 
8.25 11.91 4.18 0.42 
8.20 11.37 4.04 0.55 
8.13 10.85 3.91 0.54 
8.10 10.39 3.80 0.42 
11.77 11.99 4.85 0.90 
25.24 7.36 7.59 0.84 
40.43 -3.07 11.70 0.66 
40.74 -3.87 11.81 0.55 
40.97 -4.67 11.90 0.76 
52.25 -23.11 16.49 0.62 
49.34 -24.09 15.84 0.11 
49.53 -25.36 16.06 0.67 
49.86 -26.73 16.33 0.42 
49.61 -27.82 16.41 0.40 
54.43 -42.45 19.92 0.31 
52.25 -42.37 19.41 0.48 
15.01 -20.01 7.22 0.85 
21.36 -36.46 12.19 0.26 
1.41 -8.17 2.39 0.86 
-53.48 -127.41 39.87 0.39 
-55.79 -126.16 39.80 0.44 
-58.80 4.46 16.94 0.28 
-20.54 11.51 6.76 0.79 
-34.37 22.85 11.86 0.77 
-34.09 23.60 11.91 0.77 
-25.19 18.89 9.04 0.81 
-24.99 19.49 9.11 0.79 
-24.74 20.06 9.15 0.80 
-8.86 10.12 3.87 0.47 
-8.91 10.57 3.97 0.57 
-9.23 12.31 4.42 0.44 
-7.75 13.23 4.40 0.50 
-7.45 13.28 4.37 0.88 
-18.06 71.92 21.30 0.71 
-16.69 72.22 21.29 0.71 
-15.32 72.53 21.29 0.71 
-13.95 72.83 21.30 0.71 
8.28 12.46 4.30 0.31 
8.25 11.91 4.16 0.42 
8.20 11.37 4.03 0.55 
8.13 10.84 3.89 0.54 
8.10 10.39 3.79 0.40 
11.77 11.99 4.83 0.90 
25.24 7.36 7.55 0.84 
40.43 -3.07 11.65 0.66 
40.74 -3.87 11.76 0.55 
40.96 -4.67 11.84 0.76 
51.24 -22.66 16.09 0.54 
49.06 -23.95 15.68 0.12 
49.56 -25.37 15.99 0.67 
49.84 -26.72 16.24 0.66 
49.53 -27.77 16.31 0.40 
54.33 -42.37 19.79 0.31 
52.32 -42.42 19.35 0.61 
15.01 -20.01 7.19 0.85 
21.36 -36.46 12.14 0.26 
1.41 -8.17 2.38 0.86 
-53.48 -127.41 39.69 0.39 
-55.76 -126.10 39.61 0.44 
-60.91 -108.65 35.78 0.08 
-18.66 -9.11 5.97 0.67 
-58.89 4.47 16.89 0.28 
-59.15 6.75 17.02 0.19 
-20.54 11.51 6.73 0.80 
-34.37 22.85 11.80 0.77 
-34.09 23.60 11.86 0.77 
-25.19 18.89 9.00 0.81 
-24.99 19.49 9.06 0.79 
-24.73 20.05 9.11 0.80 
-8.86 10.12 3.85 0.47 
-8.91 10.57 3.95 0.57 
-9.23 12.31 4.40 0.46 
-7.75 13.23 4.38 0.50 
-7.45 13.28 4.35 0.88 
-18.06 71.92 21.20 0.71 
-16.69 72.22 21.20 0.71 
-15.32 72.53 21.20 0.71 
-13.95 72.83 21.21 0.71 
8.28 12.46 4.28 0.31 
8.25 11.91 4.14 0.42 
8.20 11.37 4.01 0.55 
8.13 10.84 3.88 0.54 
8.10 10.39 3.77 0.40 
11.77 11.99 4.80 0.90 
25.24 7.36 7.52 0.84 
40.43 -3.07 11.60 0.66 
40.74 -3.87 11.70 0.55 
40.95 -4.67 11.79 0.76 
53.05 -22.27 16.45 0.35 
52.08 -23.03 16.28 0.38 
50.31 -23.39 15.87 0.29 
48.41 -23.63 15.40 0.70 
50.30 -25.75 16.16 0.66 
49.82 -26.70 16.16 0.66 
49.92 -27.99 16.37 0.78 
15.45 -11.14 5.45 0.67 
54.26 -42.32 19.68 0.36 
52.37 -42.46 19.28 0.61 
15.01 -20.01 7.15 0.85 
21.36 -36.46 12.08 0.26 
1.41 -8.17 2.37 0.86 
-53.48 -127.40 39.51 0.39 
-55.76 -126.09 39.43 0.44 
-60.46 -107.84 35.35 0.14 
-18.66 -9.11 5.94 0.89 
-58.99 4.47 16.84 0.28 
-59.53 6.79 17.06 0.20 
-20.53 11.51 6.70 0.80 
-34.37 22.84 11.75 0.77 
-34.08 23.60 11.80 0.77 
-25.19 18.89 8.96 0.81 
-24.99 19.49 9.02 0.80 
-24.73 20.05 9.06 0.80 
-8.86 10.12 3.83 0.47 
-8.91 10.57 3.93 0.57 
-9.23 12.31 4.38 0.46 
-7.75 13.23 4.36 0.50 
-7.45 13.28 4.33 0.88 
-18.06 71.92 21.11 0.71 
-16.69 72.22 21.10 0.71 
-15.32 72.53 21.10 0.71 
-13.95 72.83 21.11 0.71 
8.28 12.46 4.26 0.31 
8.25 11.91 4.12 0.42 
8.20 11.37 3.99 0.55 
8.13 10.84 3.86 0.58 
8.11 10.39 3.75 0.40 
11.71 12.39 4.85 0.42 
11.77 11.99 4.78 0.90 
25.25 7.37 7.49 0.84 
40.44 -3.07 11.54 0.66 
40.74 -3.87 11.65 0.55 
40.78 -4.65 11.68 0.82 
52.95 -22.23 16.35 0.35 
49.68 -21.97 15.47 0.30 
50.21 -23.35 15.76 0.34 
48.40 -23.63 15.33 0.70 
50.28 -25.74 16.08 0.66 
49.80 -26.69 16.08 0.66 
49.94 -28.00 16.30 0.78 
49.25 -28.85 16.25 0.40 
15.45 -11.14 5.42 0.92 
54.22 -42.29 19.58 0.36 
52.42 -42.51 19.21 0.61 
15.01 -20.01 7.12 0.85 
21.36 -36.47 12.03 0.26 
1.41 -8.17 2.36 0.86 
-53.48 -127.40 39.33 0.39 
-55.75 -126.07 39.24 0.44 
-60.40 -107.73 35.16 0.57 
-59.08 4.48 16.79 0.28 
-59.60 6.80 17.00 0.71 
-20.53 11.51 6.67 0.80 
-34.36 22.84 11.69 0.80 
-34.08 23.60 11.75 0.77 
-25.19 18.89 8.92 0.81 
-24.98 19.49 8.98 0.80 
-24.73 20.05 9.02 0.80 
-8.86 10.12 3.81 0.48 
-8.91 10.57 3.92 0.57 
-9.23 12.31 4.36 0.46 
-7.75 13.23 4.34 0.50 
-7.45 13.28 4.31 0.89 
-18.06 71.92 21.01 0.71 
-16.69 72.22 21.01 0.71 
-15.32 72.53 21.01 0.71 
-13.95 72.84 21.02 0.71 
8.28 12.45 4.24 0.31 
8.24 11.91 4.10 0.42 
8.20 11.37 3.97 0.55 
8.13 10.84 3.84 0.58 
8.11 10.39 3.74 0.40 
11.71 12.39 4.83 0.42 
11.77 11.99 4.76 0.90 
25.25 7.37 7.45 0.84 
40.44 -3.07 11.49 0.66 
40.74 -3.87 11.60 0.55 
40.78 -4.65 11.63 0.82 
52.85 -22.19 16.24 0.35 
49.57 -21.92 15.36 0.54 
50.13 -23.31 15.67 0.34 
48.39 -23.62 15.26 0.70 
50.26 -25.73 16.00 0.66 
50.37 -27.00 16.20 0.78 
49.96 -28.01 16.23 0.78 
49.36 -28.92 16.21 0.52 
15.47 -11.15 5.40 0.58 
54.19 -42.27 19.48 0.36 
52.47 -42.55 19.14 0.61 
15.00 -20.01 7.09 0.85 
21.36 -36.47 11.98 0.26 
1.41 -8.17 2.35 0.86 
-53.48 -127.40 39.16 0.40 
-55.74 -126.06 39.06 0.44 
-60.40 -107.73 35.00 0.57 
-62.78 -107.17 35.20 0.16 
-59.17 4.49 16.74 0.28 
-59.65 6.80 16.94 0.71 
-20.53 11.51 6.64 0.80 
-34.36 22.84 11.64 0.80 
-34.08 23.60 11.69 0.77 
-25.19 18.89 8.88 0.81 
-24.98 19.48 8.94 0.80 
-24.73 20.05 8.98 0.80 
-8.86 10.12 3.79 0.48 
-8.91 10.57 3.90 0.57 
-9.24 12.32 4.34 0.46 
-7.75 13.22 4.32 0.50 
-7.45 13.28 4.29 0.89 
-19.34 77.02 22.40 0.71 
-14.94 78.00 22.40 0.71 
8.28 12.45 4.22 0.32 
8.24 11.91 4.09 0.42 
8.20 11.37 3.95 0.55 
8.13 10.84 3.82 0.57 
8.11 10.39 3.72 0.40 
11.71 12.39 4.81 0.42 
11.77 11.99 4.74 0.90 
25.25 7.37 7.42 0.84 
40.44 -3.07 11.44 0.66 
40.73 -3.87 11.54 0.56 
40.78 -4.65 11.58 0.82 
52.76 -22.15 16.14 0.36 
49.53 -21.90 15.28 0.54 
50.04 -23.27 15.57 0.34 
48.38 -23.62 15.19 0.70 
50.23 -25.72 15.92 0.66 
50.39 -27.01 16.13 0.78 
49.97 -28.02 16.16 0.78 
49.44 -28.96 16.17 0.52 
54.82 -42.76 19.61 0.62 
52.53 -42.59 19.08 0.61 
15.00 -20.01 7.05 0.85 
1.41 -8.17 2.34 0.86 
-53.48 -127.40 38.98 0.40 
-55.74 -126.04 38.88 0.44 
-60.40 -107.73 34.84 0.57 
-62.83 -107.26 35.07 0.34 
-59.26 4.49 16.69 0.28 
-59.71 6.81 16.88 0.47 
-20.53 11.51 6.61 0.80 
-34.36 22.84 11.59 0.80 
-34.08 23.60 11.64 0.77 
-25.19 18.89 8.84 0.81 
-24.98 19.48 8.90 0.80 
-24.73 20.05 8.94 0.81 
-8.86 10.12 3.78 0.48 
-8.91 10.57 3.88 0.57 
-9.24 12.32 4.32 0.46 
-7.75 13.22 4.30 0.50 
-7.45 13.28 4.28 0.89 
-19.34 77.03 22.30 0.71 
-14.94 78.01 22.30 0.71 
8.28 12.45 4.20 0.32 
8.24 11.91 4.07 0.44 
8.20 11.37 3.94 0.55 
8.13 10.83 3.80 0.57 
8.11 10.40 3.70 0.40 
11.71 12.39 4.79 0.42 
11.77 11.99 4.72 0.90 
25.25 7.37 7.39 0.84 
40.44 -3.07 11.39 0.66 
40.73 -3.87 11.49 0.56 
40.78 -4.65 11.53 0.82 
51.51 -21.62 15.69 0.46 
49.48 -21.88 15.19 0.54 
49.96 -23.23 15.47 0.34 
48.36 -23.61 15.11 0.71 
50.21 -25.70 15.84 0.67 
50.41 -27.02 16.06 0.78 
49.99 -28.02 16.09 0.71 
54.86 -42.78 19.54 0.62 
52.58 -42.63 19.01 0.61 
15.00 -20.01 7.02 0.85 
1.41 -8.17 2.33 0.86 
-53.41 -127.24 38.75 0.40 
-55.73 -126.03 38.70 0.30 
-60.40 -107.73 34.68 0.57 
-62.83 -107.26 34.91 0.34 
-59.36 4.50 16.64 0.28 
-59.81 6.82 16.83 0.47 
-20.53 11.51 6.58 0.80 
-34.36 22.84 11.53 0.80 
-34.08 23.59 11.59 0.77 
-25.19 18.89 8.80 0.79 
-24.98 19.48 8.85 0.80 
-24.73 20.05 8.90 0.81 
-8.86 10.12 3.76 0.48 
-8.91 10.57 3.86 0.57 
-9.24 12.32 4.30 0.46 
-7.74 13.22 4.28 0.50 
-7.44 13.28 4.26 0.89 
-19.35 77.04 22.20 0.71 
-14.94 78.02 22.20 0.71 
8.28 12.45 4.18 0.37 
8.24 11.91 4.05 0.44 
8.20 11.37 3.92 0.55 
8.12 10.83 3.78 0.57 
8.11 10.40 3.69 0.40 
11.71 12.39 4.76 0.42 
11.77 11.99 4.70 0.90 
25.25 7.37 7.35 0.84 
40.44 -3.07 11.34 0.66 
40.73 -3.87 11.44 0.56 
40.79 -4.65 11.47 0.82 
51.44 -21.59 15.59 0.56 
49.43 -21.86 15.11 0.54 
49.84 -23.18 15.36 0.27 
48.35 -23.61 15.04 0.71 
50.75 -25.98 15.94 0.73 
49.98 -28.02 16.01 0.71 
54.89 -42.81 19.46 0.69 
52.63 -42.68 18.94 0.61 
15.00 -20.00 6.99 0.85 
1.41 -8.17 2.32 0.86 
-53.64 -127.79 38.74 0.15 
-55.73 -126.03 38.52 0.30 
-60.40 -107.73 34.52 0.57 
-62.83 -107.26 34.74 0.34 
-59.45 4.51 16.59 0.28 
-59.90 6.83 16.77 0.47 
-20.53 11.51 6.55 0.80 
-34.36 22.84 11.48 0.80 
-34.07 23.59 11.53 0.77 
-25.19 18.89 8.76 0.79 
-24.97 19.48 8.81 0.81 
-24.73 20.05 8.86 0.81 
-8.86 10.12 3.74 0.48 
-8.91 10.57 3.85 0.48 
-9.24 12.32 4.28 0.46 
-7.74 13.22 4.26 0.50 
-7.44 13.28 4.24 0.89 
-19.35 77.05 22.10 0.71 
-14.95 78.03 22.11 0.71 
8.28 12.45 4.16 0.37 
8.24 11.91 4.03 0.44 
8.20 11.37 3.90 0.56 
8.12 10.83 3.77 0.57 
8.11 10.40 3.67 0.40 
11.70 12.39 4.74 0.42 
11.77 11.99 4.67 0.90 
25.25 7.37 7.32 0.84 
40.44 -3.07 11.28 0.66 
40.73 -3.87 11.38 0.56 
40.79 -4.65 11.42 0.82 
53.67 -21.34 16.07 0.35 
51.41 -21.58 15.51 0.56 
49.39 -21.84 15.02 0.54 
49.75 -23.13 15.26 0.35 
48.34 -23.60 14.97 0.71 
50.79 -26.00 15.87 0.73 
54.91 -42.82 19.37 0.69 
52.69 -42.72 18.87 0.61 
50.67 -42.70 18.43 0.43 
15.00 -20.00 6.96 0.85 
1.41 -8.17 2.31 0.86 
-53.71 -127.95 38.61 0.42 
-55.73 -126.03 38.34 0.30 
-60.40 -107.73 34.36 0.57 
-62.83 -107.26 34.58 0.34 
-59.54 4.52 16.54 0.28 
-74.18 20.13 21.28 0.63 
-20.53 11.51 6.52 0.80 
-34.36 22.84 11.43 0.80 
-34.07 23.59 11.48 0.77 
-25.19 18.89 8.72 0.80 
-24.97 19.48 8.77 0.81 
-24.73 20.05 8.82 0.82 
-8.86 10.12 3.73 0.48 
-8.91 10.57 3.83 0.51 
-9.24 12.32 4.27 0.46 
-7.74 13.22 4.24 0.50 
-7.44 13.28 4.22 0.89 
-19.35 77.06 22.00 0.71 
-14.95 78.04 22.01 0.71 
8.28 12.45 4.14 0.37 
8.24 11.91 4.01 0.44 
8.20 11.37 3.88 0.56 
8.12 10.83 3.75 0.57 
8.11 10.40 3.65 0.40 
11.70 12.39 4.72 0.42 
11.77 11.99 4.65 0.90 
25.25 7.37 7.28 0.84 
40.44 -3.07 11.23 0.66 
40.72 -3.87 11.33 0.56 
40.79 -4.65 11.37 0.82 
53.57 -21.30 15.97 0.35 
51.37 -21.56 15.43 0.56 
49.34 -21.82 14.94 0.42 
49.68 -23.10 15.17 0.35 
48.33 -23.60 14.90 0.71 
50.82 -26.02 15.81 0.73 
54.92 -42.84 19.29 0.69 
52.74 -42.76 18.80 0.60 
51.19 -43.14 18.54 0.38 
49.18 -44.73 18.41 0.24 
15.00 -20.00 6.92 0.85 
1.41 -8.17 2.30 0.86 
-53.73 -128.00 38.44 0.42 
-56.03 -126.71 38.37 0.39 
-60.40 -107.72 34.20 0.57 
-62.83 -107.26 34.42 0.34 
-18.59 -9.52 5.78 0.91 
-59.59 4.52 16.47 0.33 
-74.18 20.13 21.19 0.63 
-20.52 11.51 6.49 0.80 
-34.36 22.84 11.37 0.80 
-34.07 23.59 11.42 0.77 
-25.19 18.89 8.68 0.80 
-24.97 19.48 8.73 0.81 
-24.73 20.05 8.78 0.82 
-8.86 10.12 3.71 0.48 
-8.91 10.57 3.81 0.51 
-9.24 12.32 4.25 0.46 
-7.74 13.22 4.22 0.50 
-7.44 13.28 4.20 0.89 
-19.35 77.07 21.90 0.71 
-14.95 78.05 21.91 0.71 
8.28 12.45 4.12 0.37 
8.24 11.91 3.99 0.44 
8.20 11.37 3.86 0.56 
8.12 10.83 3.73 0.57 
8.11 10.40 3.64 0.40 
11.70 12.39 4.70 0.42 
11.77 11.99 4.63 0.90 
25.25 7.37 7.25 0.84 
42.07 -2.39 11.62 0.65 
40.45 -3.07 11.18 0.66 
40.72 -3.87 11.28 0.56 
40.79 -4.65 11.32 0.82 
53.87 -21.42 15.98 0.59 
51.32 -21.54 15.34 0.21 
49.26 -21.78 14.85 0.52 
49.61 -23.07 15.08 0.35 
48.32 -23.59 14.82 0.71 
49.02 -25.09 15.18 0.55 
15.29 -11.47 5.27 0.67 
54.94 -42.85 19.21 0.69 
52.79 -42.81 18.73 0.60 
51.27 -43.21 18.48 0.38 
49.35 -44.89 18.39 0.24 
15.00 -20.00 6.89 0.85 
1.41 -8.17 2.29 0.86 
-53.75 -128.04 38.28 0.42 
-56.05 -126.76 38.21 0.39 
-60.40 -107.72 34.04 0.57 
-62.83 -107.25 34.26 0.34 
-18.60 -9.52 5.76 0.61 
-59.61 4.52 16.40 0.33 
-73.98 20.07 21.03 0.18 
-20.52 11.51 6.46 0.80 
-34.36 22.84 11.32 0.80 
-34.07 23.59 11.37 0.77 
-25.18 18.89 8.64 0.80 
-24.97 19.48 8.69 0.81 
-24.73 20.06 8.74 0.82 
-8.86 10.12 3.69 0.48 
-8.91 10.58 3.79 0.51 
-9.24 12.32 4.23 0.35 
-7.74 13.21 4.20 0.50 
-7.44 13.28 4.18 0.89 
-19.37 77.13 21.82 0.04 
-14.95 78.07 21.81 0.71 
8.28 12.46 4.10 0.37 
8.24 11.91 3.97 0.44 
8.20 11.37 3.85 0.56 
8.12 10.83 3.71 0.57 
8.11 10.40 3.62 0.40 
11.70 12.39 4.68 0.42 
11.77 11.99 4.61 0.90 
25.25 7.37 7.22 0.84 
42.06 -2.39 11.56 0.65 
40.45 -3.07 11.13 0.66 
40.72 -3.86 11.22 0.56 
40.80 -4.65 11.27 0.82 
53.94 -21.45 15.93 0.59 
51.28 -21.53 15.26 0.58 
49.21 -21.76 14.76 0.52 
49.54 -23.04 14.99 0.35 
48.31 -23.59 14.75 0.71 
48.99 -25.08 15.10 0.55 
15.29 -11.47 5.24 0.92 
54.96 -42.87 19.12 0.69 
52.85 -42.85 18.67 0.60 
51.36 -43.28 18.43 0.38 
50.66 -44.36 18.47 0.10 
49.51 -45.04 18.36 0.51 
15.00 -20.00 6.86 0.85 
1.41 -8.17 2.28 0.86 
-53.77 -128.08 38.11 0.42 
-56.07 -126.81 38.04 0.39 
-60.40 -107.72 33.88 0.57 
-62.83 -107.25 34.10 0.34 
-59.63 4.52 16.33 0.33 
-73.67 19.99 20.84 0.18 
-20.52 11.51 6.42 0.80 
-34.36 22.84 11.27 0.80 
-34.07 23.59 11.32 0.77 
-25.15 18.86 8.59 0.66 
-24.97 19.47 8.65 0.81 
-24.73 20.06 8.70 0.82 
-8.86 10.12 3.67 0.48 
-8.91 10.58 3.78 0.52 
-9.24 12.32 4.20 0.35 
-7.74 13.21 4.18 0.50 
-7.44 13.27 4.16 0.89 
-14.96 78.08 21.71 0.71 
8.28 12.46 4.08 0.37 
8.24 11.91 3.95 0.44 
8.20 11.37 3.83 0.56 
8.12 10.82 3.69 0.57 
8.11 10.40 3.60 0.41 
11.70 12.39 4.65 0.42 
11.77 11.99 4.59 0.90 
25.25 7.37 7.18 0.84 
42.05 -2.39 11.50 0.65 
40.45 -3.07 11.08 0.66 
40.72 -3.86 11.17 0.56 
40.80 -4.65 11.21 0.82 
53.95 -21.45 15.85 0.72 
51.24 -21.51 15.18 0.58 
49.16 -21.74 14.68 0.52 
51.09 -23.76 15.39 0.18 
48.30 -23.58 14.68 0.71 
48.97 -25.07 15.02 0.55 
15.31 -11.48 5.23 0.58 
52.90 -42.89 18.60 0.60 
51.19 -44.82 18.58 0.70 
49.57 -45.09 18.30 0.48 
15.00 -20.00 6.83 0.86 
1.41 -8.17 2.26 0.86 
-53.78 -128.13 37.95 0.42 
-56.10 -126.85 37.88 0.39 
-60.40 -107.72 33.73 0.57 
-62.83 -107.25 33.94 0.34 
-59.65 4.52 16.26 0.33 
-73.35 19.90 20.66 0.18 
-20.52 11.51 6.39 0.80 
-34.36 22.84 11.21 0.80 
-34.07 23.59 11.26 0.78 
-25.16 18.87 8.55 0.84 
-24.93 19.45 8.59 0.66 
-24.74 20.06 8.66 0.82 
-8.86 10.12 3.66 0.48 
-8.91 10.58 3.76 0.52 
-9.24 12.32 4.18 0.33 
-7.74 13.21 4.16 0.50 
-7.44 13.27 4.14 0.89 
-14.96 78.09 21.61 0.71 
8.28 12.46 4.07 0.37 
8.24 11.91 3.94 0.44 
8.20 11.37 3.81 0.56 
8.12 10.82 3.68 0.58 
8.11 10.40 3.58 0.41 
11.70 12.39 4.63 0.42 
11.77 11.99 4.57 0.90 
25.25 7.37 7.15 0.84 
42.04 -2.39 11.44 0.65 
40.72 -3.86 11.12 0.56 
40.80 -4.65 11.16 0.82 
53.95 -21.46 15.78 0.72 
51.21 -21.50 15.09 0.58 
49.11 -21.72 14.59 0.52 
51.00 -23.72 15.29 0.58 
48.29 -23.58 14.61 0.71 
48.94 -25.06 14.94 0.55 
52.95 -42.94 18.53 0.60 
51.22 -44.85 18.50 0.70 
49.64 -45.15 18.24 0.48 
15.00 -20.00 6.79 0.86 
1.41 -8.17 2.25 0.86 
-53.81 -128.18 37.78 0.41 
-56.14 -126.94 37.73 0.39 
-60.39 -107.72 33.57 0.57 
-62.83 -107.25 33.78 0.34 
-58.99 4.47 16.00 0.43 
-73.04 19.82 20.47 0.18 
-20.52 11.50 6.36 0.80 
-34.36 22.84 11.16 0.80 
-34.07 23.59 11.21 0.78 
-25.19 18.89 8.52 0.52 
-24.93 19.45 8.55 0.84 
-24.71 20.04 8.61 0.65 
-8.86 10.12 3.64 0.48 
-8.92 10.58 3.74 0.52 
-9.24 12.32 4.16 0.33 
-7.74 13.21 4.14 0.50 
-7.44 13.27 4.12 0.89 
-14.96 78.10 21.51 0.71 
8.28 12.46 4.05 0.37 
8.24 11.91 3.92 0.44 
8.20 11.37 3.79 0.56 
8.12 10.82 3.66 0.58 
8.11 10.40 3.57 0.41 
11.70 12.39 4.61 0.42 
11.77 11.99 4.55 0.90 
25.25 7.37 7.12 0.84 
42.02 -2.39 11.39 0.65 
40.71 -3.86 11.06 0.56 
40.80 -4.65 11.11 0.82 
53.93 -21.45 15.70 0.59 
51.17 -21.48 15.01 0.59 
49.06 -21.69 14.51 0.52 
50.99 -23.71 15.21 0.58 
48.28 -23.57 14.53 0.65 
48.92 -25.04 14.87 0.55 
53.08 -39.81 17.95 0.46 
53.32 -41.58 18.29 0.22 
53.01 -42.98 18.46 0.60 
51.25 -44.88 18.43 0.70 
49.70 -45.21 18.17 0.54 
14.99 -19.99 6.76 0.86 
1.41 -8.17 2.24 0.86 
-53.86 -128.30 37.64 0.41 
-56.19 -127.07 37.58 0.39 
-60.39 -107.72 33.41 0.57 
-62.83 -107.25 33.62 0.34 
-59.04 4.48 15.94 0.43 
-72.74 19.74 20.29 0.19 
-20.52 11.50 6.33 0.80 
-34.36 22.84 11.11 0.80 
-34.07 23.59 11.16 0.78 
-24.96 19.47 8.52 0.52 
-24.71 20.03 8.56 0.83 
-24.46 20.61 8.61 0.65 
-8.86 10.12 3.62 0.49 
-8.92 10.58 3.73 0.52 
-9.23 12.31 4.14 0.33 
-7.74 13.21 4.12 0.50 
-7.44 13.27 4.10 0.89 
-19.40 77.27 21.45 0.70 
-14.98 78.18 21.43 0.04 
8.28 12.46 4.03 0.37 
8.24 11.91 3.90 0.44 
8.20 11.37 3.77 0.56 
8.11 10.82 3.64 0.58 
8.11 10.40 3.55 0.41 
11.70 12.39 4.59 0.42 
11.77 11.99 4.52 0.91 
25.25 7.37 7.08 0.84 
42.01 -2.39 11.33 0.65 
40.71 -3.86 11.01 0.56 
40.81 -4.65 11.06 0.82 
53.90 -21.43 15.62 0.59 
51.13 -21.46 14.93 0.59 
51.44 -22.75 15.14 0.77 
50.98 -23.71 15.14 0.58 
48.26 -23.56 14.46 0.65 
48.90 -25.03 14.79 0.55 
53.04 -39.78 17.85 0.46 
53.20 -41.49 18.16 0.22 
53.04 -43.00 18.38 0.52 
51.29 -44.91 18.35 0.70 
49.76 -45.26 18.11 0.50 
14.99 -19.99 6.73 0.86 
1.41 -8.17 2.23 0.86 
-53.91 -128.42 37.50 0.41 
-56.25 -127.19 37.44 0.39 
-60.39 -107.72 33.25 0.57 
-62.83 -107.25 33.46 0.34 
-59.09 4.48 15.88 0.43 
-59.93 5.69 16.13 0.21 
-72.43 19.65 20.11 0.19 
-20.52 11.50 6.30 0.80 
-34.36 22.84 11.06 0.80 
-34.07 23.59 11.10 0.78 
-24.73 20.05 8.53 0.52 
-24.45 20.60 8.57 0.82 
-8.86 10.12 3.60 0.49 
-8.92 10.58 3.71 0.52 
-9.23 12.31 4.12 0.33 
-7.74 13.20 4.10 0.50 
-7.44 13.27 4.08 0.89 
-19.41 77.28 21.35 0.70 
-17.95 77.67 21.36 0.70 
-16.48 78.00 21.36 0.70 
-14.99 78.28 21.36 0.11 
8.28 12.46 4.01 0.35 
8.24 11.91 3.88 0.44 
8.20 11.37 3.76 0.56 
8.11 10.82 3.62 0.57 
8.11 10.40 3.53 0.41 
11.70 12.39 4.57 0.42 
11.77 11.99 4.50 0.91 
25.25 7.37 7.05 0.84 
40.71 -3.86 10.96 0.56 
40.81 -4.65 11.01 0.82 
53.86 -21.42 15.53 0.59 
51.72 -21.71 15.03 0.76 
51.44 -22.75 15.07 0.77 
50.97 -23.70 15.06 0.58 
48.23 -23.55 14.38 0.65 
48.87 -25.02 14.71 0.55 
52.99 -39.74 17.75 0.46 
53.10 -41.41 18.04 0.25 
53.06 -43.03 18.30 0.52 
51.44 -43.35 18.03 0.18 
51.32 -44.93 18.28 0.70 
49.83 -45.32 18.05 0.50 
14.99 -19.99 6.70 0.86 
1.41 -8.17 2.22 0.86 
-53.95 -128.53 37.35 0.41 
-56.30 -127.32 37.30 0.38 
-60.39 -107.72 33.09 0.57 
-62.83 -107.25 33.31 0.34 
-59.14 4.49 15.82 0.43 
-59.81 5.68 16.02 0.21 
-72.54 19.68 20.04 0.70 
-20.52 11.50 6.27 0.80 
-34.36 22.84 11.00 0.81 
-34.07 23.59 11.05 0.78 
-24.46 20.61 8.53 0.82 
-8.86 10.12 3.59 0.49 
-8.92 10.59 3.69 0.52 
-9.23 12.31 4.10 0.33 
-7.73 13.20 4.08 0.50 
-7.44 13.27 4.06 0.89 
-19.42 77.34 21.26 0.70 
-17.95 77.67 21.26 0.70 
-16.48 78.00 21.26 0.70 
-15.00 78.33 21.27 0.69 
8.28 12.46 3.99 0.35 
8.24 11.91 3.86 0.44 
8.20 11.37 3.74 0.56 
8.11 10.82 3.61 0.57 
8.11 10.40 3.52 0.41 
11.70 12.39 4.54 0.42 
11.77 11.99 4.48 0.91 
25.25 7.37 7.02 0.84 
40.71 -3.86 10.90 0.56 
40.81 -4.65 10.95 0.82 
51.73 -21.72 14.96 0.76 
51.45 -22.75 15.00 0.77 
50.96 -23.70 14.99 0.58 
48.21 -23.54 14.31 0.65 
48.82 -24.99 14.63 0.30 
49.95 -26.77 15.11 0.61 
52.93 -39.70 17.64 0.43 
53.01 -41.34 17.93 0.25 
53.09 -43.05 18.23 0.52 
51.47 -43.37 17.95 0.31 
51.35 -44.96 18.20 0.68 
51.36 -46.72 18.52 0.65 
14.99 -19.99 6.66 0.86 
1.41 -8.17 2.21 0.87 
-53.68 -127.88 36.98 0.31 
-56.36 -127.44 37.16 0.38 
-60.39 -107.72 32.93 0.57 
-62.83 -107.25 33.15 0.34 
-18.53 -9.93 5.61 0.62 
-59.19 4.49 15.75 0.43 
-59.72 5.67 15.92 0.39 
-73.57 18.47 20.13 0.07 
-72.54 19.68 19.95 0.70 
-72.75 21.22 20.11 0.18 
-20.51 11.50 6.24 0.80 
-34.36 22.84 10.95 0.81 
-34.07 23.59 11.00 0.78 
-24.50 20.64 8.50 0.51 
-8.86 10.12 3.57 0.49 
-8.92 10.59 3.67 0.52 
-9.23 12.31 4.08 0.33 
-7.73 13.20 4.06 0.51 
-7.44 13.27 4.04 0.89 
-19.42 77.34 21.16 0.70 
-17.95 77.67 21.16 0.70 
-16.48 78.00 21.16 0.70 
-15.00 78.33 21.17 0.70 
8.28 12.46 3.97 0.45 
8.24 11.91 3.84 0.44 
8.20 11.37 3.72 0.56 
8.11 10.81 3.59 0.57 
8.11 10.40 3.50 0.41 
11.70 12.38 4.52 0.42 
11.77 12.00 4.46 0.91 
25.25 7.37 6.98 0.84 
40.71 -3.86 10.85 0.56 
40.81 -4.65 10.90 0.82 
49.66 -20.84 14.29 0.20 
51.45 -22.75 14.93 0.77 
50.95 -23.69 14.91 0.58 
48.18 -23.53 14.23 0.65 
48.71 -24.93 14.52 0.30 
49.86 -26.73 15.01 0.13 
52.92 -41.27 17.81 0.25 
53.12 -43.07 18.15 0.52 
51.52 -43.42 17.88 0.31 
51.37 -44.98 18.12 0.68 
14.99 -19.99 6.63 0.86 
1.41 -8.17 2.20 0.87 
-53.69 -127.89 36.81 0.47 
-56.45 -127.65 37.04 0.31 
-60.39 -107.72 32.77 0.57 
-62.82 -107.25 32.99 0.34 
-18.52 -9.93 5.58 0.90 
-59.24 4.49 15.69 0.43 
-59.68 5.66 15.83 0.39 
-73.67 18.50 20.06 0.46 
-72.54 19.68 19.85 0.70 
-72.88 21.26 20.05 0.52 
-20.51 11.50 6.21 0.80 
-34.36 22.84 10.90 0.81 
-34.07 23.59 10.95 0.78 
-8.86 10.12 3.55 0.49 
-8.92 10.59 3.66 0.52 
-9.23 12.31 4.06 0.33 
-7.73 13.20 4.04 0.51 
-7.44 13.27 4.02 0.89 
-19.42 77.34 21.06 0.70 
-17.95 77.67 21.05 0.70 
-16.48 78.00 21.06 0.70 
-15.00 78.33 21.06 0.70 
8.28 12.46 3.95 0.45 
8.24 11.91 3.83 0.44 
8.20 11.37 3.70 0.56 
8.11 10.81 3.57 0.57 
8.11 10.40 3.48 0.41 
11.70 12.38 4.50 0.42 
11.77 12.00 4.44 0.91 
25.26 7.37 6.95 0.84 
40.70 -3.86 10.80 0.56 
40.82 -4.65 10.85 0.83 
49.34 -20.71 14.13 0.22 
51.47 -22.76 14.86 0.70 
50.94 -23.69 14.84 0.58 
48.16 -23.51 14.15 0.65 
48.59 -24.88 14.42 0.30 
49.63 -26.60 14.87 0.47 
53.69 -41.87 17.98 0.59 
53.14 -43.09 18.07 0.52 
51.58 -43.46 17.81 0.31 
51.39 -45.00 18.04 0.68 
14.99 -19.99 6.60 0.86 
35.85 -77.10 22.46 0.64 
1.41 -8.17 2.19 0.87 
-54.29 -129.32 37.04 0.20 
-56.59 -127.97 36.96 0.18 
-60.39 -107.72 32.62 0.58 
-62.82 -107.25 32.83 0.34 
-18.54 -9.94 5.56 0.61 
-59.91 2.27 15.76 0.35 
-59.29 4.50 15.63 0.43 
-59.65 5.66 15.75 0.39 
-73.67 18.50 19.97 0.46 
-72.54 19.68 19.76 0.70 
-72.88 21.26 19.95 0.52 
-20.51 11.50 6.18 0.80 
-34.36 22.84 10.84 0.81 
-34.08 23.59 10.89 0.78 
-8.86 10.12 3.54 0.49 
-8.92 10.59 3.64 0.41 
-9.23 12.31 4.04 0.33 
-7.73 13.20 4.02 0.51 
-7.44 13.27 4.00 0.89 
-19.42 77.34 20.96 0.70 
-17.95 77.67 20.95 0.70 
-16.48 78.00 20.95 0.70 
-15.00 78.33 20.96 0.70 
8.29 12.46 3.93 0.45 
8.24 11.91 3.81 0.44 
8.20 11.37 3.68 0.56 
8.11 10.81 3.55 0.57 
8.11 10.40 3.47 0.41 
11.70 12.38 4.48 0.42 
11.77 12.00 4.42 0.91 
25.26 7.37 6.91 0.84 
40.70 -3.86 10.75 0.56 
40.82 -4.66 10.80 0.83 
51.76 -20.58 14.64 0.56 
52.15 -21.89 14.87 0.77 
51.46 -22.75 14.79 0.70 
50.93 -23.68 14.76 0.58 
49.77 -24.30 14.56 0.46 
49.41 -25.29 14.59 0.50 
47.70 -25.57 14.22 0.59 
53.76 -41.93 17.92 0.59 
53.17 -43.11 17.99 0.52 
51.63 -43.51 17.75 0.31 
51.42 -45.02 17.96 0.71 
14.99 -19.99 6.57 0.86 
35.88 -77.16 22.37 0.64 
1.41 -8.17 2.18 0.87 
-56.78 -128.39 36.90 0.18 
-60.39 -107.72 32.46 0.58 
-62.82 -107.25 32.67 0.34 
-59.79 2.26 15.65 0.35 
-59.34 4.50 15.56 0.43 
-59.61 5.66 15.66 0.39 
-73.68 18.50 19.87 0.46 
-72.54 19.68 19.66 0.70 
-72.88 21.26 19.86 0.52 
-20.51 11.50 6.15 0.80 
-34.36 22.84 10.79 0.80 
-34.08 23.60 10.84 0.78 
-8.86 10.12 3.52 0.49 
-8.93 10.59 3.62 0.44 
-9.23 12.31 4.02 0.33 
-7.73 13.20 4.00 0.51 
-7.44 13.27 3.98 0.89 
8.29 12.47 3.92 0.45 
8.24 11.91 3.79 0.44 
8.20 11.37 3.67 0.56 
8.10 10.81 3.53 0.57 
8.11 10.40 3.45 0.41 
11.70 12.38 4.46 0.42 
11.77 12.00 4.40 0.91 
25.26 7.37 6.88 0.84 
40.70 -3.86 10.69 0.56 
40.82 -4.66 10.75 0.83 
51.72 -20.57 14.56 0.56 
51.94 -21.80 14.73 0.70 
51.44 -22.75 14.71 0.70 
50.91 -23.68 14.69 0.58 
49.73 -24.28 14.48 0.46 
49.44 -25.31 14.53 0.50 
47.66 -25.55 14.14 0.60 
53.79 -41.95 17.84 0.63 
53.20 -43.13 17.91 0.52 
51.69 -43.56 17.68 0.31 
51.44 -45.04 17.88 0.71 
14.99 -19.98 6.53 0.86 
35.91 -77.23 22.28 0.64 
1.41 -8.17 2.17 0.87 
-60.39 -107.72 32.30 0.58 
-62.82 -107.24 32.51 0.34 
-60.41 2.29 15.73 0.48 
-59.39 4.50 15.50 0.43 
-59.58 5.65 15.58 0.39 
-62.14 7.09 16.28 0.27 
-73.68 18.50 19.77 0.46 
-72.54 19.68 19.56 0.70 
-72.88 21.26 19.76 0.52 
-20.51 11.50 6.12 0.80 
-34.36 22.84 10.74 0.80 
-34.08 23.60 10.79 0.78 
-8.86 10.12 3.50 0.49 
-8.93 10.60 3.61 0.44 
-9.23 12.30 4.00 0.33 
-7.73 13.19 3.98 0.51 
-7.44 13.27 3.96 0.89 
8.29 12.47 3.90 0.45 
8.24 11.91 3.77 0.44 
8.20 11.37 3.65 0.56 
8.10 10.80 3.51 0.57 
8.11 10.39 3.43 0.39 
11.70 12.38 4.43 0.42 
11.77 12.00 4.37 0.91 
25.26 7.37 6.85 0.84 
40.70 -3.86 10.64 0.56 
40.82 -4.66 10.69 0.83 
51.58 -20.51 14.45 0.22 
51.92 -21.79 14.66 0.70 
51.42 -22.74 14.64 0.70 
50.90 -23.67 14.61 0.58 
49.70 -24.26 14.39 0.46 
49.48 -25.33 14.47 0.50 
47.63 -25.53 14.07 0.60 
53.82 -41.97 17.76 0.63 
54.74 -44.39 18.34 0.53 
51.74 -43.60 17.61 0.31 
51.47 -45.07 17.81 0.71 
14.99 -19.98 6.50 0.86 
35.94 -77.30 22.19 0.64 
1.41 -8.17 2.16 0.87 
-53.58 -127.65 36.03 0.25 
-55.99 -126.61 36.03 0.42 
-60.39 -107.72 32.14 0.58 
-62.82 -107.24 32.35 0.34 
-60.52 2.29 15.68 0.47 
-59.44 4.51 15.44 0.43 
-60.16 5.71 15.65 0.77 
-62.77 7.16 16.36 0.20 
-73.68 18.50 19.68 0.46 
-72.54 19.68 19.47 0.70 
-72.88 21.26 19.66 0.52 
-20.51 11.50 6.09 0.80 
-34.36 22.84 10.68 0.80 
-34.08 23.60 10.74 0.78 
-8.86 10.12 3.48 0.49 
-8.93 10.60 3.59 0.44 
-9.22 12.30 3.98 0.33 
-7.73 13.19 3.96 0.51 
-7.44 13.27 3.94 0.89 
8.29 12.47 3.88 0.45 
8.24 11.91 3.75 0.44 
8.20 11.37 3.63 0.56 
8.10 10.80 3.50 0.56 
8.10 10.39 3.41 0.39 
11.70 12.38 4.41 0.42 
11.77 12.00 4.35 0.91 
25.26 7.37 6.81 0.84 
40.70 -3.86 10.59 0.56 
40.83 -4.66 10.64 0.83 
51.54 -20.50 14.37 0.59 
51.90 -21.79 14.58 0.70 
51.41 -22.73 14.56 0.71 
50.89 -23.67 14.54 0.58 
49.66 -24.25 14.31 0.46 
50.87 -26.04 14.80 0.32 
47.60 -25.51 13.99 0.60 
53.84 -41.99 17.68 0.63 
53.89 -43.70 17.97 0.44 
51.80 -43.65 17.54 0.31 
51.50 -45.09 17.73 0.71 
14.99 -19.98 6.47 0.86 
35.98 -77.36 22.10 0.64 
1.41 -8.17 2.15 0.87 
-53.55 -127.58 35.84 0.25 
-55.97 -126.57 35.84 0.42 
-60.26 -107.48 31.91 0.36 
-62.82 -107.24 32.19 0.34 
-59.49 4.51 15.38 0.43 
-60.18 5.71 15.58 0.77 
-73.68 18.50 19.58 0.46 
-72.54 19.68 19.37 0.70 
-72.88 21.26 19.57 0.52 
-20.51 11.50 6.06 0.80 
-34.35 22.84 10.63 0.80 
-34.08 23.60 10.68 0.79 
-8.86 10.12 3.47 0.49 
-8.93 10.60 3.57 0.44 
-9.22 12.30 3.96 0.33 
-7.73 13.19 3.94 0.51 
-7.44 13.27 3.92 0.89 
8.29 12.47 3.86 0.45 
8.24 11.91 3.73 0.44 
8.20 11.37 3.61 0.56 
8.10 10.80 3.48 0.56 
8.10 10.39 3.39 0.39 
11.70 12.38 4.39 0.42 
11.77 12.00 4.33 0.91 
25.26 7.37 6.78 0.84 
40.69 -3.86 10.54 0.56 
51.89 -20.63 14.39 0.58 
51.89 -21.78 14.50 0.70 
51.39 -22.73 14.48 0.71 
50.88 -23.66 14.46 0.58 
49.62 -24.23 14.23 0.46 
50.81 -26.01 14.71 0.32 
47.56 -25.49 13.91 0.60 
53.87 -42.01 17.61 0.63 
53.94 -43.74 17.90 0.44 
51.85 -43.70 17.48 0.31 
51.52 -45.11 17.65 0.71 
14.98 -19.98 6.44 0.86 
37.23 -76.24 21.87 0.34 
36.01 -77.43 22.01 0.64 
1.41 -8.17 2.14 0.87 
-53.67 -127.84 35.73 0.14 
-56.02 -126.67 35.70 0.33 
-60.26 -107.48 31.76 0.36 
-62.82 -107.24 32.03 0.34 
-59.54 4.52 15.31 0.43 
-60.20 5.71 15.51 0.77 
-73.68 18.50 19.48 0.46 
-72.54 19.68 19.28 0.70 
-72.88 21.26 19.47 0.52 
-20.50 11.50 6.03 0.80 
-34.35 22.84 10.58 0.81 
-34.09 23.60 10.63 0.79 
-8.86 10.12 3.45 0.49 
-8.94 10.60 3.56 0.36 
-9.22 12.29 3.94 0.33 
-7.73 13.19 3.92 0.51 
-7.44 13.26 3.90 0.89 
8.29 12.48 3.84 0.45 
8.24 11.91 3.71 0.44 
8.20 11.37 3.59 0.56 
8.10 10.80 3.46 0.56 
8.10 10.38 3.38 0.39 
11.70 12.38 4.37 0.42 
11.77 12.00 4.31 0.91 
25.26 7.37 6.75 0.84 
40.69 -3.86 10.48 0.56 
51.94 -20.65 14.33 0.58 
51.87 -21.77 14.43 0.71 
51.38 -22.72 14.41 0.71 
