VERSION 0.7
FIELDS x y z intensity
SIZE 4 4 4 8
TYPE F F F F
COUNT 1 1 1 1
WIDTH 2011
HEIGHT 1
VIEWPOINT 0.0 0.0 0.0 1.0 0.0 0.0 0.0
POINTS 2011
DATA ascii
14.64 -0.83 -1.67 0.11 
14.62 -1.11 -1.67 0.11 
14.60 -1.39 -1.67 0.11 
14.57 -1.66 -1.67 0.11 
14.54 -1.94 -1.67 0.11 
14.50 -2.21 -1.67 0.11 
14.45 -2.49 -1.67 0.11 
14.40 -2.76 -1.67 0.11 
14.35 -3.03 -1.67 0.11 
14.29 -3.30 -1.67 0.11 
14.23 -3.57 -1.67 0.11 
14.16 -3.84 -1.67 0.11 
14.08 -4.11 -1.67 0.11 
14.00 -4.37 -1.67 0.11 
13.92 -4.64 -1.67 0.11 
13.83 -4.90 -1.67 0.11 
13.73 -5.16 -1.67 0.11 
13.63 -5.42 -1.67 0.11 
13.53 -5.68 -1.67 0.11 
13.42 -5.93 -1.67 0.11 
13.31 -6.19 -1.67 0.11 
13.19 -6.44 -1.67 0.11 
6.23 -3.19 -0.80 0.46 
6.19 -3.32 -0.80 0.36 
5.88 -3.30 -0.77 0.40 
5.60 -3.28 -0.74 0.41 
5.38 -3.29 -0.72 0.52 
5.18 -3.30 -0.70 0.56 
5.00 -3.32 -0.68 0.61 
4.89 -3.39 -0.68 0.80 
4.85 -3.50 -0.68 0.78 
4.82 -3.61 -0.69 0.72 
4.78 -3.73 -0.69 0.65 
4.77 -3.87 -0.70 0.63 
4.77 -4.02 -0.71 0.55 
10.05 -8.80 -1.52 0.11 
9.88 -8.99 -1.52 0.11 
9.71 -9.17 -1.52 0.11 
9.54 -9.36 -1.52 0.11 
9.36 -9.54 -1.52 0.11 
9.18 -9.71 -1.52 0.11 
8.99 -9.89 -1.52 0.11 
8.80 -10.05 -1.52 0.11 
8.61 -10.22 -1.52 0.11 
8.42 -10.38 -1.52 0.11 
8.22 -10.54 -1.52 0.11 
8.02 -10.70 -1.52 0.11 
7.82 -10.85 -1.52 0.11 
7.61 -10.99 -1.53 0.11 
7.40 -11.14 -1.53 0.11 
5.32 -8.34 -1.13 0.85 
5.11 -8.35 -1.12 0.86 
6.76 -11.54 -1.53 0.11 
6.54 -11.67 -1.53 0.11 
6.32 -11.79 -1.53 0.11 
6.10 -11.91 -1.53 0.11 
5.87 -12.02 -1.53 0.11 
5.64 -12.13 -1.53 0.11 
5.41 -12.24 -1.53 0.11 
5.18 -12.34 -1.53 0.11 
4.60 -11.58 -1.42 0.37 
4.71 -12.53 -1.53 0.11 
4.47 -12.62 -1.53 0.11 
4.23 -12.70 -1.53 0.11 
3.99 -12.78 -1.53 0.11 
3.75 -12.86 -1.53 0.11 
3.51 -12.93 -1.53 0.11 
3.26 -12.99 -1.53 0.11 
3.02 -13.05 -1.53 0.11 
2.77 -13.11 -1.53 0.11 
2.52 -13.16 -1.53 0.11 
2.27 -13.21 -1.53 0.11 
2.02 -13.25 -1.53 0.11 
1.77 -13.29 -1.53 0.11 
1.52 -13.32 -1.53 0.11 
1.27 -13.35 -1.53 0.11 
1.01 -13.37 -1.53 0.11 
0.76 -13.39 -1.53 0.11 
0.51 -13.40 -1.53 0.11 
0.25 -13.41 -1.53 0.11 
0.00 -13.41 -1.53 0.11 
-0.25 -13.41 -1.53 0.11 
-0.51 -13.41 -1.53 0.11 
-0.76 -13.39 -1.53 0.11 
-1.01 -13.38 -1.53 0.11 
-1.27 -13.36 -1.53 0.11 
-1.52 -13.33 -1.53 0.11 
-1.77 -13.30 -1.53 0.11 
-2.02 -13.27 -1.53 0.11 
-2.28 -13.23 -1.53 0.11 
-2.53 -13.19 -1.53 0.11 
-2.78 -13.14 -1.53 0.11 
-3.02 -13.08 -1.53 0.11 
-3.27 -13.02 -1.53 0.11 
-3.52 -12.96 -1.53 0.11 
-3.76 -12.89 -1.53 0.11 
-4.01 -12.82 -1.53 0.11 
-4.25 -12.74 -1.53 0.11 
-4.49 -12.66 -1.53 0.11 
-4.73 -12.58 -1.53 0.11 
-4.97 -12.49 -1.53 0.11 
-5.20 -12.39 -1.53 0.11 
-5.44 -12.29 -1.53 0.11 
-5.67 -12.19 -1.53 0.11 
-5.90 -12.08 -1.53 0.11 
-6.13 -11.97 -1.53 0.11 
-6.35 -11.85 -1.53 0.11 
-6.58 -11.73 -1.53 0.11 
-6.80 -11.60 -1.53 0.11 
-7.02 -11.47 -1.53 0.11 
-7.23 -11.34 -1.53 0.11 
-7.45 -11.20 -1.53 0.11 
-7.66 -11.06 -1.53 0.11 
-7.87 -10.91 -1.53 0.11 
-8.07 -10.76 -1.53 0.11 
-8.27 -10.61 -1.53 0.11 
-8.47 -10.45 -1.53 0.11 
-8.67 -10.29 -1.53 0.11 
-8.86 -10.12 -1.53 0.11 
-9.06 -9.96 -1.53 0.11 
-9.24 -9.78 -1.53 0.11 
-9.43 -9.61 -1.54 0.11 
-9.61 -9.43 -1.54 0.11 
-9.78 -9.24 -1.54 0.11 
-9.96 -9.06 -1.54 0.11 
-10.13 -8.87 -1.54 0.11 
-10.30 -8.68 -1.54 0.11 
-10.46 -8.48 -1.54 0.11 
-10.64 -8.30 -1.54 0.45 
-11.09 -8.32 -1.58 0.52 
-11.58 -8.35 -1.63 0.50 
-12.10 -8.38 -1.68 0.49 
-12.30 -8.18 -1.68 0.11 
-12.49 -7.96 -1.69 0.11 
-12.64 -7.73 -1.69 0.11 
-12.78 -7.49 -1.69 0.11 
-12.92 -7.24 -1.69 0.11 
-13.06 -7.00 -1.69 0.11 
-13.19 -6.75 -1.69 0.11 
-13.31 -6.50 -1.69 0.11 
-13.43 -6.25 -1.69 0.11 
-13.55 -5.99 -1.69 0.11 
-13.66 -5.73 -1.69 0.11 
-13.77 -5.47 -1.69 0.11 
-13.87 -5.21 -1.69 0.11 
-13.96 -4.95 -1.69 0.11 
-14.06 -4.68 -1.69 0.11 
-13.37 -4.18 -1.60 0.21 
-14.22 -4.15 -1.69 0.11 
-14.30 -3.88 -1.69 0.11 
-14.37 -3.61 -1.69 0.11 
-14.44 -3.34 -1.69 0.11 
-14.50 -3.06 -1.69 0.11 
-14.55 -2.79 -1.69 0.11 
-14.60 -2.51 -1.69 0.11 
-10.46 -1.60 -1.21 0.95 
-10.03 -1.34 -1.15 0.91 
-10.00 -1.14 -1.15 0.92 
-9.97 -0.95 -1.14 0.95 
-9.96 -0.76 -1.14 0.95 
-9.96 -0.57 -1.14 0.95 
-9.98 -0.38 -1.14 0.95 
-10.01 -0.19 -1.14 0.95 
-10.05 -0.00 -1.16 0.91 
-10.11 0.19 -1.17 0.90 
-10.21 0.39 -1.18 0.53 
-14.64 0.83 -1.69 0.11 
-14.62 1.11 -1.69 0.11 
-14.59 1.39 -1.69 0.11 
-14.56 1.66 -1.69 0.11 
-14.53 1.94 -1.69 0.11 
-14.49 2.21 -1.69 0.11 
-14.45 2.48 -1.69 0.11 
-14.40 2.76 -1.69 0.11 
-10.66 2.25 -1.26 0.82 
-10.18 2.35 -1.20 0.34 
-9.71 2.44 -1.15 0.47 
-9.36 2.54 -1.12 0.61 
-9.15 2.67 -1.10 0.81 
-9.11 2.85 -1.10 0.87 
-9.12 3.04 -1.11 0.85 
-9.13 3.24 -1.12 0.82 
-9.30 3.49 -1.14 0.17 
-13.61 5.41 -1.69 0.11 
-13.51 5.67 -1.69 0.11 
-13.40 5.93 -1.69 0.11 
-13.28 6.18 -1.69 0.11 
-13.16 6.43 -1.69 0.11 
-13.04 6.67 -1.69 0.11 
-12.91 6.92 -1.69 0.11 
-12.78 7.16 -1.69 0.11 
-12.64 7.40 -1.69 0.11 
-12.49 7.64 -1.69 0.11 
-12.35 7.87 -1.69 0.11 
-12.19 8.11 -1.69 0.11 
-12.04 8.34 -1.69 0.11 
-11.88 8.56 -1.69 0.11 
-11.71 8.78 -1.69 0.11 
-11.54 9.00 -1.69 0.11 
-11.37 9.22 -1.69 0.11 
-11.19 9.43 -1.69 0.11 
-11.01 9.64 -1.69 0.11 
-10.83 9.85 -1.69 0.11 
-6.07 5.74 -0.96 0.71 
-5.86 5.75 -0.95 0.72 
-5.66 5.77 -0.93 0.44 
-5.49 5.81 -0.92 0.74 
-5.29 5.82 -0.91 0.76 
-5.11 5.84 -0.89 0.78 
-4.93 5.85 -0.88 0.79 
-4.76 5.87 -0.87 0.81 
-4.60 5.89 -0.86 0.82 
-4.43 5.91 -0.85 0.83 
-4.27 5.93 -0.84 0.84 
-4.12 5.95 -0.83 0.85 
-3.96 5.96 -0.83 0.86 
-3.81 5.98 -0.82 0.86 
-3.66 5.99 -0.81 0.87 
-3.52 6.00 -0.80 0.88 
-3.37 6.02 -0.80 0.89 
-3.23 6.03 -0.79 0.89 
-3.09 6.03 -0.78 0.84 
-2.94 6.03 -0.77 0.87 
-2.80 6.03 -0.77 0.84 
-2.66 6.02 -0.76 0.85 
-2.53 6.02 -0.75 0.93 
-2.40 6.04 -0.75 0.93 
-2.27 6.05 -0.75 0.93 
-2.15 6.08 -0.74 0.96 
-2.05 6.15 -0.75 0.88 
-1.95 6.24 -0.75 0.88 
-1.86 6.36 -0.76 0.59 
-1.78 6.55 -0.78 0.58 
-1.73 6.88 -0.82 0.25 
-2.99 12.93 -1.53 0.11 
-2.74 12.98 -1.53 0.11 
-2.50 13.03 -1.53 0.11 
-2.25 13.07 -1.53 0.11 
-2.00 13.11 -1.53 0.11 
-1.75 13.15 -1.53 0.11 
-1.50 13.18 -1.53 0.11 
-1.25 13.20 -1.53 0.11 
-1.00 13.22 -1.53 0.11 
-0.75 13.24 -1.53 0.11 
-0.50 13.25 -1.53 0.11 
-0.25 13.25 -1.53 0.11 
0.00 13.25 -1.53 0.11 
0.25 13.25 -1.53 0.11 
0.50 13.24 -1.53 0.11 
0.75 13.23 -1.53 0.11 
1.00 13.21 -1.53 0.11 
1.25 13.19 -1.53 0.11 
1.50 13.16 -1.53 0.11 
1.75 13.13 -1.53 0.11 
2.00 13.09 -1.53 0.11 
2.24 13.05 -1.53 0.11 
2.49 13.01 -1.53 0.11 
2.74 12.95 -1.53 0.11 
2.98 12.90 -1.53 0.11 
3.22 12.84 -1.53 0.11 
3.47 12.78 -1.53 0.11 
3.71 12.71 -1.53 0.11 
3.95 12.63 -1.53 0.11 
4.18 12.55 -1.53 0.11 
4.42 12.47 -1.53 0.11 
4.66 12.39 -1.53 0.11 
4.89 12.29 -1.52 0.11 
5.12 12.20 -1.52 0.11 
5.35 12.10 -1.52 0.11 
5.58 11.99 -1.52 0.11 
5.80 11.88 -1.52 0.11 
6.03 11.77 -1.52 0.11 
6.25 11.65 -1.52 0.11 
6.47 11.53 -1.52 0.11 
6.68 11.41 -1.52 0.11 
6.90 11.28 -1.52 0.11 
7.11 11.15 -1.52 0.11 
7.33 11.03 -1.53 0.67 
7.61 10.99 -1.54 0.84 
7.89 10.95 -1.56 0.83 
8.18 10.91 -1.57 0.83 
8.48 10.87 -1.59 0.82 
8.78 10.83 -1.61 0.82 
9.08 10.78 -1.62 0.81 
9.39 10.72 -1.64 0.80 
9.71 10.67 -1.66 0.79 
9.94 10.52 -1.67 0.12 
10.15 10.35 -1.67 0.12 
10.36 10.17 -1.67 0.12 
10.56 9.97 -1.67 0.11 
10.74 9.77 -1.67 0.11 
10.93 9.57 -1.67 0.11 
11.10 9.36 -1.67 0.11 
11.28 9.15 -1.67 0.11 
11.45 8.93 -1.67 0.11 
11.62 8.71 -1.67 0.11 
11.78 8.49 -1.67 0.11 
11.94 8.26 -1.67 0.11 
12.09 8.04 -1.67 0.11 
12.24 7.81 -1.67 0.11 
12.38 7.57 -1.67 0.11 
12.53 7.34 -1.67 0.11 
12.66 7.10 -1.67 0.11 
12.79 6.86 -1.67 0.11 
12.92 6.61 -1.67 0.11 
13.04 6.37 -1.67 0.11 
13.16 6.12 -1.67 0.11 
13.27 5.87 -1.67 0.11 
13.38 5.62 -1.67 0.11 
13.49 5.36 -1.67 0.11 
13.58 5.11 -1.67 0.11 
13.68 4.85 -1.67 0.11 
13.77 4.59 -1.67 0.11 
13.85 4.33 -1.67 0.11 
13.93 4.06 -1.67 0.11 
14.00 3.80 -1.67 0.11 
14.07 3.53 -1.67 0.11 
14.14 3.27 -1.67 0.11 
14.20 3.00 -1.67 0.11 
14.25 2.73 -1.67 0.11 
14.30 2.46 -1.67 0.11 
14.34 2.19 -1.67 0.11 
14.38 1.92 -1.67 0.11 
14.42 1.64 -1.67 0.11 
14.44 1.37 -1.67 0.11 
14.47 1.10 -1.67 0.11 
14.49 0.82 -1.67 0.11 
14.50 0.55 -1.67 0.11 
14.51 0.27 -1.67 0.11 
14.51 -0.00 -1.67 0.11 
14.51 -0.27 -1.67 0.11 
14.50 -0.55 -1.67 0.11 
14.49 -0.82 -1.67 0.11 
14.47 -1.10 -1.67 0.11 
14.45 -1.37 -1.67 0.11 
14.42 -1.64 -1.67 0.11 
14.39 -1.92 -1.67 0.11 
14.35 -2.19 -1.67 0.11 
14.30 -2.46 -1.67 0.11 
14.25 -2.73 -1.67 0.11 
14.20 -3.00 -1.67 0.11 
14.14 -3.27 -1.67 0.11 
14.08 -3.54 -1.67 0.11 
14.01 -3.80 -1.67 0.11 
13.93 -4.07 -1.67 0.11 
13.86 -4.33 -1.67 0.11 
13.77 -4.59 -1.67 0.11 
13.68 -4.85 -1.67 0.11 
13.59 -5.11 -1.67 0.11 
13.49 -5.37 -1.67 0.11 
13.39 -5.62 -1.67 0.11 
13.28 -5.87 -1.67 0.11 
13.17 -6.12 -1.67 0.11 
13.05 -6.37 -1.67 0.11 
6.26 -3.21 -0.81 0.05 
6.18 -3.31 -0.81 0.37 
5.87 -3.29 -0.78 0.40 
5.59 -3.28 -0.75 0.41 
5.37 -3.29 -0.73 0.52 
5.17 -3.30 -0.71 0.56 
5.00 -3.32 -0.69 0.61 
4.89 -3.38 -0.68 0.80 
4.85 -3.49 -0.69 0.78 
4.81 -3.61 -0.69 0.72 
4.78 -3.72 -0.70 0.65 
4.77 -3.87 -0.71 0.63 
4.76 -4.02 -0.72 0.55 
9.94 -8.71 -1.52 0.11 
9.78 -8.89 -1.52 0.11 
9.61 -9.08 -1.52 0.11 
9.44 -9.26 -1.52 0.11 
9.26 -9.44 -1.52 0.11 
9.08 -9.61 -1.52 0.11 
8.90 -9.78 -1.52 0.11 
8.71 -9.95 -1.52 0.11 
8.52 -10.11 -1.52 0.11 
8.33 -10.27 -1.52 0.11 
8.14 -10.43 -1.52 0.11 
7.94 -10.58 -1.52 0.11 
7.74 -10.73 -1.52 0.11 
7.53 -10.88 -1.53 0.11 
7.33 -11.02 -1.53 0.11 
5.32 -8.33 -1.14 0.85 
5.11 -8.35 -1.13 0.86 
6.69 -11.42 -1.53 0.11 
6.47 -11.55 -1.53 0.11 
6.25 -11.67 -1.53 0.11 
6.03 -11.78 -1.53 0.11 
5.81 -11.90 -1.53 0.11 
5.58 -12.01 -1.53 0.11 
5.36 -12.11 -1.53 0.11 
5.13 -12.21 -1.53 0.11 
4.59 -11.55 -1.43 0.49 
4.66 -12.40 -1.53 0.11 
4.43 -12.49 -1.53 0.11 
4.19 -12.57 -1.53 0.11 
3.95 -12.65 -1.53 0.11 
3.71 -12.72 -1.53 0.11 
3.47 -12.79 -1.53 0.11 
3.23 -12.86 -1.53 0.11 
2.98 -12.92 -1.53 0.11 
2.74 -12.97 -1.53 0.11 
2.49 -13.02 -1.53 0.11 
2.25 -13.07 -1.53 0.11 
2.00 -13.11 -1.53 0.11 
1.75 -13.15 -1.53 0.11 
1.50 -13.18 -1.53 0.11 
1.25 -13.21 -1.53 0.11 
1.00 -13.23 -1.53 0.11 
0.75 -13.25 -1.53 0.11 
0.50 -13.26 -1.53 0.11 
0.25 -13.27 -1.53 0.11 
-0.00 -13.27 -1.53 0.11 
-0.25 -13.27 -1.53 0.11 
-0.50 -13.26 -1.53 0.11 
-0.75 -13.25 -1.53 0.11 
-1.00 -13.24 -1.53 0.11 
-1.25 -13.22 -1.53 0.11 
-1.50 -13.19 -1.53 0.11 
-1.75 -13.16 -1.53 0.11 
-1.91 -12.54 -1.46 0.45 
-2.25 -13.09 -1.53 0.11 
-2.50 -13.05 -1.53 0.11 
-2.75 -13.00 -1.53 0.11 
-2.99 -12.95 -1.53 0.11 
-3.24 -12.89 -1.53 0.11 
-3.48 -12.83 -1.53 0.11 
-3.72 -12.76 -1.53 0.11 
-3.96 -12.69 -1.53 0.11 
-4.20 -12.61 -1.53 0.11 
-4.44 -12.53 -1.53 0.11 
-4.68 -12.44 -1.53 0.11 
-4.91 -12.35 -1.53 0.11 
-5.15 -12.26 -1.53 0.11 
-5.38 -12.16 -1.53 0.11 
-5.61 -12.06 -1.53 0.11 
-5.84 -11.95 -1.53 0.11 
-6.06 -11.84 -1.53 0.11 
-6.28 -11.72 -1.53 0.11 
-6.51 -11.60 -1.53 0.11 
-6.72 -11.48 -1.53 0.11 
-6.94 -11.35 -1.53 0.11 
-7.16 -11.22 -1.53 0.11 
-7.37 -11.08 -1.53 0.11 
-7.58 -10.94 -1.53 0.11 
-7.78 -10.80 -1.53 0.11 
-7.99 -10.65 -1.53 0.11 
-8.19 -10.50 -1.53 0.11 
-8.38 -10.34 -1.53 0.11 
-8.58 -10.18 -1.53 0.11 
-8.77 -10.02 -1.53 0.11 
-8.96 -9.85 -1.53 0.11 
-9.14 -9.68 -1.53 0.11 
-9.33 -9.51 -1.53 0.11 
-9.51 -9.33 -1.54 0.11 
-9.68 -9.15 -1.54 0.11 
-9.85 -8.96 -1.54 0.11 
-10.02 -8.77 -1.54 0.11 
-10.19 -8.58 -1.54 0.11 
-10.35 -8.39 -1.54 0.11 
-10.63 -8.29 -1.55 0.53 
-11.09 -8.32 -1.60 0.52 
-11.58 -8.34 -1.64 0.50 
-12.00 -8.31 -1.68 0.12 
-12.18 -8.10 -1.69 0.12 
-12.35 -7.88 -1.69 0.11 
-12.50 -7.64 -1.69 0.11 
-12.65 -7.41 -1.69 0.11 
-12.78 -7.17 -1.69 0.11 
-12.92 -6.92 -1.69 0.11 
-13.05 -6.68 -1.69 0.11 
-13.17 -6.43 -1.69 0.11 
-13.29 -6.18 -1.69 0.11 
-13.41 -5.93 -1.69 0.11 
-13.52 -5.67 -1.69 0.11 
-13.62 -5.42 -1.69 0.11 
-13.72 -5.16 -1.69 0.11 
-13.82 -4.90 -1.69 0.11 
-13.91 -4.64 -1.69 0.11 
-13.37 -4.18 -1.61 0.21 
-14.07 -4.11 -1.69 0.11 
-14.15 -3.84 -1.69 0.11 
-14.22 -3.57 -1.69 0.11 
-14.28 -3.30 -1.69 0.11 
-14.34 -3.03 -1.69 0.11 
-14.40 -2.76 -1.69 0.11 
-14.45 -2.49 -1.69 0.11 
-10.46 -1.60 -1.22 0.95 
-10.03 -1.34 -1.17 0.91 
-10.00 -1.14 -1.16 0.92 
-9.97 -0.95 -1.15 0.95 
-9.96 -0.76 -1.15 0.95 
-9.96 -0.57 -1.15 0.95 
-9.98 -0.38 -1.15 0.95 
-10.01 -0.19 -1.15 0.95 
-10.05 -0.00 -1.17 0.91 
-10.11 0.19 -1.18 0.90 
-10.21 0.39 -1.19 0.53 
-14.48 0.82 -1.69 0.11 
-14.47 1.10 -1.69 0.11 
-14.44 1.37 -1.69 0.11 
-14.41 1.64 -1.69 0.11 
-14.38 1.92 -1.69 0.11 
-14.34 2.19 -1.69 0.11 
-14.29 2.46 -1.69 0.11 
-14.25 2.73 -1.69 0.11 
-10.65 2.25 -1.27 0.83 
-10.18 2.35 -1.22 0.34 
-9.71 2.44 -1.17 0.47 
-9.36 2.54 -1.13 0.61 
-9.15 2.67 -1.11 0.81 
-9.10 2.84 -1.11 0.87 
-9.12 3.04 -1.12 0.85 
-9.12 3.23 -1.13 0.82 
-9.28 3.49 -1.15 0.17 
-13.47 5.36 -1.69 0.11 
-13.37 5.61 -1.69 0.11 
-13.26 5.86 -1.69 0.11 
-13.14 6.11 -1.69 0.11 
-13.03 6.36 -1.69 0.11 
-12.90 6.61 -1.69 0.11 
-12.77 6.85 -1.69 0.11 
-12.64 7.09 -1.69 0.11 
-12.51 7.33 -1.69 0.11 
-12.36 7.56 -1.69 0.11 
-12.22 7.79 -1.69 0.11 
-12.07 8.02 -1.69 0.11 
-11.91 8.25 -1.69 0.11 
-11.75 8.47 -1.69 0.11 
-11.59 8.69 -1.69 0.11 
-11.42 8.91 -1.69 0.11 
-11.25 9.12 -1.69 0.11 
-11.08 9.33 -1.69 0.11 
-10.90 9.54 -1.69 0.11 
-10.71 9.74 -1.69 0.11 
-6.07 5.74 -0.97 0.71 
-5.86 5.75 -0.96 0.72 
-5.66 5.77 -0.94 0.73 
-5.49 5.81 -0.93 0.74 
-5.29 5.82 -0.92 0.75 
-5.11 5.84 -0.90 0.78 
-4.93 5.85 -0.89 0.79 
-4.76 5.87 -0.88 0.81 
-4.59 5.89 -0.87 0.82 
-4.43 5.91 -0.86 0.83 
-4.27 5.93 -0.85 0.84 
-4.12 5.94 -0.84 0.85 
-3.96 5.96 -0.83 0.86 
-3.81 5.98 -0.83 0.86 
-3.66 5.99 -0.82 0.87 
-3.52 6.00 -0.81 0.88 
-3.37 6.02 -0.80 0.89 
-3.23 6.03 -0.80 0.89 
-3.09 6.03 -0.79 0.84 
-2.94 6.03 -0.78 0.87 
-2.80 6.03 -0.77 0.84 
-2.66 6.02 -0.77 0.85 
-2.53 6.02 -0.76 0.93 
-2.40 6.04 -0.76 0.93 
-2.27 6.05 -0.75 0.93 
-2.15 6.08 -0.75 0.96 
-2.05 6.15 -0.75 0.88 
-1.95 6.23 -0.76 0.88 
-1.86 6.36 -0.77 0.59 
-1.78 6.54 -0.79 0.58 
-1.72 6.86 -0.82 0.35 
-2.96 12.80 -1.53 0.11 
-2.71 12.85 -1.53 0.11 
-2.47 12.90 -1.53 0.11 
-2.23 12.94 -1.53 0.11 
-1.98 12.98 -1.53 0.11 
-1.73 13.01 -1.53 0.11 
-1.49 13.04 -1.53 0.11 
-1.24 13.06 -1.53 0.11 
-0.99 13.08 -1.53 0.11 
-0.74 13.10 -1.53 0.11 
-0.50 13.11 -1.53 0.11 
-0.25 13.12 -1.53 0.11 
0.00 13.12 -1.53 0.11 
0.25 13.11 -1.53 0.11 
0.50 13.10 -1.53 0.11 
0.74 13.09 -1.53 0.11 
0.99 13.07 -1.53 0.11 
1.24 13.05 -1.53 0.11 
1.49 13.02 -1.53 0.11 
1.73 12.99 -1.53 0.11 
1.98 12.96 -1.53 0.11 
2.22 12.92 -1.53 0.11 
2.47 12.87 -1.53 0.11 
2.71 12.82 -1.53 0.11 
2.95 12.77 -1.53 0.11 
3.19 12.71 -1.53 0.11 
3.43 12.64 -1.53 0.11 
3.67 12.57 -1.53 0.11 
3.91 12.50 -1.53 0.11 
4.14 12.42 -1.53 0.11 
4.38 12.34 -1.53 0.11 
4.61 12.26 -1.53 0.11 
4.84 12.17 -1.52 0.11 
5.07 12.07 -1.52 0.11 
5.29 11.97 -1.52 0.11 
5.52 11.87 -1.52 0.11 
5.74 11.76 -1.52 0.11 
5.96 11.65 -1.52 0.11 
6.18 11.53 -1.52 0.11 
6.40 11.41 -1.52 0.11 
6.61 11.29 -1.52 0.11 
6.83 11.16 -1.52 0.11 
7.05 11.06 -1.53 0.68 
7.33 11.02 -1.54 0.84 
7.61 10.99 -1.56 0.84 
7.89 10.95 -1.57 0.83 
8.18 10.91 -1.59 0.83 
8.48 10.87 -1.61 0.82 
8.78 10.82 -1.62 0.82 
9.08 10.77 -1.64 0.81 
9.39 10.72 -1.66 0.80 
9.64 10.60 -1.67 0.12 
9.85 10.43 -1.67 0.12 
10.06 10.25 -1.67 0.12 
10.26 10.07 -1.67 0.11 
10.45 9.87 -1.67 0.11 
10.63 9.67 -1.67 0.11 
10.81 9.47 -1.67 0.11 
10.99 9.26 -1.67 0.11 
11.16 9.05 -1.67 0.11 
11.33 8.84 -1.67 0.11 
11.50 8.62 -1.67 0.11 
11.66 8.40 -1.67 0.11 
11.81 8.18 -1.67 0.11 
11.97 7.95 -1.67 0.11 
12.11 7.73 -1.67 0.11 
12.26 7.49 -1.67 0.11 
12.40 7.26 -1.67 0.11 
12.53 7.03 -1.67 0.11 
12.66 6.79 -1.67 0.11 
12.79 6.55 -1.67 0.11 
12.91 6.30 -1.67 0.11 
13.02 6.06 -1.67 0.11 
13.14 5.81 -1.67 0.11 
13.24 5.56 -1.67 0.11 
13.35 5.31 -1.67 0.11 
13.44 5.05 -1.67 0.11 
13.54 4.80 -1.67 0.11 
13.62 4.54 -1.67 0.11 
13.71 4.28 -1.67 0.11 
13.79 4.02 -1.67 0.11 
13.86 3.76 -1.67 0.11 
13.93 3.50 -1.67 0.11 
13.99 3.23 -1.67 0.11 
14.05 2.97 -1.67 0.11 
14.10 2.70 -1.67 0.11 
14.15 2.43 -1.67 0.11 
14.20 2.17 -1.67 0.11 
14.23 1.90 -1.67 0.11 
14.27 1.63 -1.67 0.11 
14.30 1.36 -1.67 0.11 
14.32 1.09 -1.67 0.11 
14.34 0.81 -1.67 0.11 
14.35 0.54 -1.67 0.11 
14.36 0.27 -1.67 0.11 
14.36 0.00 -1.67 0.11 
14.36 -0.27 -1.67 0.11 
14.35 -0.54 -1.67 0.11 
14.34 -0.81 -1.67 0.11 
14.32 -1.09 -1.67 0.11 
14.30 -1.36 -1.67 0.11 
14.27 -1.63 -1.67 0.11 
14.24 -1.90 -1.67 0.11 
14.20 -2.17 -1.67 0.11 
14.15 -2.43 -1.67 0.11 
14.11 -2.70 -1.67 0.11 
14.05 -2.97 -1.67 0.11 
14.00 -3.23 -1.67 0.11 
13.93 -3.50 -1.67 0.11 
13.86 -3.76 -1.67 0.11 
13.79 -4.02 -1.67 0.11 
13.71 -4.28 -1.67 0.11 
13.63 -4.54 -1.67 0.11 
13.54 -4.80 -1.67 0.11 
13.45 -5.06 -1.67 0.11 
13.35 -5.31 -1.67 0.11 
13.25 -5.56 -1.67 0.11 
13.14 -5.81 -1.67 0.11 
13.03 -6.06 -1.67 0.11 
12.91 -6.31 -1.67 0.11 
12.79 -6.55 -1.67 0.11 
6.18 -3.31 -0.82 0.37 
5.86 -3.29 -0.78 0.40 
5.59 -3.27 -0.75 0.42 
5.37 -3.28 -0.73 0.52 
5.17 -3.30 -0.71 0.56 
4.99 -3.32 -0.70 0.61 
4.88 -3.38 -0.69 0.80 
4.84 -3.49 -0.70 0.78 
4.81 -3.60 -0.70 0.72 
4.77 -3.72 -0.70 0.65 
4.76 -3.86 -0.71 0.63 
4.76 -4.01 -0.72 0.55 
9.92 -8.69 -1.54 0.44 
9.68 -8.80 -1.52 0.11 
9.51 -8.98 -1.52 0.11 
9.34 -9.16 -1.52 0.11 
9.16 -9.34 -1.52 0.11 
8.99 -9.51 -1.52 0.11 
8.81 -9.68 -1.52 0.11 
8.62 -9.85 -1.52 0.11 
8.43 -10.01 -1.52 0.11 
8.24 -10.17 -1.52 0.11 
8.05 -10.32 -1.52 0.11 
7.85 -10.47 -1.52 0.11 
7.66 -10.62 -1.52 0.11 
7.45 -10.77 -1.53 0.11 
7.25 -10.91 -1.53 0.11 
5.32 -8.33 -1.15 0.85 
5.11 -8.35 -1.14 0.86 
6.62 -11.30 -1.53 0.11 
6.41 -11.43 -1.53 0.11 
6.19 -11.55 -1.53 0.11 
5.97 -11.66 -1.53 0.11 
5.75 -11.77 -1.53 0.11 
5.53 -11.88 -1.53 0.11 
5.30 -11.99 -1.53 0.11 
5.07 -12.09 -1.53 0.11 
4.59 -11.54 -1.45 0.54 
4.61 -12.27 -1.53 0.11 
4.38 -12.36 -1.53 0.11 
4.15 -12.44 -1.53 0.11 
3.91 -12.52 -1.53 0.11 
3.67 -12.59 -1.53 0.11 
3.43 -12.66 -1.53 0.11 
3.19 -12.72 -1.53 0.11 
2.95 -12.78 -1.53 0.11 
2.71 -12.84 -1.53 0.11 
2.47 -12.89 -1.53 0.11 
2.22 -12.93 -1.53 0.11 
1.98 -12.97 -1.53 0.11 
1.73 -13.01 -1.53 0.11 
1.49 -13.04 -1.53 0.11 
1.24 -13.07 -1.53 0.11 
0.99 -13.09 -1.53 0.11 
0.75 -13.11 -1.53 0.11 
0.50 -13.12 -1.53 0.11 
0.25 -13.13 -1.53 0.11 
0.00 -13.13 -1.53 0.11 
-0.25 -13.13 -1.53 0.11 
-0.50 -13.13 -1.53 0.11 
-0.75 -13.12 -1.53 0.11 
-0.99 -13.10 -1.53 0.11 
-1.24 -13.08 -1.53 0.11 
-1.49 -13.06 -1.53 0.11 
-1.74 -13.03 -1.53 0.11 
-1.91 -12.52 -1.48 0.79 
-2.23 -12.95 -1.53 0.11 
-2.47 -12.91 -1.53 0.11 
-2.72 -12.86 -1.53 0.11 
-2.96 -12.81 -1.53 0.11 
-3.20 -12.75 -1.53 0.11 
-3.44 -12.69 -1.53 0.11 
-3.68 -12.63 -1.53 0.11 
-3.92 -12.55 -1.53 0.11 
-4.16 -12.48 -1.53 0.11 
-4.40 -12.40 -1.53 0.11 
-4.63 -12.31 -1.53 0.11 
-4.86 -12.23 -1.53 0.11 
-5.09 -12.13 -1.53 0.11 
-5.32 -12.04 -1.53 0.11 
-5.55 -11.93 -1.53 0.11 
-5.77 -11.83 -1.53 0.11 
-6.00 -11.72 -1.53 0.11 
-6.22 -11.60 -1.53 0.11 
-6.44 -11.48 -1.53 0.11 
-6.65 -11.36 -1.53 0.11 
-6.87 -11.23 -1.53 0.11 
-7.08 -11.10 -1.53 0.11 
-7.29 -10.97 -1.53 0.11 
-7.50 -10.83 -1.53 0.11 
-7.70 -10.68 -1.53 0.11 
-7.90 -10.54 -1.53 0.11 
-8.10 -10.39 -1.53 0.11 
-8.30 -10.23 -1.53 0.11 
-8.49 -10.07 -1.53 0.11 
-8.68 -9.91 -1.53 0.11 
-8.87 -9.75 -1.53 0.11 
-9.05 -9.58 -1.53 0.11 
-9.23 -9.41 -1.53 0.11 
-9.41 -9.23 -1.54 0.11 
-9.58 -9.05 -1.54 0.11 
-9.75 -8.87 -1.54 0.11 
-9.92 -8.68 -1.54 0.11 
-10.08 -8.49 -1.54 0.11 
-10.24 -8.30 -1.54 0.11 
-10.63 -8.29 -1.57 0.53 
-11.09 -8.31 -1.61 0.52 
-11.57 -8.34 -1.66 0.50 
-11.88 -8.23 -1.68 0.12 
-12.06 -8.02 -1.69 0.12 
-12.23 -7.80 -1.69 0.11 
-12.37 -7.57 -1.69 0.11 
-12.51 -7.33 -1.69 0.11 
-12.65 -7.09 -1.69 0.11 
-12.78 -6.85 -1.69 0.11 
-12.91 -6.61 -1.69 0.11 
-13.03 -6.36 -1.69 0.11 
-13.15 -6.12 -1.69 0.11 
-13.27 -5.87 -1.69 0.11 
-13.37 -5.61 -1.69 0.11 
-13.48 -5.36 -1.69 0.11 
-13.58 -5.10 -1.69 0.11 
-13.67 -4.85 -1.69 0.11 
-13.76 -4.59 -1.69 0.11 
-13.37 -4.18 -1.63 0.21 
-13.93 -4.06 -1.69 0.11 
-14.00 -3.80 -1.69 0.11 
-14.07 -3.53 -1.69 0.11 
-14.14 -3.27 -1.69 0.11 
-14.19 -3.00 -1.69 0.11 
-14.25 -2.73 -1.69 0.11 
-14.30 -2.46 -1.69 0.11 
-10.46 -1.60 -1.23 0.91 
-10.03 -1.34 -1.18 0.91 
-10.00 -1.14 -1.17 0.92 
-9.96 -0.95 -1.17 0.95 
-9.96 -0.76 -1.16 0.95 
-9.96 -0.57 -1.16 0.95 
-9.98 -0.38 -1.16 0.95 
-10.01 -0.19 -1.17 0.95 
-10.04 -0.00 -1.18 0.91 
-10.11 0.19 -1.19 0.90 
-10.22 0.39 -1.20 0.53 
-14.33 0.81 -1.69 0.11 
-14.32 1.09 -1.69 0.11 
-14.29 1.36 -1.69 0.11 
-14.26 1.63 -1.69 0.11 
-14.23 1.90 -1.69 0.11 
-14.19 2.17 -1.69 0.11 
-14.15 2.43 -1.69 0.11 
-14.10 2.70 -1.69 0.11 
-10.65 2.25 -1.28 0.83 
-10.18 2.35 -1.23 0.34 
-9.71 2.44 -1.18 0.47 
-9.36 2.54 -1.14 0.61 
-9.14 2.67 -1.12 0.81 
-9.10 2.84 -1.12 0.87 
-9.11 3.04 -1.13 0.85 
-9.12 3.23 -1.14 0.87 
-9.27 3.48 -1.16 0.20 
-13.33 5.30 -1.69 0.11 
-13.23 5.55 -1.69 0.11 
-13.12 5.80 -1.69 0.11 
-13.01 6.05 -1.69 0.11 
-12.89 6.29 -1.69 0.11 
-12.77 6.54 -1.69 0.11 
-12.64 6.78 -1.69 0.11 
-12.51 7.01 -1.69 0.11 
-12.38 7.25 -1.69 0.11 
-12.24 7.48 -1.69 0.11 
-12.09 7.71 -1.69 0.11 
-11.94 7.94 -1.69 0.11 
-11.79 8.16 -1.69 0.11 
-11.63 8.38 -1.69 0.11 
-11.47 8.60 -1.69 0.11 
-11.30 8.82 -1.69 0.11 
-11.14 9.03 -1.69 0.11 
-10.96 9.24 -1.69 0.11 
-10.78 9.44 -1.69 0.11 
-10.60 9.64 -1.69 0.11 
-6.07 5.74 -0.98 0.71 
-5.86 5.75 -0.97 0.72 
-5.66 5.77 -0.95 0.73 
-5.49 5.81 -0.94 0.74 
-5.29 5.82 -0.93 0.75 
-5.11 5.84 -0.91 0.78 
-4.93 5.85 -0.90 0.79 
-4.76 5.87 -0.89 0.81 
-4.59 5.89 -0.88 0.82 
-4.43 5.91 -0.87 0.83 
-4.27 5.92 -0.86 0.84 
-4.11 5.94 -0.85 0.85 
-3.96 5.96 -0.84 0.86 
-3.81 5.97 -0.83 0.86 
-3.66 5.99 -0.83 0.87 
-3.52 6.00 -0.82 0.88 
-3.37 6.02 -0.81 0.89 
-3.23 6.03 -0.81 0.89 
-3.09 6.03 -0.80 0.84 
-2.94 6.02 -0.79 0.87 
-2.80 6.03 -0.78 0.84 
-2.66 6.02 -0.77 0.85 
-2.53 6.02 -0.77 0.93 
-2.40 6.03 -0.76 0.93 
-2.27 6.05 -0.76 0.95 
-2.15 6.07 -0.76 0.96 
-2.05 6.14 -0.76 0.88 
-1.95 6.23 -0.77 0.88 
-1.85 6.36 -0.78 0.59 
-1.77 6.54 -0.80 0.58 
-1.72 6.85 -0.83 0.35 
-2.93 12.66 -1.53 0.11 
-2.69 12.72 -1.53 0.11 
-2.44 12.76 -1.53 0.11 
-2.20 12.81 -1.53 0.11 
-1.96 12.84 -1.53 0.11 
-1.72 12.88 -1.53 0.11 
-1.47 12.91 -1.53 0.11 
-1.23 12.93 -1.53 0.11 
-0.98 12.95 -1.53 0.11 
-0.74 12.96 -1.53 0.11 
-0.49 12.98 -1.53 0.11 
-0.25 12.98 -1.53 0.11 
0.00 12.98 -1.53 0.11 
0.25 12.98 -1.53 0.11 
0.49 12.97 -1.53 0.11 
0.74 12.96 -1.53 0.11 
0.98 12.94 -1.53 0.11 
1.23 12.92 -1.53 0.11 
1.47 12.89 -1.53 0.11 
1.71 12.86 -1.53 0.11 
1.96 12.82 -1.53 0.11 
2.20 12.78 -1.53 0.11 
2.44 12.74 -1.53 0.11 
2.68 12.69 -1.53 0.11 
2.92 12.63 -1.53 0.11 
3.16 12.58 -1.53 0.11 
3.40 12.51 -1.53 0.11 
3.63 12.45 -1.53 0.11 
3.87 12.37 -1.53 0.11 
4.10 12.30 -1.53 0.11 
4.33 12.22 -1.53 0.11 
4.56 12.13 -1.53 0.11 
4.79 12.04 -1.53 0.11 
5.02 11.95 -1.52 0.11 
5.24 11.85 -1.52 0.11 
5.46 11.75 -1.52 0.11 
5.68 11.64 -1.52 0.11 
5.90 11.53 -1.52 0.11 
6.12 11.42 -1.52 0.11 
6.33 11.30 -1.52 0.11 
6.55 11.17 -1.52 0.11 
6.78 11.09 -1.53 0.68 
7.05 11.05 -1.54 0.85 
7.33 11.02 -1.56 0.84 
7.61 10.99 -1.57 0.84 
7.89 10.95 -1.59 0.83 
8.18 10.91 -1.60 0.83 
8.47 10.86 -1.62 0.82 
8.77 10.82 -1.64 0.82 
9.08 10.77 -1.66 0.81 
9.34 10.66 -1.67 0.12 
9.55 10.50 -1.67 0.12 
9.76 10.33 -1.67 0.12 
9.97 10.16 -1.67 0.11 
10.16 9.96 -1.67 0.11 
10.34 9.77 -1.67 0.11 
10.52 9.57 -1.67 0.11 
10.70 9.37 -1.67 0.11 
10.88 9.17 -1.67 0.11 
11.05 8.96 -1.67 0.11 
11.22 8.75 -1.67 0.11 
11.38 8.53 -1.67 0.11 
11.54 8.32 -1.67 0.11 
11.69 8.10 -1.67 0.11 
11.84 7.87 -1.67 0.11 
11.99 7.65 -1.67 0.11 
12.13 7.42 -1.67 0.11 
12.27 7.19 -1.67 0.11 
12.40 6.95 -1.67 0.11 
12.53 6.72 -1.67 0.11 
12.66 6.48 -1.67 0.11 
12.78 6.24 -1.67 0.11 
12.89 5.99 -1.67 0.11 
13.00 5.75 -1.67 0.11 
13.11 5.50 -1.67 0.11 
13.21 5.25 -1.67 0.11 
13.31 5.00 -1.67 0.11 
13.40 4.75 -1.67 0.11 
13.48 4.49 -1.67 0.11 
13.57 4.24 -1.67 0.11 
13.64 3.98 -1.67 0.11 
13.72 3.72 -1.67 0.11 
13.79 3.46 -1.67 0.11 
13.85 3.20 -1.67 0.11 
13.91 2.94 -1.67 0.11 
13.96 2.67 -1.67 0.11 
14.01 2.41 -1.67 0.11 
14.05 2.14 -1.67 0.11 
14.09 1.88 -1.67 0.11 
14.12 1.61 -1.67 0.11 
14.15 1.34 -1.67 0.11 
14.17 1.07 -1.67 0.11 
14.19 0.81 -1.67 0.11 
14.20 0.54 -1.67 0.11 
14.21 0.27 -1.67 0.11 
14.21 -0.00 -1.67 0.11 
14.21 -0.27 -1.67 0.11 
14.20 -0.54 -1.67 0.11 
14.19 -0.81 -1.67 0.11 
14.17 -1.08 -1.67 0.11 
14.15 -1.34 -1.67 0.11 
14.12 -1.61 -1.67 0.11 
14.09 -1.88 -1.67 0.11 
14.05 -2.14 -1.67 0.11 
14.01 -2.41 -1.67 0.11 
13.96 -2.67 -1.67 0.11 
13.91 -2.94 -1.67 0.11 
13.85 -3.20 -1.67 0.11 
13.79 -3.46 -1.67 0.11 
13.72 -3.72 -1.67 0.11 
13.65 -3.98 -1.67 0.11 
13.57 -4.24 -1.67 0.11 
13.49 -4.50 -1.67 0.11 
13.40 -4.75 -1.67 0.11 
13.31 -5.00 -1.67 0.11 
13.21 -5.26 -1.67 0.11 
13.11 -5.50 -1.67 0.11 
13.01 -5.75 -1.67 0.11 
12.90 -6.00 -1.67 0.11 
12.78 -6.24 -1.67 0.11 
12.66 -6.48 -1.67 0.11 
6.18 -3.31 -0.82 0.37 
5.86 -3.28 -0.79 0.40 
5.58 -3.27 -0.76 0.42 
5.36 -3.28 -0.74 0.52 
5.16 -3.29 -0.72 0.56 
4.99 -3.32 -0.70 0.61 
4.88 -3.38 -0.70 0.80 
4.84 -3.49 -0.70 0.78 
4.80 -3.60 -0.71 0.72 
4.76 -3.71 -0.71 0.75 
4.76 -3.86 -0.72 0.63 
4.75 -4.00 -0.73 0.55 
9.92 -8.68 -1.55 0.44 
9.58 -8.71 -1.52 0.11 
9.41 -8.89 -1.52 0.11 
9.24 -9.07 -1.52 0.11 
9.07 -9.24 -1.52 0.11 
8.89 -9.41 -1.52 0.11 
8.71 -9.58 -1.52 0.11 
8.53 -9.75 -1.52 0.11 
8.35 -9.91 -1.52 0.11 
8.16 -10.06 -1.52 0.11 
7.97 -10.22 -1.52 0.11 
7.77 -10.37 -1.52 0.11 
7.58 -10.51 -1.53 0.11 
7.38 -10.65 -1.53 0.11 
7.17 -10.79 -1.53 0.11 
5.32 -8.33 -1.16 0.85 
5.11 -8.35 -1.15 0.86 
6.55 -11.19 -1.53 0.11 
6.34 -11.31 -1.53 0.11 
6.13 -11.43 -1.53 0.11 
5.91 -11.54 -1.53 0.11 
5.69 -11.65 -1.53 0.11 
5.47 -11.76 -1.53 0.11 
5.25 -11.86 -1.53 0.11 
5.02 -11.96 -1.53 0.11 
4.59 -11.54 -1.46 0.53 
4.57 -12.14 -1.53 0.11 
4.34 -12.23 -1.53 0.11 
4.10 -12.31 -1.53 0.11 
3.87 -12.39 -1.53 0.11 
3.64 -12.46 -1.53 0.11 
3.40 -12.53 -1.53 0.11 
3.16 -12.59 -1.53 0.11 
2.92 -12.65 -1.53 0.11 
2.68 -12.70 -1.53 0.11 
2.44 -12.75 -1.53 0.11 
2.20 -12.80 -1.53 0.11 
1.96 -12.84 -1.53 0.11 
1.72 -12.88 -1.53 0.11 
1.47 -12.91 -1.53 0.11 
1.23 -12.93 -1.53 0.11 
0.98 -12.96 -1.53 0.11 
0.74 -12.97 -1.53 0.11 
0.49 -12.99 -1.53 0.11 
0.25 -12.99 -1.53 0.11 
0.00 -13.00 -1.53 0.11 
-0.25 -13.00 -1.53 0.11 
-0.49 -12.99 -1.53 0.11 
-0.74 -12.98 -1.53 0.11 
-0.98 -12.97 -1.53 0.11 
-1.23 -12.95 -1.53 0.11 
-1.47 -12.92 -1.53 0.11 
-1.72 -12.89 -1.53 0.11 
-1.91 -12.51 -1.49 0.93 
-2.21 -12.82 -1.53 0.11 
-2.45 -12.78 -1.53 0.11 
-2.69 -12.73 -1.53 0.11 
-2.93 -12.68 -1.53 0.11 
-3.17 -12.62 -1.53 0.11 
-3.41 -12.56 -1.53 0.11 
-3.65 -12.49 -1.53 0.11 
-3.88 -12.42 -1.53 0.11 
-4.12 -12.35 -1.53 0.11 
-4.35 -12.27 -1.53 0.11 
-4.58 -12.19 -1.53 0.11 
-4.81 -12.10 -1.53 0.11 
-5.04 -12.01 -1.53 0.11 
-5.27 -11.91 -1.53 0.11 
-5.49 -11.81 -1.53 0.11 
-5.72 -11.71 -1.53 0.11 
-5.94 -11.60 -1.53 0.11 
-6.16 -11.48 -1.53 0.11 
-6.37 -11.36 -1.53 0.11 
-6.59 -11.24 -1.53 0.11 
-6.80 -11.12 -1.53 0.11 
-7.01 -10.99 -1.53 0.11 
-7.22 -10.85 -1.53 0.11 
-7.42 -10.72 -1.53 0.11 
-7.62 -10.57 -1.53 0.11 
-7.82 -10.43 -1.53 0.11 
-8.02 -10.28 -1.53 0.11 
-8.21 -10.13 -1.53 0.11 
-8.40 -9.97 -1.53 0.11 
-8.59 -9.81 -1.53 0.11 
-8.77 -9.65 -1.53 0.11 
-8.96 -9.48 -1.53 0.11 
-9.13 -9.31 -1.53 0.11 
-9.31 -9.13 -1.53 0.11 
-9.48 -8.96 -1.54 0.11 
-9.65 -8.78 -1.54 0.11 
-9.81 -8.59 -1.54 0.11 
-9.98 -8.41 -1.54 0.11 
-10.19 -8.26 -1.54 0.55 
-10.62 -8.28 -1.59 0.53 
-11.08 -8.31 -1.63 0.52 
-11.57 -8.34 -1.68 0.50 
-11.77 -8.15 -1.68 0.12 
-11.95 -7.94 -1.69 0.12 
-12.10 -7.72 -1.69 0.11 
-12.24 -7.49 -1.69 0.11 
-12.38 -7.25 -1.69 0.11 
-12.52 -7.02 -1.69 0.11 
-12.65 -6.78 -1.69 0.11 
-12.78 -6.54 -1.69 0.11 
-12.90 -6.30 -1.69 0.11 
-13.02 -6.05 -1.69 0.11 
-13.13 -5.81 -1.69 0.11 
-13.24 -5.56 -1.69 0.11 
-13.34 -5.30 -1.69 0.11 
-13.44 -5.05 -1.69 0.11 
-13.53 -4.80 -1.69 0.11 
-13.62 -4.54 -1.69 0.11 
-13.38 -4.18 -1.65 0.42 
-13.78 -4.02 -1.69 0.11 
-13.86 -3.76 -1.69 0.11 
-13.92 -3.50 -1.69 0.11 
-13.99 -3.23 -1.69 0.11 
-14.05 -2.97 -1.69 0.11 
-14.10 -2.70 -1.69 0.11 
-14.15 -2.43 -1.69 0.11 
-10.46 -1.60 -1.25 0.91 
-10.03 -1.34 -1.19 0.91 
-9.99 -1.14 -1.18 0.92 
-9.96 -0.95 -1.18 0.95 
-9.96 -0.76 -1.18 0.95 
-9.96 -0.57 -1.17 0.95 
-9.98 -0.38 -1.18 0.95 
-10.01 -0.19 -1.18 0.95 
-10.04 -0.00 -1.19 0.91 
-10.11 0.19 -1.20 0.90 
-10.22 0.39 -1.22 0.53 
-14.19 0.81 -1.69 0.11 
-14.17 1.07 -1.69 0.11 
-14.15 1.34 -1.69 0.11 
-14.12 1.61 -1.69 0.11 
-14.08 1.88 -1.69 0.11 
-14.05 2.14 -1.69 0.11 
-14.00 2.41 -1.69 0.11 
-13.95 2.67 -1.69 0.11 
-10.64 2.25 -1.29 0.83 
-10.18 2.35 -1.24 0.34 
-9.70 2.44 -1.19 0.44 
-9.35 2.54 -1.15 0.61 
-9.14 2.67 -1.13 0.81 
-9.10 2.84 -1.13 0.89 
-9.11 3.04 -1.14 0.88 
-9.12 3.23 -1.15 0.87 
-9.26 3.48 -1.18 0.20 
-13.20 5.25 -1.69 0.11 
-13.09 5.50 -1.69 0.11 
-12.99 5.74 -1.69 0.11 
-12.88 5.99 -1.69 0.11 
-12.76 6.23 -1.69 0.11 
-12.64 6.47 -1.69 0.11 
-12.51 6.71 -1.69 0.11 
-12.38 6.94 -1.69 0.11 
-12.25 7.18 -1.69 0.11 
-12.11 7.41 -1.69 0.11 
-11.97 7.63 -1.69 0.11 
-11.82 7.86 -1.69 0.11 
-11.67 8.08 -1.69 0.11 
-11.51 8.30 -1.69 0.11 
-11.35 8.51 -1.69 0.11 
-11.19 8.73 -1.69 0.11 
-11.02 8.94 -1.69 0.11 
-10.85 9.14 -1.69 0.11 
-10.67 9.35 -1.69 0.11 
-10.49 9.55 -1.69 0.11 
-6.07 5.74 -0.99 0.71 
-5.86 5.75 -0.98 0.72 
-5.66 5.77 -0.96 0.73 
-5.49 5.81 -0.95 0.74 
-5.29 5.82 -0.94 0.75 
-5.11 5.84 -0.92 0.78 
-4.93 5.85 -0.91 0.79 
-4.76 5.87 -0.90 0.81 
-4.59 5.89 -0.89 0.82 
-4.43 5.90 -0.88 0.83 
-4.27 5.92 -0.87 0.84 
-4.11 5.94 -0.86 0.85 
-3.96 5.96 -0.85 0.86 
-3.81 5.97 -0.84 0.86 
-3.66 5.99 -0.83 0.87 
-3.51 6.00 -0.83 0.88 
-3.37 6.01 -0.82 0.89 
-3.23 6.03 -0.81 0.89 
-3.09 6.03 -0.81 0.84 
-2.94 6.02 -0.80 0.87 
-2.80 6.02 -0.79 0.84 
-2.66 6.02 -0.78 0.85 
-2.53 6.02 -0.78 0.93 
-2.40 6.03 -0.77 0.93 
-2.27 6.05 -0.77 0.95 
-2.15 6.07 -0.77 0.96 
-2.05 6.14 -0.77 0.88 
-1.95 6.23 -0.78 0.88 
-1.85 6.35 -0.79 0.59 
-1.77 6.53 -0.80 0.58 
-1.72 6.84 -0.84 0.35 
-2.90 12.53 -1.53 0.11 
-2.66 12.59 -1.53 0.11 
-2.42 12.63 -1.53 0.11 
-2.18 12.67 -1.53 0.11 
-1.94 12.71 -1.53 0.11 
-1.70 12.75 -1.53 0.11 
-1.46 12.77 -1.53 0.11 
-1.21 12.80 -1.53 0.11 
-0.97 12.82 -1.53 0.11 
-0.73 12.83 -1.53 0.11 
-0.49 12.84 -1.53 0.11 
-0.24 12.85 -1.53 0.11 
0.00 12.85 -1.53 0.11 
0.24 12.85 -1.53 0.11 
0.49 12.84 -1.53 0.11 
0.73 12.83 -1.53 0.11 
0.97 12.81 -1.53 0.11 
1.21 12.79 -1.53 0.11 
1.46 12.76 -1.53 0.11 
1.70 12.73 -1.53 0.11 
1.94 12.69 -1.53 0.11 
2.18 12.65 -1.53 0.11 
2.42 12.61 -1.53 0.11 
2.65 12.56 -1.53 0.11 
2.89 12.51 -1.53 0.11 
3.13 12.45 -1.53 0.11 
3.36 12.39 -1.53 0.11 
3.59 12.32 -1.53 0.11 
3.83 12.25 -1.53 0.11 
4.06 12.17 -1.53 0.11 
4.29 12.09 -1.53 0.11 
4.51 12.01 -1.53 0.11 
4.74 11.92 -1.53 0.11 
4.96 11.83 -1.52 0.11 
5.19 11.73 -1.52 0.11 
5.41 11.63 -1.52 0.11 
5.63 11.52 -1.52 0.11 
5.84 11.41 -1.52 0.11 
6.06 11.30 -1.52 0.11 
6.27 11.18 -1.52 0.11 
6.51 11.12 -1.53 0.87 
6.78 11.08 -1.54 0.86 
7.05 11.05 -1.56 0.85 
7.32 11.02 -1.57 0.84 
7.61 10.98 -1.59 0.84 
7.89 10.94 -1.60 0.83 
8.18 10.90 -1.62 0.83 
8.47 10.86 -1.64 0.82 
8.77 10.82 -1.66 0.82 
9.04 10.73 -1.67 0.13 
9.25 10.57 -1.67 0.13 
9.46 10.40 -1.67 0.13 
9.67 10.24 -1.67 0.13 
9.86 10.05 -1.67 0.11 
10.05 9.86 -1.67 0.11 
10.24 9.67 -1.67 0.11 
10.42 9.48 -1.67 0.11 
10.59 9.28 -1.67 0.11 
10.77 9.07 -1.67 0.11 
10.94 8.87 -1.67 0.11 
11.10 8.66 -1.67 0.11 
11.26 8.45 -1.67 0.11 
11.42 8.23 -1.67 0.11 
11.57 8.01 -1.67 0.11 
11.72 7.79 -1.67 0.11 
11.87 7.57 -1.67 0.11 
12.01 7.34 -1.67 0.11 
12.14 7.11 -1.67 0.11 
12.28 6.88 -1.67 0.11 
12.40 6.65 -1.67 0.11 
12.53 6.41 -1.67 0.11 
12.65 6.17 -1.67 0.11 
12.76 5.93 -1.67 0.11 
12.87 5.69 -1.67 0.11 
12.97 5.45 -1.67 0.11 
13.07 5.20 -1.67 0.11 
13.17 4.95 -1.67 0.11 
13.26 4.70 -1.67 0.11 
13.35 4.45 -1.67 0.11 
13.43 4.20 -1.67 0.11 
13.51 3.94 -1.67 0.11 
13.58 3.68 -1.67 0.11 
13.65 3.43 -1.67 0.11 
13.71 3.17 -1.67 0.11 
13.76 2.91 -1.67 0.11 
13.82 2.65 -1.67 0.11 
13.86 2.38 -1.67 0.11 
13.91 2.12 -1.67 0.11 
13.95 1.86 -1.67 0.11 
13.98 1.59 -1.67 0.11 
14.01 1.33 -1.67 0.11 
14.03 1.06 -1.67 0.11 
14.05 0.80 -1.67 0.11 
14.06 0.53 -1.67 0.11 
14.07 0.27 -1.67 0.11 
14.07 -0.00 -1.67 0.11 
14.07 -0.27 -1.67 0.11 
14.06 -0.53 -1.67 0.11 
14.05 -0.80 -1.67 0.11 
14.03 -1.06 -1.67 0.11 
14.01 -1.33 -1.67 0.11 
13.98 -1.59 -1.67 0.11 
13.95 -1.86 -1.67 0.11 
13.91 -2.12 -1.67 0.11 
13.87 -2.39 -1.67 0.11 
13.82 -2.65 -1.67 0.11 
13.77 -2.91 -1.67 0.11 
13.71 -3.17 -1.67 0.11 
13.65 -3.43 -1.67 0.11 
13.58 -3.69 -1.67 0.11 
13.51 -3.94 -1.67 0.11 
13.43 -4.20 -1.67 0.11 
13.35 -4.45 -1.67 0.11 
13.27 -4.70 -1.67 0.11 
13.18 -4.95 -1.67 0.11 
13.08 -5.20 -1.67 0.11 
12.98 -5.45 -1.67 0.11 
12.88 -5.69 -1.67 0.11 
12.77 -5.94 -1.67 0.11 
12.65 -6.18 -1.67 0.11 
12.53 -6.42 -1.67 0.11 
6.17 -3.31 -0.83 0.37 
5.85 -3.28 -0.80 0.41 
5.57 -3.27 -0.77 0.42 
5.36 -3.28 -0.75 0.52 
5.16 -3.29 -0.73 0.56 
4.98 -3.31 -0.71 0.61 
4.87 -3.37 -0.70 0.80 
4.83 -3.48 -0.71 0.78 
4.80 -3.60 -0.71 0.72 
4.76 -3.71 -0.72 0.75 
4.75 -3.85 -0.73 0.63 
4.74 -4.00 -0.74 0.55 
9.91 -8.68 -1.57 0.44 
9.48 -8.62 -1.52 0.11 
9.32 -8.80 -1.52 0.11 
9.15 -8.98 -1.52 0.11 
8.98 -9.15 -1.52 0.11 
8.80 -9.32 -1.52 0.11 
8.63 -9.48 -1.52 0.11 
8.45 -9.65 -1.52 0.11 
8.26 -9.81 -1.52 0.11 
8.08 -9.96 -1.52 0.11 
7.89 -10.11 -1.52 0.11 
7.69 -10.26 -1.52 0.11 
7.50 -10.41 -1.53 0.11 
7.30 -10.55 -1.53 0.11 
7.10 -10.68 -1.53 0.11 
5.31 -8.33 -1.18 0.85 
5.11 -8.35 -1.16 0.86 
6.49 -11.07 -1.53 0.11 
6.28 -11.19 -1.53 0.11 
6.06 -11.31 -1.53 0.11 
5.85 -11.43 -1.53 0.11 
5.63 -11.53 -1.53 0.11 
5.41 -11.64 -1.53 0.11 
5.19 -11.74 -1.53 0.11 
4.97 -11.84 -1.53 0.11 
4.59 -11.54 -1.48 0.45 
4.52 -12.02 -1.53 0.11 
4.29 -12.11 -1.53 0.11 
4.06 -12.19 -1.53 0.11 
3.83 -12.26 -1.53 0.11 
3.60 -12.33 -1.53 0.11 
3.36 -12.40 -1.53 0.11 
3.13 -12.46 -1.53 0.11 
2.89 -12.52 -1.53 0.11 
2.66 -12.57 -1.53 0.11 
2.42 -12.62 -1.53 0.11 
2.18 -12.67 -1.53 0.11 
1.94 -12.71 -1.53 0.11 
1.70 -12.74 -1.53 0.11 
1.46 -12.78 -1.53 0.11 
1.22 -12.80 -1.53 0.11 
0.97 -12.82 -1.53 0.11 
0.73 -12.84 -1.53 0.11 
0.49 -12.85 -1.53 0.11 
0.24 -12.86 -1.53 0.11 
0.00 -12.87 -1.53 0.11 
-0.24 -12.86 -1.53 0.11 
-0.49 -12.86 -1.53 0.11 
-0.73 -12.85 -1.53 0.11 
-0.97 -12.83 -1.53 0.11 
-1.22 -12.81 -1.53 0.11 
-1.46 -12.79 -1.53 0.11 
-1.70 -12.76 -1.53 0.11 
-1.91 -12.51 -1.50 0.94 
-2.18 -12.69 -1.53 0.11 
-2.42 -12.65 -1.53 0.11 
-2.66 -12.60 -1.53 0.11 
-2.90 -12.55 -1.53 0.11 
-3.14 -12.49 -1.53 0.11 
-3.37 -12.43 -1.53 0.11 
-3.61 -12.37 -1.53 0.11 
-3.84 -12.30 -1.53 0.11 
-4.07 -12.22 -1.53 0.11 
-4.31 -12.15 -1.53 0.11 
-4.53 -12.06 -1.53 0.11 
-4.76 -11.98 -1.53 0.11 
-4.99 -11.89 -1.53 0.11 
-5.21 -11.79 -1.53 0.11 
-5.44 -11.69 -1.53 0.11 
-5.66 -11.59 -1.53 0.11 
-5.88 -11.48 -1.53 0.11 
-6.09 -11.36 -1.53 0.11 
-6.31 -11.25 -1.53 0.11 
-6.52 -11.13 -1.53 0.11 
-6.73 -11.00 -1.53 0.11 
-6.94 -10.88 -1.53 0.11 
-7.14 -10.74 -1.53 0.11 
-7.34 -10.61 -1.53 0.11 
-7.54 -10.47 -1.53 0.11 
-7.74 -10.32 -1.53 0.11 
-7.94 -10.17 -1.53 0.11 
-8.13 -10.02 -1.53 0.11 
-8.32 -9.87 -1.53 0.11 
-8.50 -9.71 -1.53 0.11 
-8.68 -9.55 -1.53 0.11 
-8.86 -9.38 -1.53 0.11 
-9.04 -9.21 -1.53 0.11 
-9.21 -9.04 -1.53 0.11 
-9.38 -8.87 -1.53 0.11 
-9.55 -8.69 -1.54 0.11 
-9.71 -8.51 -1.54 0.11 
-9.87 -8.32 -1.54 0.11 
-10.18 -8.26 -1.56 0.55 
-10.62 -8.28 -1.60 0.53 
-11.08 -8.31 -1.65 0.52 
-11.48 -8.27 -1.68 0.12 
-11.66 -8.07 -1.69 0.12 
-11.83 -7.86 -1.69 0.11 
-11.98 -7.64 -1.69 0.11 
-12.12 -7.41 -1.69 0.11 
-12.26 -7.18 -1.69 0.11 
-12.39 -6.95 -1.69 0.11 
-12.52 -6.71 -1.69 0.11 
-12.65 -6.47 -1.69 0.11 
-12.77 -6.23 -1.69 0.11 
-12.88 -5.99 -1.69 0.11 
-12.99 -5.75 -1.69 0.11 
-13.10 -5.50 -1.69 0.11 
-13.20 -5.25 -1.69 0.11 
-13.30 -5.00 -1.69 0.11 
-13.39 -4.75 -1.69 0.11 
-13.48 -4.49 -1.69 0.11 
-13.41 -4.19 -1.67 0.42 
-13.64 -3.98 -1.69 0.11 
-13.71 -3.72 -1.69 0.11 
-13.78 -3.46 -1.69 0.11 
-13.85 -3.20 -1.69 0.11 
-13.90 -2.94 -1.69 0.11 
-13.96 -2.67 -1.69 0.11 
-14.01 -2.41 -1.69 0.11 
-10.46 -1.60 -1.26 0.91 
-10.03 -1.34 -1.20 0.91 
-9.99 -1.14 -1.20 0.92 
-9.96 -0.95 -1.19 0.95 
-9.96 -0.76 -1.19 0.95 
-9.96 -0.57 -1.19 0.95 
-9.98 -0.38 -1.19 0.95 
-10.01 -0.19 -1.19 0.95 
-10.04 -0.00 -1.21 0.91 
-10.11 0.19 -1.21 0.90 
-10.22 0.39 -1.23 0.53 
-14.04 0.80 -1.69 0.11 
-14.02 1.06 -1.69 0.11 
-14.00 1.33 -1.69 0.11 
-13.97 1.59 -1.69 0.11 
-13.94 1.86 -1.69 0.11 
-13.90 2.12 -1.69 0.11 
-13.86 2.38 -1.69 0.11 
-13.81 2.65 -1.69 0.11 
-10.63 2.25 -1.31 0.26 
-10.18 2.35 -1.26 0.34 
-9.70 2.44 -1.20 0.44 
-9.35 2.54 -1.16 0.61 
-9.13 2.66 -1.14 0.80 
-9.10 2.84 -1.14 0.89 
-9.11 3.04 -1.15 0.88 
-9.12 3.23 -1.16 0.87 
-9.26 3.48 -1.19 0.20 
-13.06 5.19 -1.69 0.11 
-12.96 5.44 -1.69 0.11 
-12.86 5.68 -1.69 0.11 
-12.75 5.93 -1.69 0.11 
-12.63 6.17 -1.69 0.11 
-12.51 6.40 -1.69 0.11 
-12.39 6.64 -1.69 0.11 
-12.26 6.87 -1.69 0.11 
-12.12 7.10 -1.69 0.11 
-11.99 7.33 -1.69 0.11 
-11.85 7.56 -1.69 0.11 
-11.70 7.78 -1.69 0.11 
-11.55 8.00 -1.69 0.11 
-11.40 8.21 -1.69 0.11 
-11.24 8.43 -1.69 0.11 
-11.08 8.64 -1.69 0.11 
-10.91 8.85 -1.69 0.11 
-10.74 9.05 -1.69 0.11 
-10.57 9.25 -1.69 0.11 
-10.39 9.45 -1.69 0.11 
-6.07 5.74 -1.00 0.71 
-5.86 5.75 -0.99 0.72 
-5.66 5.77 -0.97 0.73 
-5.49 5.81 -0.96 0.74 
-5.29 5.82 -0.95 0.75 
-5.11 5.84 -0.93 0.78 
-4.93 5.85 -0.92 0.79 
-4.76 5.87 -0.91 0.81 
-4.59 5.89 -0.90 0.82 
-4.43 5.90 -0.89 0.83 
-4.27 5.92 -0.88 0.84 
-4.11 5.94 -0.87 0.85 
-3.96 5.96 -0.86 0.86 
-3.81 5.97 -0.85 0.86 
-3.66 5.98 -0.84 0.87 
-3.51 6.00 -0.83 0.88 
-3.37 6.01 -0.83 0.89 
-3.23 6.03 -0.82 0.89 
-3.08 6.03 -0.81 0.84 
-2.94 6.02 -0.80 0.87 
-2.80 6.02 -0.80 0.84 
-2.66 6.01 -0.79 0.85 
-2.52 6.01 -0.78 0.93 
-2.40 6.03 -0.78 0.93 
-2.27 6.04 -0.78 0.95 
-2.15 6.07 -0.77 0.96 
-2.05 6.14 -0.78 0.88 
-1.95 6.23 -0.78 0.88 
-1.85 6.35 -0.79 0.59 
-1.77 6.53 -0.81 0.58 
-1.72 6.83 -0.85 0.35 
-2.87 12.41 -1.53 0.11 
-2.63 12.46 -1.53 0.11 
-2.40 12.50 -1.53 0.11 
-2.16 12.55 -1.53 0.11 
-1.92 12.58 -1.53 0.11 
-1.68 12.62 -1.53 0.11 
-1.44 12.65 -1.53 0.11 
-1.20 12.67 -1.53 0.11 
-0.96 12.69 -1.53 0.11 
-0.72 12.70 -1.53 0.11 
-0.48 12.71 -1.53 0.11 
-0.24 12.72 -1.53 0.11 
0.00 12.72 -1.53 0.11 
0.24 12.72 -1.53 0.11 
0.48 12.71 -1.53 0.11 
0.72 12.70 -1.53 0.11 
0.96 12.68 -1.53 0.11 
1.20 12.66 -1.53 0.11 
1.44 12.63 -1.53 0.11 
1.68 12.60 -1.53 0.11 
1.92 12.57 -1.53 0.11 
2.15 12.53 -1.53 0.11 
2.39 12.48 -1.53 0.11 
2.63 12.43 -1.53 0.11 
2.86 12.38 -1.53 0.11 
3.09 12.32 -1.53 0.11 
3.33 12.26 -1.53 0.11 
3.56 12.19 -1.53 0.11 
3.79 12.12 -1.53 0.11 
4.02 12.05 -1.53 0.11 
4.24 11.97 -1.53 0.11 
4.47 11.89 -1.53 0.11 
4.69 11.80 -1.53 0.11 
4.91 11.71 -1.52 0.11 
5.13 11.61 -1.52 0.11 
5.35 11.51 -1.52 0.11 
5.57 11.41 -1.52 0.11 
5.78 11.30 -1.52 0.11 
6.00 11.19 -1.52 0.11 
6.25 11.14 -1.53 0.87 
6.51 11.11 -1.55 0.87 
6.78 11.08 -1.56 0.86 
7.05 11.05 -1.57 0.85 
7.32 11.02 -1.59 0.84 
7.60 10.98 -1.60 0.84 
7.89 10.94 -1.62 0.83 
8.17 10.90 -1.64 0.83 
8.47 10.86 -1.65 0.82 
8.75 10.79 -1.67 0.13 
8.96 10.63 -1.67 0.13 
9.17 10.47 -1.67 0.13 
9.38 10.31 -1.67 0.13 
9.58 10.14 -1.67 0.11 
9.76 9.95 -1.67 0.11 
9.95 9.76 -1.67 0.11 
10.13 9.57 -1.67 0.11 
10.31 9.38 -1.67 0.11 
10.49 9.18 -1.67 0.11 
10.66 8.98 -1.67 0.11 
10.83 8.78 -1.67 0.11 
10.99 8.57 -1.67 0.11 
11.15 8.36 -1.67 0.11 
11.31 8.15 -1.67 0.11 
11.46 7.93 -1.67 0.11 
11.60 7.71 -1.67 0.11 
11.75 7.49 -1.67 0.11 
11.89 7.27 -1.67 0.11 
12.02 7.04 -1.67 0.11 
12.15 6.81 -1.67 0.11 
12.28 6.58 -1.67 0.11 
12.40 6.35 -1.67 0.11 
12.52 6.11 -1.67 0.11 
12.63 5.87 -1.67 0.11 
12.74 5.63 -1.67 0.11 
12.84 5.39 -1.67 0.11 
12.94 5.15 -1.67 0.11 
13.04 4.90 -1.67 0.11 
13.13 4.65 -1.67 0.11 
13.21 4.40 -1.67 0.11 
13.29 4.15 -1.67 0.11 
13.37 3.90 -1.67 0.11 
13.44 3.65 -1.67 0.11 
13.51 3.39 -1.67 0.11 
13.57 3.14 -1.67 0.11 
13.63 2.88 -1.67 0.11 
13.68 2.62 -1.67 0.11 
13.73 2.36 -1.67 0.11 
13.77 2.10 -1.67 0.11 
13.81 1.84 -1.67 0.11 
13.84 1.58 -1.67 0.11 
13.86 1.32 -1.67 0.11 
13.89 1.05 -1.67 0.11 
13.90 0.79 -1.67 0.11 
13.92 0.53 -1.67 0.11 
13.93 0.26 -1.67 0.11 
13.93 -0.00 -1.67 0.11 
13.93 -0.26 -1.67 0.11 
13.92 -0.53 -1.67 0.11 
13.91 -0.79 -1.67 0.11 
13.89 -1.05 -1.67 0.11 
13.87 -1.32 -1.67 0.11 
13.84 -1.58 -1.67 0.11 
13.81 -1.84 -1.67 0.11 
13.77 -2.10 -1.67 0.11 
13.73 -2.36 -1.67 0.11 
13.68 -2.62 -1.67 0.11 
13.63 -2.88 -1.67 0.11 
13.57 -3.14 -1.67 0.11 
13.51 -3.39 -1.67 0.11 
13.45 -3.65 -1.67 0.11 
13.38 -3.90 -1.67 0.11 
13.30 -4.15 -1.67 0.11 
13.22 -4.41 -1.67 0.11 
13.13 -4.66 -1.67 0.11 
13.04 -4.90 -1.67 0.11 
12.95 -5.15 -1.67 0.11 
12.85 -5.39 -1.67 0.11 
12.75 -5.64 -1.67 0.11 
12.64 -5.88 -1.67 0.11 
12.52 -6.12 -1.67 0.11 
12.41 -6.35 -1.67 0.11 
6.17 -3.31 -0.84 0.37 
5.85 -3.28 -0.81 0.41 
5.57 -3.26 -0.78 0.47 
5.35 -3.27 -0.75 0.52 
5.16 -3.29 -0.73 0.56 
4.98 -3.31 -0.72 0.61 
4.87 -3.37 -0.71 0.80 
4.83 -3.48 -0.71 0.79 
4.79 -3.59 -0.72 0.72 
4.75 -3.71 -0.72 0.75 
4.74 -3.85 -0.73 0.64 
4.74 -3.99 -0.74 0.55 
9.91 -8.67 -1.58 0.44 
9.41 -8.56 -1.53 0.39 
9.22 -8.71 -1.52 0.11 
9.06 -8.89 -1.52 0.11 
8.89 -9.06 -1.52 0.11 
8.72 -9.22 -1.52 0.11 
8.54 -9.39 -1.52 0.11 
8.36 -9.55 -1.52 0.11 
8.18 -9.71 -1.52 0.11 
7.99 -9.86 -1.52 0.11 
7.81 -10.01 -1.52 0.11 
7.62 -10.16 -1.52 0.11 
7.42 -10.30 -1.53 0.11 
7.23 -10.44 -1.53 0.11 
7.03 -10.58 -1.53 0.11 
5.31 -8.33 -1.19 0.85 
5.11 -8.35 -1.18 0.86 
6.42 -10.96 -1.53 0.11 
6.21 -11.08 -1.53 0.11 
6.00 -11.20 -1.53 0.11 
5.79 -11.31 -1.53 0.11 
5.58 -11.42 -1.53 0.11 
5.36 -11.52 -1.53 0.11 
5.14 -11.62 -1.53 0.11 
4.92 -11.72 -1.53 0.11 
4.60 -11.56 -1.49 0.27 
4.47 -11.90 -1.53 0.11 
4.25 -11.98 -1.53 0.11 
4.02 -12.06 -1.53 0.11 
3.79 -12.14 -1.53 0.11 
3.56 -12.21 -1.53 0.11 
3.33 -12.27 -1.53 0.11 
3.10 -12.34 -1.53 0.11 
2.86 -12.39 -1.53 0.11 
2.63 -12.45 -1.53 0.11 
2.39 -12.50 -1.53 0.11 
2.16 -12.54 -1.53 0.11 
1.92 -12.58 -1.53 0.11 
1.68 -12.62 -1.53 0.11 
1.44 -12.65 -1.53 0.11 
1.20 -12.67 -1.53 0.11 
0.96 -12.69 -1.53 0.11 
0.72 -12.71 -1.53 0.11 
0.48 -12.72 -1.53 0.11 
0.24 -12.73 -1.53 0.11 
-0.00 -12.74 -1.53 0.11 
-0.24 -12.73 -1.53 0.11 
-0.48 -12.73 -1.53 0.11 
-0.72 -12.72 -1.53 0.11 
-0.96 -12.70 -1.53 0.11 
-1.20 -12.68 -1.53 0.11 
-1.44 -12.66 -1.53 0.11 
-1.68 -12.63 -1.53 0.11 
-1.91 -12.51 -1.52 0.85 
-2.16 -12.56 -1.53 0.11 
-2.40 -12.52 -1.53 0.11 
-2.63 -12.47 -1.53 0.11 
-2.87 -12.42 -1.53 0.11 
-3.11 -12.37 -1.53 0.11 
-3.34 -12.31 -1.53 0.11 
-3.57 -12.24 -1.53 0.11 
-3.80 -12.17 -1.53 0.11 
-4.03 -12.10 -1.53 0.11 
-4.26 -12.02 -1.53 0.11 
-4.49 -11.94 -1.53 0.11 
-4.71 -11.86 -1.53 0.11 
-4.94 -11.76 -1.53 0.11 
-5.16 -11.67 -1.53 0.11 
-5.38 -11.57 -1.53 0.11 
-5.60 -11.47 -1.53 0.11 
-5.82 -11.36 -1.53 0.11 
-6.03 -11.25 -1.53 0.11 
-6.24 -11.13 -1.53 0.11 
-6.45 -11.02 -1.53 0.11 
-6.66 -10.89 -1.53 0.11 
-6.87 -10.76 -1.53 0.11 
-7.07 -10.63 -1.53 0.11 
-7.27 -10.50 -1.53 0.11 
-7.47 -10.36 -1.53 0.11 
-7.66 -10.22 -1.53 0.11 
-7.86 -10.07 -1.53 0.11 
-8.04 -9.92 -1.53 0.11 
-8.23 -9.77 -1.53 0.11 
-8.42 -9.61 -1.53 0.11 
-8.60 -9.45 -1.53 0.11 
-8.77 -9.29 -1.53 0.11 
-8.95 -9.12 -1.53 0.11 
-9.12 -8.95 -1.53 0.11 
-9.29 -8.78 -1.53 0.11 
-9.45 -8.60 -1.53 0.11 
-9.62 -8.42 -1.54 0.11 
-9.78 -8.24 -1.54 0.47 
-10.18 -8.25 -1.57 0.55 
-10.61 -8.28 -1.62 0.53 
-11.07 -8.30 -1.66 0.52 
-11.37 -8.19 -1.68 0.12 
-11.55 -7.99 -1.69 0.12 
-11.71 -7.78 -1.69 0.11 
-11.85 -7.56 -1.69 0.11 
-12.00 -7.34 -1.69 0.11 
-12.13 -7.11 -1.69 0.11 
-12.27 -6.88 -1.69 0.11 
-12.39 -6.64 -1.69 0.11 
-12.52 -6.41 -1.69 0.11 
-12.64 -6.17 -1.69 0.11 
-12.75 -5.93 -1.69 0.11 
-12.86 -5.69 -1.69 0.11 
-12.97 -5.44 -1.69 0.11 
-13.07 -5.20 -1.69 0.11 
-13.16 -4.95 -1.69 0.11 
-13.26 -4.70 -1.69 0.11 
-13.34 -4.45 -1.69 0.11 
-13.43 -4.19 -1.69 0.11 
-13.50 -3.94 -1.69 0.11 
-13.57 -3.68 -1.69 0.11 
-13.64 -3.43 -1.69 0.11 
-13.70 -3.17 -1.69 0.11 
-13.76 -2.91 -1.69 0.11 
-13.82 -2.65 -1.69 0.11 
-13.86 -2.38 -1.69 0.11 
-10.47 -1.60 -1.27 0.91 
-10.03 -1.34 -1.22 0.91 
-9.99 -1.14 -1.21 0.92 
-9.96 -0.95 -1.20 0.95 
-9.96 -0.76 -1.20 0.95 
-9.96 -0.57 -1.20 0.95 
-9.98 -0.38 -1.20 0.95 
-10.01 -0.19 -1.20 0.95 
-10.04 -0.00 -1.22 0.91 
-10.11 0.19 -1.23 0.90 
-10.22 0.39 -1.24 0.53 
-13.90 0.79 -1.69 0.11 
-13.88 1.05 -1.69 0.11 
-13.86 1.32 -1.69 0.11 
-13.83 1.58 -1.69 0.11 
-13.80 1.84 -1.69 0.11 
-13.76 2.10 -1.69 0.11 
-13.72 2.36 -1.69 0.11 
-13.67 2.62 -1.69 0.11 
-10.63 2.25 -1.32 0.26 
-10.18 2.35 -1.27 0.34 
-9.71 2.44 -1.21 0.44 
-9.35 2.54 -1.17 0.57 
-9.13 2.66 -1.15 0.80 
-9.10 2.84 -1.16 0.89 
-9.11 3.04 -1.16 0.88 
-9.12 3.23 -1.17 0.87 
-9.26 3.48 -1.20 0.20 
-12.93 5.14 -1.69 0.11 
-12.83 5.39 -1.69 0.11 
-12.73 5.63 -1.69 0.11 
-12.62 5.87 -1.69 0.11 
-12.50 6.10 -1.69 0.11 
-12.39 6.34 -1.69 0.11 
-12.26 6.57 -1.69 0.11 
-12.13 6.80 -1.69 0.11 
-12.00 7.03 -1.69 0.11 
-11.87 7.26 -1.69 0.11 
-11.73 7.48 -1.69 0.11 
-11.58 7.70 -1.69 0.11 
-11.43 7.92 -1.69 0.11 
-11.28 8.13 -1.69 0.11 
-11.13 8.34 -1.69 0.11 
-10.96 8.55 -1.69 0.11 
-10.80 8.76 -1.69 0.11 
-10.63 8.96 -1.69 0.11 
-10.46 9.16 -1.69 0.11 
-6.35 5.77 -1.04 0.39 
-6.07 5.74 -1.01 0.71 
-5.86 5.75 -1.00 0.72 
-5.66 5.77 -0.98 0.73 
-5.49 5.81 -0.97 0.74 
-5.29 5.82 -0.95 0.75 
-5.11 5.84 -0.94 0.78 
-4.93 5.85 -0.93 0.79 
-4.76 5.87 -0.92 0.81 
-4.59 5.89 -0.91 0.82 
-4.43 5.90 -0.90 0.83 
-4.27 5.92 -0.89 0.84 
-4.11 5.94 -0.88 0.85 
-3.96 5.95 -0.87 0.86 
-3.81 5.97 -0.86 0.86 
-3.66 5.98 -0.85 0.87 
-3.51 6.00 -0.84 0.88 
-3.37 6.01 -0.84 0.89 
-3.23 6.02 -0.83 0.89 
-3.08 6.02 -0.82 0.84 
-2.94 6.02 -0.81 0.85 
-2.80 6.02 -0.81 0.84 
-2.66 6.01 -0.80 0.85 
-2.52 6.01 -0.79 0.93 
-2.40 6.03 -0.79 0.93 
-2.27 6.04 -0.78 0.95 
-2.15 6.07 -0.78 0.96 
-2.05 6.14 -0.78 0.88 
-1.94 6.22 -0.79 0.88 
-1.85 6.34 -0.80 0.59 
-1.77 6.52 -0.82 0.58 
-1.71 6.82 -0.85 0.35 
-2.84 12.28 -1.53 0.11 
-2.61 12.33 -1.53 0.11 
-2.37 12.38 -1.53 0.11 
-2.14 12.42 -1.53 0.11 
-1.90 12.46 -1.53 0.11 
-1.66 12.49 -1.53 0.11 
-1.43 12.52 -1.53 0.11 
-1.19 12.54 -1.53 0.11 
-0.95 12.56 -1.53 0.11 
-0.71 12.58 -1.53 0.11 
-0.48 12.59 -1.53 0.11 
-0.24 12.59 -1.53 0.11 
0.00 12.59 -1.53 0.11 
0.24 12.59 -1.53 0.11 
0.48 12.58 -1.53 0.11 
0.71 12.57 -1.53 0.11 
0.95 12.55 -1.53 0.11 
1.19 12.53 -1.53 0.11 
1.43 12.51 -1.53 0.11 
1.66 12.47 -1.53 0.11 
1.90 12.44 -1.53 0.11 
2.13 12.40 -1.53 0.11 
2.37 12.36 -1.53 0.11 
2.60 12.31 -1.53 0.11 
2.83 12.26 -1.53 0.11 
3.06 12.20 -1.53 0.11 
3.29 12.14 -1.53 0.11 
3.52 12.07 -1.53 0.11 
3.75 12.00 -1.53 0.11 
3.98 11.93 -1.53 0.11 
4.20 11.85 -1.53 0.11 
4.42 11.77 -1.53 0.11 
4.65 11.68 -1.53 0.11 
4.87 11.59 -1.53 0.11 
5.08 11.49 -1.52 0.11 
5.30 11.40 -1.52 0.11 
5.51 11.29 -1.52 0.11 
5.73 11.19 -1.53 0.70 
5.98 11.16 -1.54 0.87 
6.25 11.14 -1.55 0.87 
6.51 11.11 -1.56 0.87 
6.77 11.08 -1.58 0.86 
7.05 11.05 -1.59 0.85 
7.32 11.01 -1.60 0.84 
7.60 10.98 -1.62 0.84 
7.88 10.94 -1.64 0.84 
8.17 10.90 -1.65 0.83 
8.46 10.84 -1.67 0.13 
8.67 10.69 -1.67 0.13 
8.88 10.54 -1.67 0.13 
9.09 10.38 -1.67 0.13 
9.29 10.21 -1.67 0.11 
9.48 10.03 -1.67 0.11 
9.67 9.85 -1.67 0.11 
9.85 9.67 -1.67 0.11 
10.03 9.48 -1.67 0.11 
10.21 9.29 -1.67 0.11 
10.38 9.09 -1.67 0.11 
10.55 8.89 -1.67 0.11 
10.72 8.69 -1.67 0.11 
10.88 8.49 -1.67 0.11 
11.04 8.28 -1.67 0.11 
11.19 8.07 -1.67 0.11 
11.34 7.85 -1.67 0.11 
11.49 7.64 -1.67 0.11 
11.63 7.42 -1.67 0.11 
11.77 7.20 -1.67 0.11 
11.90 6.97 -1.67 0.11 
12.03 6.75 -1.67 0.11 
12.16 6.52 -1.67 0.11 
12.28 6.28 -1.67 0.11 
12.39 6.05 -1.67 0.11 
12.51 5.82 -1.67 0.11 
12.61 5.58 -1.67 0.11 
12.72 5.34 -1.67 0.11 
12.81 5.10 -1.67 0.11 
12.91 4.85 -1.67 0.11 
13.00 4.61 -1.67 0.11 
13.08 4.36 -1.67 0.11 
13.16 4.11 -1.67 0.11 
13.24 3.86 -1.67 0.11 
13.31 3.61 -1.67 0.11 
13.37 3.36 -1.67 0.11 
13.43 3.10 -1.67 0.11 
13.49 2.85 -1.67 0.11 
13.54 2.59 -1.67 0.11 
13.59 2.34 -1.67 0.11 
13.63 2.08 -1.67 0.11 
13.67 1.82 -1.67 0.11 
13.70 1.56 -1.67 0.11 
13.73 1.30 -1.67 0.11 
13.75 1.04 -1.67 0.11 
13.77 0.78 -1.67 0.11 
13.78 0.52 -1.67 0.11 
13.79 0.26 -1.67 0.11 
13.79 -0.00 -1.67 0.11 
13.79 -0.26 -1.67 0.11 
13.78 -0.52 -1.67 0.11 
13.77 -0.78 -1.67 0.11 
13.75 -1.04 -1.67 0.11 
13.73 -1.30 -1.67 0.11 
13.70 -1.56 -1.67 0.11 
13.67 -1.82 -1.67 0.11 
13.63 -2.08 -1.67 0.11 
13.59 -2.34 -1.67 0.11 
13.55 -2.59 -1.67 0.11 
13.49 -2.85 -1.67 0.11 
13.44 -3.11 -1.67 0.11 
13.38 -3.36 -1.67 0.11 
13.31 -3.61 -1.67 0.11 
13.24 -3.86 -1.67 0.11 
13.17 -4.11 -1.67 0.11 
13.09 -4.36 -1.67 0.11 
13.00 -4.61 -1.67 0.11 
12.91 -4.85 -1.67 0.11 
12.82 -5.10 -1.67 0.11 
12.72 -5.34 -1.67 0.11 
