VERSION 0.7
FIELDS x y z intensity
SIZE 4 4 4 8
TYPE F F F F
COUNT 1 1 1 1
WIDTH 2026
HEIGHT 1
VIEWPOINT 0.0 0.0 0.0 1.0 0.0 0.0 0.0
POINTS 2026
DATA ascii
8.65 8.49 -1.69 0.13 
8.81 8.33 -1.69 0.13 
8.97 8.16 -1.69 0.13 
9.13 7.99 -1.69 0.13 
9.28 7.82 -1.69 0.13 
9.43 7.64 -1.69 0.13 
9.57 7.46 -1.69 0.13 
9.71 7.28 -1.69 0.13 
9.85 7.10 -1.69 0.13 
9.98 6.91 -1.69 0.13 
10.12 6.72 -1.70 0.13 
10.24 6.53 -1.70 0.13 
10.37 6.34 -1.70 0.13 
10.49 6.14 -1.70 0.13 
10.60 5.94 -1.70 0.13 
10.71 5.74 -1.70 0.13 
10.82 5.54 -1.70 0.13 
10.93 5.34 -1.70 0.13 
11.03 5.13 -1.70 0.13 
11.12 4.92 -1.70 0.13 
11.22 4.71 -1.70 0.13 
11.31 4.50 -1.70 0.13 
11.39 4.28 -1.70 0.13 
11.47 4.07 -1.70 0.13 
11.55 3.85 -1.70 0.13 
11.62 3.63 -1.70 0.13 
11.69 3.41 -1.70 0.13 
11.75 3.19 -1.70 0.13 
11.81 2.97 -1.70 0.13 
11.87 2.74 -1.70 0.13 
11.92 2.52 -1.70 0.13 
11.96 2.29 -1.70 0.13 
12.01 2.07 -1.70 0.13 
12.05 1.84 -1.70 0.13 
12.08 1.61 -1.70 0.13 
12.11 1.38 -1.70 0.13 
12.13 1.15 -1.70 0.13 
12.15 0.92 -1.70 0.13 
12.17 0.69 -1.70 0.13 
12.18 0.46 -1.70 0.13 
12.19 0.23 -1.70 0.13 
12.19 -0.00 -1.70 0.13 
12.19 -0.23 -1.70 0.13 
12.18 -0.46 -1.70 0.13 
12.17 -0.69 -1.70 0.13 
12.16 -0.92 -1.70 0.13 
12.14 -1.15 -1.70 0.13 
12.12 -1.38 -1.70 0.13 
12.09 -1.61 -1.70 0.13 
12.06 -1.84 -1.70 0.13 
12.02 -2.07 -1.70 0.13 
11.98 -2.29 -1.70 0.13 
11.93 -2.52 -1.70 0.13 
11.88 -2.75 -1.70 0.13 
11.83 -2.97 -1.70 0.13 
11.77 -3.19 -1.70 0.13 
11.71 -3.42 -1.70 0.13 
11.64 -3.64 -1.70 0.13 
11.57 -3.86 -1.70 0.13 
11.49 -4.07 -1.70 0.13 
11.41 -4.29 -1.70 0.13 
11.33 -4.51 -1.70 0.13 
11.24 -4.72 -1.70 0.13 
11.15 -4.93 -1.70 0.13 
11.06 -5.14 -1.70 0.13 
10.96 -5.35 -1.70 0.13 
10.85 -5.56 -1.70 0.13 
10.74 -5.76 -1.70 0.13 
6.30 -3.53 -1.01 0.37 
5.98 -3.50 -0.97 0.41 
5.68 -3.47 -0.93 0.45 
5.43 -3.46 -0.90 0.55 
5.22 -3.47 -0.87 0.58 
5.05 -3.49 -0.86 0.83 
4.96 -3.58 -0.85 0.84 
4.89 -3.67 -0.85 0.87 
4.84 -3.78 -0.86 0.81 
4.81 -3.90 -0.86 0.79 
4.79 -4.03 -0.87 0.72 
4.78 -4.19 -0.89 0.56 
9.01 -8.19 -1.70 0.13 
8.85 -8.36 -1.70 0.14 
8.67 -8.51 -1.70 0.14 
8.49 -8.65 -1.69 0.14 
8.14 -8.61 -1.65 0.51 
7.75 -8.52 -1.61 0.53 
7.40 -8.45 -1.57 0.58 
7.13 -8.46 -1.54 0.13 
6.97 -8.59 -1.54 0.13 
6.80 -8.72 -1.54 0.13 
6.63 -8.85 -1.54 0.13 
6.46 -8.97 -1.54 0.13 
6.29 -9.09 -1.54 0.13 
6.12 -9.20 -1.54 0.13 
5.94 -9.32 -1.54 0.13 
5.76 -9.42 -1.54 0.13 
5.58 -9.53 -1.54 0.13 
5.40 -9.63 -1.54 0.13 
5.22 -9.73 -1.54 0.13 
5.03 -9.83 -1.54 0.13 
4.84 -9.92 -1.54 0.13 
4.65 -10.01 -1.54 0.13 
4.46 -10.09 -1.54 0.13 
4.27 -10.17 -1.54 0.13 
4.08 -10.25 -1.54 0.13 
3.88 -10.32 -1.54 0.13 
3.68 -10.39 -1.54 0.13 
3.49 -10.46 -1.54 0.13 
3.29 -10.52 -1.54 0.13 
2.38 -8.15 -1.19 0.95 
2.22 -8.17 -1.18 0.95 
2.68 -10.68 -1.54 0.13 
2.48 -10.73 -1.54 0.13 
2.28 -10.77 -1.54 0.13 
2.07 -10.81 -1.54 0.13 
1.87 -10.84 -1.54 0.13 
1.66 -10.87 -1.54 0.13 
1.45 -10.90 -1.53 0.13 
1.25 -10.92 -1.53 0.13 
1.04 -10.94 -1.53 0.13 
0.83 -10.96 -1.53 0.13 
0.62 -10.97 -1.53 0.13 
0.42 -10.98 -1.53 0.13 
0.21 -10.98 -1.53 0.13 
-0.00 -10.98 -1.53 0.13 
-0.21 -10.98 -1.53 0.13 
-0.42 -10.97 -1.53 0.13 
-0.62 -10.95 -1.53 0.13 
-0.83 -10.94 -1.53 0.13 
-1.04 -10.92 -1.53 0.13 
-1.24 -10.89 -1.53 0.13 
-1.45 -10.87 -1.53 0.13 
-1.65 -10.83 -1.53 0.13 
-1.86 -10.80 -1.53 0.13 
-2.06 -10.76 -1.53 0.13 
-2.26 -10.71 -1.53 0.13 
-2.46 -10.67 -1.53 0.13 
-2.67 -10.62 -1.53 0.13 
-2.87 -10.56 -1.53 0.13 
-3.06 -10.50 -1.53 0.13 
-3.26 -10.44 -1.53 0.13 
-3.46 -10.37 -1.53 0.13 
-3.65 -10.30 -1.53 0.13 
-3.85 -10.23 -1.53 0.13 
-4.04 -10.15 -1.52 0.13 
-4.23 -10.07 -1.52 0.13 
-4.42 -9.99 -1.52 0.13 
-4.60 -9.90 -1.52 0.13 
-4.79 -9.81 -1.52 0.13 
-4.97 -9.71 -1.52 0.13 
-5.15 -9.62 -1.52 0.13 
-5.33 -9.52 -1.52 0.13 
-5.51 -9.41 -1.52 0.13 
-5.69 -9.30 -1.52 0.13 
-5.86 -9.19 -1.52 0.13 
-6.03 -9.08 -1.52 0.13 
-6.20 -8.96 -1.52 0.13 
-6.37 -8.84 -1.52 0.13 
-6.53 -8.71 -1.52 0.13 
-6.70 -8.59 -1.52 0.13 
-6.86 -8.46 -1.52 0.13 
-7.01 -8.32 -1.52 0.13 
-7.17 -8.19 -1.52 0.13 
-7.32 -8.05 -1.52 0.13 
-7.58 -8.02 -1.54 0.63 
-7.90 -8.05 -1.57 0.61 
-8.23 -8.08 -1.61 0.60 
-8.58 -8.11 -1.65 0.59 
-8.81 -8.02 -1.66 0.14 
-8.98 -7.86 -1.67 0.14 
-9.14 -7.70 -1.67 0.13 
-9.28 -7.52 -1.67 0.13 
-9.42 -7.34 -1.67 0.13 
-9.55 -7.16 -1.67 0.13 
-9.69 -6.98 -1.67 0.13 
-9.81 -6.80 -1.67 0.13 
-9.94 -6.61 -1.67 0.13 
-10.06 -6.42 -1.67 0.13 
-10.18 -6.22 -1.67 0.13 
-10.29 -6.03 -1.66 0.13 
-10.40 -5.83 -1.66 0.13 
-10.49 -5.62 -1.66 0.13 
-10.56 -5.41 -1.66 0.14 
-10.71 -5.23 -1.66 0.13 
-10.81 -5.03 -1.66 0.13 
-10.90 -4.82 -1.66 0.13 
-10.99 -4.61 -1.66 0.13 
-11.07 -4.40 -1.66 0.13 
-11.15 -4.19 -1.66 0.13 
-11.23 -3.98 -1.66 0.13 
-11.30 -3.77 -1.66 0.13 
-11.37 -3.55 -1.66 0.13 
-11.43 -3.33 -1.66 0.13 
-11.49 -3.12 -1.66 0.13 
-11.55 -2.90 -1.66 0.13 
-11.60 -2.68 -1.66 0.13 
-11.64 -2.46 -1.66 0.13 
-11.69 -2.24 -1.66 0.13 
-11.73 -2.02 -1.66 0.13 
-10.72 -1.64 -1.51 0.71 
-10.74 -1.43 -1.51 0.71 
-11.82 -1.35 -1.66 0.13 
-11.84 -1.12 -1.66 0.13 
-11.86 -0.90 -1.66 0.13 
-11.87 -0.67 -1.66 0.13 
-11.88 -0.45 -1.66 0.13 
-11.89 -0.22 -1.66 0.13 
-11.79 0.00 -1.66 0.13 
-10.96 0.21 -1.54 0.41 
-10.99 0.42 -1.55 0.41 
-11.77 0.67 -1.66 0.13 
-11.75 0.89 -1.66 0.13 
-11.73 1.11 -1.66 0.13 
-11.71 1.34 -1.66 0.13 
-11.68 1.56 -1.66 0.13 
-11.65 1.78 -1.66 0.13 
-11.61 2.00 -1.66 0.13 
-11.57 2.22 -1.66 0.13 
-11.53 2.44 -1.66 0.13 
-11.48 2.65 -1.66 0.13 
-11.43 2.87 -1.66 0.13 
-11.37 3.09 -1.66 0.13 
-11.31 3.30 -1.66 0.13 
-11.25 3.51 -1.66 0.13 
-11.18 3.73 -1.66 0.13 
-11.11 3.94 -1.66 0.13 
-11.03 4.15 -1.66 0.13 
-10.95 4.36 -1.66 0.13 
-10.87 4.56 -1.66 0.13 
-10.78 4.77 -1.66 0.13 
-10.69 4.97 -1.66 0.13 
-10.59 5.17 -1.66 0.13 
-10.49 5.37 -1.66 0.13 
-10.39 5.57 -1.66 0.13 
-10.28 5.77 -1.66 0.13 
-10.17 5.96 -1.66 0.13 
-10.06 6.15 -1.66 0.13 
-9.94 6.34 -1.66 0.13 
-9.82 6.53 -1.66 0.13 
-9.70 6.71 -1.66 0.13 
-7.88 5.68 -1.37 0.63 
-7.61 5.71 -1.34 0.65 
-7.35 5.74 -1.31 0.66 
-7.15 5.80 -1.30 0.78 
-6.97 5.87 -1.28 0.95 
-8.88 7.77 -1.66 0.13 
-8.73 7.94 -1.66 0.13 
-7.95 7.51 -1.54 0.72 
-7.68 7.54 -1.52 0.73 
-7.56 7.70 -1.52 0.42 
-8.11 8.58 -1.66 0.13 
-7.95 8.74 -1.66 0.13 
-7.78 8.89 -1.66 0.13 
-7.61 9.03 -1.66 0.13 
-7.44 9.18 -1.66 0.13 
-7.27 9.32 -1.66 0.13 
-7.09 9.46 -1.66 0.13 
-6.91 9.59 -1.66 0.13 
-6.73 9.72 -1.66 0.13 
-6.55 9.85 -1.66 0.13 
-6.36 9.97 -1.67 0.13 
-6.17 10.09 -1.67 0.13 
-5.98 10.21 -1.67 0.13 
-5.79 10.32 -1.67 0.13 
-5.59 10.43 -1.67 0.13 
-5.39 10.54 -1.67 0.13 
-5.19 10.64 -1.67 0.13 
-4.99 10.74 -1.67 0.13 
-4.79 10.83 -1.67 0.15 
-4.58 10.91 -1.67 0.15 
-4.37 10.99 -1.67 0.15 
-4.16 11.07 -1.66 0.15 
-3.95 11.14 -1.66 0.15 
-3.74 11.21 -1.66 0.15 
-3.52 11.28 -1.66 0.15 
-3.31 11.34 -1.66 0.15 
-3.09 11.37 -1.66 0.93 
-2.86 11.38 -1.65 0.93 
-2.63 11.39 -1.65 0.94 
-2.41 11.40 -1.64 0.94 
-2.18 11.41 -1.64 0.94 
-1.96 11.41 -1.63 0.94 
-1.74 11.42 -1.63 0.94 
-1.52 11.42 -1.62 0.95 
-1.30 11.42 -1.62 0.95 
-1.08 11.43 -1.62 0.95 
-0.87 11.43 -1.61 0.95 
-0.65 11.43 -1.61 0.95 
-0.43 11.43 -1.61 0.95 
-0.22 11.42 -1.61 0.95 
-0.00 11.42 -1.61 0.95 
0.22 11.42 -1.61 0.95 
0.43 11.42 -1.61 0.95 
0.65 11.41 -1.61 0.95 
0.86 11.40 -1.61 0.95 
1.08 11.39 -1.61 0.95 
1.30 11.39 -1.61 0.95 
1.52 11.38 -1.62 0.95 
1.73 11.37 -1.62 0.95 
1.95 11.36 -1.62 0.95 
2.17 11.34 -1.63 0.94 
2.39 11.33 -1.63 0.94 
2.62 11.32 -1.64 0.94 
2.84 11.30 -1.64 0.94 
3.06 11.28 -1.65 0.94 
3.29 11.27 -1.65 0.93 
3.51 11.25 -1.66 0.93 
3.74 11.23 -1.67 0.92 
3.97 11.21 -1.67 0.92 
4.19 11.14 -1.68 0.15 
4.40 11.07 -1.68 0.15 
4.62 11.00 -1.68 0.15 
4.83 10.92 -1.68 0.15 
5.04 10.83 -1.68 0.15 
5.25 10.74 -1.68 0.15 
5.45 10.65 -1.68 0.15 
5.66 10.55 -1.69 0.13 
5.86 10.45 -1.69 0.13 
6.06 10.34 -1.69 0.13 
6.25 10.22 -1.69 0.13 
6.45 10.11 -1.69 0.13 
6.64 9.98 -1.69 0.13 
6.83 9.86 -1.69 0.13 
7.01 9.73 -1.69 0.13 
7.20 9.60 -1.69 0.13 
7.38 9.46 -1.69 0.13 
7.56 9.32 -1.69 0.13 
7.74 9.18 -1.69 0.13 
7.91 9.03 -1.69 0.13 
8.08 8.88 -1.69 0.13 
8.25 8.73 -1.69 0.13 
8.41 8.58 -1.69 0.13 
8.58 8.42 -1.69 0.13 
8.74 8.25 -1.69 0.13 
8.89 8.09 -1.69 0.13 
9.05 7.92 -1.69 0.13 
9.20 7.75 -1.69 0.13 
9.34 7.58 -1.69 0.13 
9.49 7.40 -1.69 0.13 
9.63 7.22 -1.69 0.13 
9.76 7.04 -1.69 0.13 
9.90 6.85 -1.69 0.13 
10.03 6.67 -1.70 0.13 
10.15 6.48 -1.70 0.13 
10.28 6.28 -1.70 0.13 
10.39 6.09 -1.70 0.13 
10.51 5.89 -1.70 0.13 
10.62 5.69 -1.70 0.13 
10.73 5.49 -1.70 0.13 
10.83 5.29 -1.70 0.13 
10.93 5.08 -1.70 0.13 
11.03 4.88 -1.70 0.13 
11.12 4.67 -1.70 0.13 
11.21 4.46 -1.70 0.13 
11.29 4.24 -1.70 0.13 
11.37 4.03 -1.70 0.13 
11.45 3.82 -1.70 0.13 
11.52 3.60 -1.70 0.13 
11.59 3.38 -1.70 0.13 
11.65 3.16 -1.70 0.13 
11.71 2.94 -1.70 0.13 
11.76 2.72 -1.70 0.13 
11.81 2.50 -1.70 0.13 
11.86 2.27 -1.70 0.13 
11.90 2.05 -1.70 0.13 
11.94 1.82 -1.70 0.13 
11.97 1.60 -1.70 0.13 
12.00 1.37 -1.70 0.13 
12.03 1.14 -1.70 0.13 
12.05 0.91 -1.70 0.13 
12.06 0.69 -1.70 0.13 
12.07 0.46 -1.70 0.13 
12.08 0.23 -1.70 0.13 
12.09 -0.00 -1.70 0.13 
12.08 -0.23 -1.70 0.13 
12.08 -0.46 -1.70 0.13 
12.07 -0.69 -1.70 0.13 
12.05 -0.91 -1.70 0.13 
12.03 -1.14 -1.70 0.13 
12.01 -1.37 -1.70 0.13 
11.98 -1.60 -1.70 0.13 
11.95 -1.82 -1.70 0.13 
11.91 -2.05 -1.70 0.13 
11.87 -2.27 -1.70 0.13 
11.83 -2.50 -1.70 0.13 
11.78 -2.72 -1.70 0.13 
11.73 -2.94 -1.70 0.13 
11.67 -3.17 -1.70 0.13 
11.61 -3.39 -1.70 0.13 
11.54 -3.60 -1.70 0.13 
11.47 -3.82 -1.70 0.13 
11.39 -4.04 -1.70 0.13 
11.31 -4.25 -1.70 0.13 
11.23 -4.47 -1.70 0.13 
11.14 -4.68 -1.70 0.13 
11.05 -4.89 -1.70 0.13 
10.96 -5.10 -1.70 0.13 
10.86 -5.30 -1.70 0.13 
10.76 -5.51 -1.70 0.13 
10.65 -5.71 -1.70 0.13 
6.30 -3.53 -1.02 0.37 
5.97 -3.50 -0.97 0.41 
5.68 -3.47 -0.94 0.45 
5.43 -3.46 -0.91 0.55 
5.22 -3.47 -0.88 0.58 
5.05 -3.49 -0.86 0.83 
4.96 -3.57 -0.86 0.84 
4.88 -3.66 -0.86 0.87 
4.84 -3.77 -0.86 0.81 
4.80 -3.89 -0.87 0.79 
4.78 -4.03 -0.88 0.72 
4.78 -4.18 -0.89 0.56 
8.93 -8.12 -1.70 0.13 
8.77 -8.29 -1.70 0.13 
8.60 -8.44 -1.70 0.14 
8.42 -8.58 -1.69 0.14 
8.13 -8.61 -1.67 0.51 
7.75 -8.52 -1.62 0.53 
7.39 -8.44 -1.58 0.58 
7.07 -8.39 -1.54 0.50 
6.90 -8.52 -1.54 0.13 
6.74 -8.64 -1.54 0.13 
6.58 -8.77 -1.54 0.13 
6.41 -8.89 -1.54 0.13 
6.24 -9.01 -1.54 0.13 
6.06 -9.12 -1.54 0.13 
5.89 -9.23 -1.54 0.13 
5.71 -9.34 -1.54 0.13 
5.53 -9.45 -1.54 0.13 
5.35 -9.55 -1.54 0.13 
5.17 -9.65 -1.54 0.13 
4.99 -9.74 -1.54 0.13 
4.80 -9.83 -1.54 0.13 
4.61 -9.92 -1.54 0.13 
4.42 -10.00 -1.54 0.13 
4.23 -10.08 -1.54 0.13 
4.04 -10.16 -1.54 0.13 
3.85 -10.23 -1.54 0.13 
3.65 -10.30 -1.54 0.13 
3.45 -10.36 -1.54 0.13 
3.26 -10.43 -1.54 0.13 
2.38 -8.15 -1.20 0.95 
2.22 -8.17 -1.19 0.95 
2.66 -10.59 -1.54 0.13 
2.46 -10.63 -1.54 0.13 
2.26 -10.68 -1.54 0.13 
2.05 -10.71 -1.54 0.13 
1.85 -10.75 -1.54 0.13 
1.64 -10.78 -1.54 0.13 
1.44 -10.81 -1.53 0.13 
1.24 -10.83 -1.53 0.13 
1.03 -10.85 -1.53 0.13 
0.82 -10.86 -1.53 0.13 
0.62 -10.87 -1.53 0.13 
0.41 -10.88 -1.53 0.13 
0.21 -10.88 -1.53 0.13 
-0.00 -10.88 -1.53 0.13 
-0.21 -10.88 -1.53 0.13 
-0.41 -10.87 -1.53 0.13 
-0.62 -10.86 -1.53 0.13 
-0.82 -10.84 -1.53 0.13 
-1.03 -10.82 -1.53 0.13 
-1.23 -10.80 -1.53 0.13 
-1.44 -10.77 -1.53 0.13 
-1.64 -10.74 -1.53 0.13 
-1.84 -10.70 -1.53 0.13 
-2.04 -10.66 -1.53 0.13 
-2.24 -10.62 -1.53 0.13 
-2.44 -10.57 -1.53 0.13 
-2.64 -10.52 -1.53 0.13 
-2.84 -10.47 -1.53 0.13 
-3.04 -10.41 -1.53 0.13 
-3.23 -10.35 -1.53 0.13 
-3.43 -10.28 -1.53 0.13 
-3.62 -10.21 -1.53 0.13 
-3.81 -10.14 -1.53 0.13 
-4.00 -10.07 -1.52 0.13 
-4.19 -9.99 -1.52 0.13 
-4.38 -9.90 -1.52 0.13 
-4.56 -9.82 -1.52 0.13 
-4.75 -9.72 -1.52 0.13 
-4.93 -9.63 -1.52 0.13 
-5.11 -9.53 -1.52 0.13 
-5.29 -9.43 -1.52 0.13 
-5.47 -9.33 -1.52 0.13 
-5.64 -9.22 -1.52 0.13 
-5.81 -9.11 -1.52 0.13 
-5.98 -9.00 -1.52 0.13 
-6.15 -8.88 -1.52 0.13 
-6.31 -8.76 -1.52 0.13 
-6.48 -8.64 -1.52 0.13 
-6.64 -8.51 -1.52 0.13 
-6.80 -8.38 -1.52 0.13 
-6.95 -8.25 -1.52 0.13 
-7.11 -8.12 -1.52 0.13 
-7.27 -7.99 -1.52 0.54 
-7.57 -8.02 -1.55 0.63 
-7.89 -8.05 -1.59 0.61 
-8.23 -8.07 -1.62 0.60 
-8.58 -8.10 -1.66 0.14 
-8.74 -7.95 -1.66 0.14 
-8.90 -7.80 -1.67 0.14 
-9.06 -7.63 -1.67 0.13 
-9.20 -7.46 -1.67 0.13 
-9.34 -7.28 -1.67 0.13 
-9.47 -7.10 -1.67 0.13 
-9.60 -6.92 -1.67 0.13 
-9.73 -6.74 -1.67 0.13 
-9.85 -6.55 -1.67 0.13 
-9.97 -6.36 -1.67 0.13 
-10.09 -6.17 -1.67 0.13 
-10.20 -5.98 -1.66 0.13 
-10.31 -5.78 -1.66 0.13 
-10.40 -5.58 -1.66 0.13 
-10.48 -5.36 -1.66 0.14 
-10.62 -5.19 -1.66 0.13 
-10.71 -4.98 -1.66 0.13 
-10.81 -4.78 -1.66 0.13 
-10.89 -4.57 -1.66 0.13 
-10.98 -4.36 -1.66 0.13 
-11.05 -4.16 -1.66 0.13 
-11.13 -3.95 -1.66 0.13 
-11.20 -3.73 -1.66 0.13 
-11.27 -3.52 -1.66 0.13 
-11.33 -3.31 -1.66 0.13 
-11.39 -3.09 -1.66 0.13 
-11.45 -2.87 -1.66 0.13 
-11.50 -2.66 -1.66 0.13 
-11.54 -2.44 -1.66 0.13 
-11.59 -2.22 -1.66 0.13 
-11.63 -2.00 -1.66 0.13 
-10.74 -1.64 -1.53 0.41 
-10.76 -1.43 -1.53 0.41 
-11.72 -1.34 -1.66 0.13 
-11.74 -1.11 -1.66 0.13 
-11.76 -0.89 -1.66 0.13 
-11.77 -0.67 -1.66 0.13 
-11.78 -0.45 -1.66 0.13 
-11.79 -0.22 -1.66 0.13 
-11.69 0.00 -1.66 0.14 
-10.99 0.21 -1.56 0.41 
-11.02 0.42 -1.57 0.41 
-11.67 0.66 -1.66 0.14 
-11.65 0.88 -1.66 0.14 
-11.63 1.10 -1.66 0.14 
-11.61 1.32 -1.66 0.14 
-11.58 1.54 -1.66 0.14 
-11.55 1.76 -1.66 0.14 
-11.52 1.98 -1.66 0.14 
-11.48 2.20 -1.66 0.14 
-11.43 2.42 -1.66 0.14 
-11.39 2.63 -1.66 0.14 
-11.33 2.85 -1.66 0.14 
-11.28 3.06 -1.66 0.14 
-11.22 3.27 -1.66 0.14 
-11.15 3.48 -1.66 0.14 
-11.09 3.70 -1.66 0.14 
-11.01 3.90 -1.66 0.14 
-10.94 4.11 -1.66 0.14 
-10.86 4.32 -1.66 0.14 
-10.78 4.52 -1.66 0.14 
-10.69 4.73 -1.66 0.14 
-10.60 4.93 -1.66 0.14 
-10.50 5.13 -1.66 0.14 
-10.41 5.33 -1.66 0.14 
-10.30 5.52 -1.66 0.14 
-10.20 5.72 -1.66 0.14 
-10.09 5.91 -1.66 0.14 
-9.98 6.10 -1.66 0.14 
-9.86 6.29 -1.66 0.14 
-9.74 6.47 -1.66 0.14 
-9.62 6.66 -1.66 0.14 
-7.88 5.68 -1.38 0.63 
-7.61 5.71 -1.35 0.65 
-7.35 5.74 -1.32 0.66 
-7.15 5.80 -1.31 0.78 
-8.95 7.54 -1.66 0.14 
-8.80 7.71 -1.66 0.14 
-8.66 7.88 -1.66 0.14 
-7.95 7.51 -1.55 0.72 
-7.68 7.54 -1.53 0.73 
-7.57 7.71 -1.53 0.41 
-8.04 8.51 -1.66 0.14 
-7.88 8.66 -1.66 0.14 
-7.72 8.81 -1.66 0.14 
-7.55 8.96 -1.66 0.14 
-7.38 9.10 -1.66 0.14 
-7.21 9.24 -1.66 0.14 
-7.03 9.38 -1.66 0.14 
-6.85 9.51 -1.66 0.14 
-6.67 9.64 -1.66 0.14 
-6.49 9.76 -1.66 0.14 
-6.31 9.89 -1.67 0.14 
-6.12 10.01 -1.67 0.14 
-5.93 10.12 -1.67 0.14 
-5.74 10.23 -1.67 0.14 
-5.54 10.34 -1.67 0.14 
-5.35 10.45 -1.67 0.14 
-5.15 10.55 -1.67 0.14 
-4.95 10.65 -1.67 0.14 
-4.75 10.74 -1.67 0.14 
-4.55 10.83 -1.67 0.14 
-4.34 10.91 -1.67 0.15 
-4.13 10.99 -1.67 0.15 
-3.92 11.06 -1.67 0.15 
-3.71 11.13 -1.67 0.15 
-3.50 11.19 -1.66 0.15 
-3.28 11.25 -1.66 0.15 
-3.07 11.31 -1.66 0.15 
-2.85 11.36 -1.66 0.15 
-2.63 11.39 -1.66 0.94 
-2.41 11.40 -1.65 0.94 
-2.18 11.40 -1.65 0.94 
-1.96 11.41 -1.64 0.94 
-1.74 11.41 -1.64 0.94 
-1.52 11.42 -1.64 0.95 
-1.30 11.42 -1.63 0.95 
-1.08 11.42 -1.63 0.95 
-0.87 11.43 -1.63 0.95 
-0.65 11.43 -1.62 0.95 
-0.43 11.42 -1.62 0.95 
-0.22 11.42 -1.62 0.95 
0.00 11.42 -1.62 0.95 
0.22 11.42 -1.62 0.95 
0.43 11.41 -1.62 0.95 
0.65 11.41 -1.62 0.95 
0.86 11.40 -1.62 0.95 
1.08 11.39 -1.62 0.95 
1.30 11.38 -1.63 0.95 
1.52 11.38 -1.63 0.95 
1.73 11.37 -1.63 0.95 
1.95 11.35 -1.64 0.95 
2.17 11.34 -1.64 0.94 
2.39 11.33 -1.64 0.94 
2.61 11.32 -1.65 0.94 
2.84 11.30 -1.65 0.94 
3.06 11.28 -1.66 0.94 
3.29 11.26 -1.67 0.93 
3.51 11.25 -1.67 0.93 
3.73 11.19 -1.68 0.15 
3.94 11.13 -1.68 0.15 
4.16 11.06 -1.68 0.15 
4.37 10.99 -1.68 0.15 
4.58 10.91 -1.68 0.15 
4.79 10.83 -1.68 0.15 
5.00 10.75 -1.68 0.15 
5.20 10.66 -1.68 0.15 
5.41 10.56 -1.69 0.13 
5.61 10.46 -1.69 0.13 
5.81 10.36 -1.69 0.13 
6.00 10.25 -1.69 0.13 
6.20 10.14 -1.69 0.13 
6.39 10.02 -1.69 0.13 
6.58 9.90 -1.69 0.13 
6.77 9.77 -1.69 0.13 
6.95 9.65 -1.69 0.13 
7.14 9.51 -1.69 0.13 
7.32 9.38 -1.69 0.13 
7.49 9.24 -1.69 0.13 
7.67 9.10 -1.69 0.13 
7.84 8.96 -1.69 0.13 
8.01 8.81 -1.69 0.13 
8.18 8.66 -1.69 0.13 
8.34 8.50 -1.69 0.13 
8.50 8.34 -1.69 0.13 
8.66 8.18 -1.69 0.13 
8.82 8.02 -1.69 0.13 
8.97 7.85 -1.69 0.13 
9.12 7.68 -1.69 0.13 
9.26 7.51 -1.69 0.13 
9.40 7.34 -1.69 0.13 
9.54 7.16 -1.69 0.13 
9.68 6.98 -1.69 0.13 
9.81 6.79 -1.69 0.13 
9.94 6.61 -1.69 0.13 
10.06 6.42 -1.70 0.13 
10.19 6.23 -1.70 0.13 
10.30 6.04 -1.70 0.13 
10.42 5.84 -1.70 0.13 
10.53 5.64 -1.70 0.13 
10.64 5.44 -1.70 0.13 
10.74 5.24 -1.70 0.13 
10.84 5.04 -1.70 0.13 
10.93 4.83 -1.70 0.13 
11.02 4.63 -1.70 0.13 
11.11 4.42 -1.70 0.13 
11.19 4.21 -1.70 0.13 
11.27 4.00 -1.70 0.13 
11.35 3.78 -1.70 0.13 
11.42 3.57 -1.70 0.13 
11.49 3.35 -1.70 0.13 
11.55 3.13 -1.70 0.13 
11.61 2.91 -1.70 0.13 
11.66 2.69 -1.70 0.13 
11.71 2.47 -1.70 0.13 
11.76 2.25 -1.70 0.13 
11.80 2.03 -1.70 0.13 
11.84 1.81 -1.70 0.13 
11.87 1.58 -1.70 0.13 
11.90 1.36 -1.70 0.13 
11.92 1.13 -1.70 0.13 
11.94 0.91 -1.70 0.13 
11.96 0.68 -1.70 0.13 
11.97 0.45 -1.70 0.13 
11.98 0.23 -1.70 0.13 
11.98 0.00 -1.70 0.13 
11.98 -0.23 -1.70 0.13 
11.97 -0.45 -1.70 0.13 
11.96 -0.68 -1.70 0.13 
11.95 -0.91 -1.70 0.13 
11.93 -1.13 -1.70 0.13 
11.91 -1.36 -1.70 0.13 
11.88 -1.58 -1.70 0.13 
11.85 -1.81 -1.70 0.13 
11.81 -2.03 -1.70 0.13 
11.77 -2.25 -1.70 0.13 
11.73 -2.48 -1.70 0.13 
11.68 -2.70 -1.70 0.13 
11.62 -2.92 -1.70 0.13 
11.57 -3.14 -1.70 0.13 
11.50 -3.36 -1.70 0.13 
11.44 -3.57 -1.70 0.13 
11.37 -3.79 -1.70 0.13 
11.29 -4.00 -1.70 0.13 
11.22 -4.22 -1.70 0.13 
11.13 -4.43 -1.70 0.13 
11.05 -4.64 -1.70 0.13 
10.96 -4.85 -1.70 0.13 
10.86 -5.05 -1.70 0.13 
10.77 -5.26 -1.70 0.13 
10.66 -5.46 -1.70 0.13 
6.69 -3.59 -1.08 0.25 
6.29 -3.53 -1.02 0.37 
5.97 -3.50 -0.98 0.41 
5.68 -3.47 -0.94 0.45 
5.43 -3.46 -0.91 0.55 
5.22 -3.47 -0.89 0.58 
5.04 -3.49 -0.87 0.83 
4.96 -3.57 -0.87 0.84 
4.88 -3.66 -0.87 0.87 
4.83 -3.77 -0.87 0.81 
4.80 -3.89 -0.88 0.79 
4.78 -4.03 -0.89 0.72 
4.77 -4.18 -0.90 0.56 
8.85 -8.05 -1.70 0.13 
8.70 -8.22 -1.70 0.13 
8.53 -8.37 -1.70 0.14 
8.35 -8.51 -1.69 0.14 
8.13 -8.60 -1.68 0.51 
7.74 -8.51 -1.63 0.53 
7.39 -8.44 -1.59 0.58 
7.06 -8.38 -1.56 0.59 
6.84 -8.44 -1.54 0.13 
6.68 -8.57 -1.54 0.13 
6.52 -8.69 -1.54 0.13 
6.35 -8.81 -1.54 0.13 
6.18 -8.93 -1.54 0.13 
6.01 -9.04 -1.54 0.13 
5.84 -9.15 -1.54 0.13 
5.66 -9.26 -1.54 0.13 
5.49 -9.37 -1.54 0.13 
5.31 -9.47 -1.54 0.13 
5.13 -9.56 -1.54 0.13 
4.94 -9.66 -1.54 0.13 
4.76 -9.75 -1.54 0.13 
4.57 -9.83 -1.54 0.13 
4.38 -9.92 -1.54 0.13 
4.20 -9.99 -1.54 0.13 
4.00 -10.07 -1.54 0.13 
3.81 -10.14 -1.54 0.13 
3.62 -10.21 -1.54 0.13 
3.42 -10.28 -1.54 0.13 
3.23 -10.34 -1.54 0.13 
2.38 -8.15 -1.21 0.95 
2.22 -8.17 -1.20 0.95 
2.64 -10.50 -1.54 0.13 
2.44 -10.54 -1.54 0.13 
2.24 -10.58 -1.54 0.13 
2.03 -10.62 -1.54 0.13 
1.83 -10.66 -1.54 0.13 
1.63 -10.69 -1.54 0.13 
1.43 -10.71 -1.53 0.13 
1.22 -10.74 -1.53 0.13 
1.02 -10.75 -1.53 0.13 
0.82 -10.77 -1.53 0.13 
0.61 -10.78 -1.53 0.13 
0.41 -10.79 -1.53 0.13 
0.20 -10.79 -1.53 0.13 
-0.00 -10.79 -1.53 0.13 
-0.20 -10.79 -1.53 0.13 
-0.41 -10.78 -1.53 0.13 
-0.61 -10.77 -1.53 0.13 
-0.82 -10.75 -1.53 0.13 
-1.02 -10.73 -1.53 0.13 
-1.22 -10.71 -1.53 0.13 
-1.42 -10.68 -1.53 0.13 
-1.62 -10.65 -1.53 0.13 
-1.83 -10.61 -1.53 0.13 
-2.03 -10.57 -1.53 0.13 
-2.22 -10.53 -1.53 0.13 
-2.42 -10.48 -1.53 0.13 
-2.62 -10.43 -1.53 0.13 
-2.82 -10.38 -1.53 0.13 
-3.01 -10.32 -1.53 0.13 
-3.21 -10.26 -1.53 0.13 
-3.40 -10.20 -1.53 0.13 
-3.59 -10.13 -1.53 0.13 
-3.78 -10.06 -1.53 0.13 
-3.97 -9.98 -1.52 0.13 
-4.16 -9.90 -1.52 0.13 
-4.34 -9.82 -1.52 0.13 
-4.53 -9.73 -1.52 0.14 
-4.71 -9.64 -1.52 0.14 
-4.89 -9.55 -1.52 0.14 
-5.07 -9.45 -1.52 0.14 
-5.24 -9.35 -1.52 0.14 
-5.42 -9.25 -1.52 0.14 
-5.59 -9.14 -1.52 0.14 
-5.76 -9.03 -1.52 0.14 
-5.93 -8.92 -1.52 0.14 
-6.10 -8.81 -1.52 0.14 
-6.26 -8.69 -1.52 0.14 
-6.42 -8.56 -1.52 0.14 
-6.58 -8.44 -1.52 0.14 
-6.74 -8.31 -1.52 0.14 
-6.89 -8.18 -1.52 0.14 
-7.05 -8.05 -1.52 0.14 
-7.27 -7.99 -1.53 0.64 
-7.57 -8.01 -1.57 0.63 
-7.89 -8.04 -1.60 0.61 
-8.23 -8.07 -1.64 0.60 
-8.51 -8.04 -1.66 0.14 
-8.67 -7.89 -1.66 0.14 
-8.83 -7.73 -1.67 0.14 
-8.98 -7.57 -1.67 0.14 
-9.12 -7.40 -1.67 0.14 
-9.26 -7.22 -1.67 0.14 
-9.39 -7.04 -1.67 0.14 
-9.52 -6.86 -1.67 0.14 
-9.65 -6.68 -1.67 0.14 
-9.77 -6.49 -1.67 0.14 
-9.89 -6.31 -1.67 0.14 
-10.01 -6.12 -1.67 0.14 
-10.12 -5.93 -1.66 0.14 
-10.23 -5.73 -1.66 0.14 
-10.33 -5.54 -1.66 0.14 
-10.39 -5.32 -1.66 0.14 
-10.53 -5.14 -1.66 0.14 
-10.62 -4.94 -1.66 0.14 
-10.71 -4.74 -1.66 0.14 
-10.80 -4.53 -1.66 0.14 
-10.88 -4.33 -1.66 0.14 
-10.96 -4.12 -1.66 0.14 
-11.04 -3.91 -1.66 0.14 
-11.11 -3.70 -1.66 0.14 
-11.17 -3.49 -1.66 0.14 
-11.24 -3.28 -1.66 0.14 
-11.29 -3.06 -1.66 0.14 
-11.35 -2.85 -1.66 0.14 
-11.40 -2.63 -1.66 0.14 
-11.45 -2.42 -1.66 0.14 
-11.49 -2.20 -1.66 0.14 
-11.53 -1.98 -1.66 0.14 
-10.76 -1.64 -1.55 0.41 
-10.78 -1.44 -1.54 0.41 
-11.62 -1.33 -1.66 0.14 
-11.64 -1.10 -1.66 0.14 
-11.66 -0.88 -1.66 0.14 
-11.67 -0.66 -1.66 0.14 
-11.68 -0.44 -1.66 0.14 
-11.69 -0.22 -1.66 0.14 
-11.59 -0.00 -1.66 0.14 
-11.01 0.21 -1.58 0.41 
-11.04 0.42 -1.58 0.41 
-11.57 0.66 -1.66 0.14 
-11.56 0.88 -1.66 0.14 
-11.54 1.09 -1.66 0.14 
-11.51 1.31 -1.66 0.14 
-11.49 1.53 -1.66 0.14 
-11.45 1.75 -1.66 0.14 
-11.42 1.96 -1.66 0.14 
-11.38 2.18 -1.66 0.14 
-11.34 2.39 -1.66 0.14 
-11.29 2.61 -1.66 0.14 
-11.24 2.82 -1.66 0.14 
-11.18 3.03 -1.66 0.14 
-11.12 3.25 -1.66 0.14 
-11.06 3.46 -1.66 0.14 
-10.99 3.66 -1.66 0.14 
-10.92 3.87 -1.66 0.14 
-10.85 4.08 -1.66 0.14 
-10.77 4.28 -1.66 0.14 
-10.69 4.49 -1.66 0.14 
-10.60 4.69 -1.66 0.14 
-10.51 4.89 -1.66 0.14 
-10.42 5.09 -1.66 0.14 
-10.32 5.28 -1.66 0.14 
-10.22 5.48 -1.66 0.14 
-10.11 5.67 -1.66 0.14 
-10.00 5.86 -1.66 0.14 
-9.89 6.05 -1.66 0.14 
-9.78 6.24 -1.66 0.14 
-9.66 6.42 -1.66 0.14 
-9.53 6.60 -1.66 0.14 
-7.88 5.68 -1.39 0.63 
-7.61 5.71 -1.36 0.65 
-7.35 5.74 -1.34 0.66 
-7.28 5.90 -1.34 0.63 
-8.87 7.48 -1.66 0.14 
-8.73 7.64 -1.66 0.14 
-8.58 7.81 -1.66 0.14 
-7.95 7.51 -1.57 0.72 
-7.68 7.54 -1.54 0.73 
-7.59 7.74 -1.55 0.21 
-7.97 8.44 -1.66 0.14 
-7.81 8.59 -1.66 0.14 
-7.65 8.74 -1.66 0.14 
-7.48 8.88 -1.66 0.14 
-7.32 9.02 -1.66 0.14 
-7.15 9.16 -1.66 0.14 
-6.97 9.30 -1.66 0.14 
-6.80 9.43 -1.66 0.14 
-6.62 9.56 -1.66 0.14 
-6.44 9.68 -1.67 0.14 
-6.25 9.80 -1.67 0.14 
-6.07 9.92 -1.67 0.14 
-5.88 10.04 -1.67 0.14 
-5.69 10.15 -1.67 0.14 
-5.50 10.26 -1.67 0.14 
-5.30 10.36 -1.67 0.14 
-5.11 10.46 -1.67 0.14 
-4.91 10.56 -1.67 0.14 
-4.71 10.65 -1.67 0.14 
-4.51 10.74 -1.67 0.14 
-4.30 10.82 -1.67 0.14 
-4.10 10.90 -1.67 0.15 
-3.89 10.97 -1.67 0.15 
-3.68 11.04 -1.67 0.15 
-3.47 11.10 -1.67 0.15 
-3.26 11.17 -1.67 0.15 
-3.04 11.22 -1.67 0.15 
-2.83 11.27 -1.66 0.15 
-2.62 11.32 -1.66 0.15 
-2.40 11.37 -1.66 0.15 
-2.18 11.40 -1.66 0.94 
-1.96 11.41 -1.66 0.94 
-1.74 11.41 -1.65 0.94 
-1.52 11.41 -1.65 0.95 
-1.30 11.42 -1.65 0.95 
-1.08 11.42 -1.64 0.95 
-0.87 11.42 -1.64 0.95 
-0.65 11.42 -1.64 0.95 
-0.43 11.42 -1.64 0.95 
-0.22 11.42 -1.64 0.95 
-0.00 11.42 -1.64 0.95 
0.22 11.41 -1.64 0.95 
0.43 11.41 -1.64 0.95 
0.65 11.40 -1.64 0.95 
0.86 11.40 -1.64 0.95 
1.08 11.39 -1.64 0.95 
1.30 11.38 -1.64 0.95 
1.52 11.37 -1.64 0.95 
1.73 11.36 -1.65 0.95 
1.95 11.35 -1.65 0.95 
2.17 11.34 -1.65 0.95 
2.39 11.33 -1.66 0.94 
2.61 11.31 -1.66 0.94 
2.84 11.30 -1.67 0.94 
3.06 11.28 -1.67 0.15 
3.27 11.22 -1.67 0.15 
3.49 11.17 -1.68 0.15 
3.70 11.11 -1.68 0.15 
3.91 11.04 -1.68 0.15 
4.13 10.97 -1.68 0.15 
4.34 10.90 -1.68 0.15 
4.54 10.83 -1.68 0.15 
4.75 10.75 -1.68 0.15 
4.96 10.66 -1.68 0.15 
5.16 10.57 -1.68 0.13 
5.36 10.47 -1.69 0.13 
5.56 10.37 -1.69 0.13 
5.76 10.27 -1.69 0.13 
5.95 10.16 -1.69 0.13 
6.14 10.05 -1.69 0.13 
6.34 9.93 -1.69 0.13 
6.52 9.81 -1.69 0.13 
6.71 9.69 -1.69 0.13 
6.89 9.56 -1.69 0.13 
7.07 9.43 -1.69 0.13 
7.25 9.30 -1.69 0.13 
7.43 9.16 -1.69 0.13 
7.60 9.02 -1.69 0.13 
7.77 8.88 -1.69 0.13 
7.94 8.73 -1.69 0.13 
8.11 8.58 -1.69 0.13 
8.27 8.43 -1.69 0.13 
8.43 8.27 -1.69 0.13 
8.59 8.11 -1.69 0.13 
8.74 7.95 -1.69 0.13 
8.89 7.79 -1.69 0.13 
9.04 7.62 -1.69 0.13 
9.18 7.45 -1.69 0.13 
9.32 7.27 -1.69 0.13 
9.46 7.10 -1.69 0.13 
9.60 6.92 -1.69 0.13 
9.73 6.74 -1.69 0.13 
9.85 6.55 -1.69 0.13 
9.98 6.36 -1.70 0.13 
10.10 6.18 -1.70 0.13 
10.22 5.98 -1.70 0.13 
10.33 5.79 -1.70 0.13 
10.44 5.60 -1.70 0.13 
10.54 5.40 -1.70 0.13 
10.65 5.20 -1.70 0.13 
10.74 5.00 -1.70 0.13 
10.84 4.79 -1.70 0.13 
10.93 4.59 -1.70 0.13 
11.01 4.38 -1.70 0.13 
11.10 4.17 -1.70 0.13 
11.18 3.96 -1.70 0.13 
11.25 3.75 -1.70 0.13 
11.32 3.54 -1.70 0.13 
11.39 3.32 -1.70 0.13 
11.45 3.11 -1.70 0.13 
11.51 2.89 -1.70 0.13 
11.56 2.67 -1.70 0.13 
11.61 2.45 -1.70 0.13 
11.66 2.23 -1.70 0.13 
11.70 2.01 -1.70 0.13 
11.73 1.79 -1.70 0.13 
11.77 1.57 -1.70 0.13 
11.80 1.35 -1.70 0.13 
11.82 1.12 -1.70 0.13 
11.84 0.90 -1.70 0.13 
11.86 0.67 -1.70 0.13 
11.87 0.45 -1.70 0.13 
11.87 0.22 -1.70 0.13 
11.88 -0.00 -1.70 0.13 
11.88 -0.22 -1.70 0.13 
11.87 -0.45 -1.70 0.13 
11.86 -0.67 -1.70 0.13 
11.84 -0.90 -1.70 0.13 
11.83 -1.12 -1.70 0.13 
11.80 -1.35 -1.70 0.13 
11.78 -1.57 -1.70 0.13 
11.74 -1.79 -1.70 0.13 
11.71 -2.01 -1.70 0.13 
11.67 -2.23 -1.70 0.13 
11.62 -2.46 -1.70 0.13 
11.58 -2.67 -1.70 0.13 
11.52 -2.89 -1.70 0.13 
11.47 -3.11 -1.70 0.13 
11.40 -3.33 -1.70 0.13 
11.34 -3.54 -1.70 0.13 
11.27 -3.76 -1.70 0.13 
11.20 -3.97 -1.70 0.13 
11.12 -4.18 -1.70 0.13 
11.04 -4.39 -1.70 0.13 
10.95 -4.60 -1.70 0.13 
10.86 -4.80 -1.70 0.13 
10.77 -5.01 -1.70 0.13 
10.67 -5.21 -1.70 0.13 
10.57 -5.41 -1.70 0.13 
6.68 -3.58 -1.09 0.25 
6.29 -3.53 -1.03 0.37 
5.97 -3.50 -0.99 0.41 
5.68 -3.47 -0.95 0.45 
5.43 -3.46 -0.92 0.55 
5.22 -3.47 -0.90 0.58 
5.04 -3.49 -0.88 0.83 
4.95 -3.57 -0.87 0.84 
4.88 -3.66 -0.87 0.87 
4.83 -3.77 -0.88 0.81 
4.79 -3.89 -0.88 0.79 
4.77 -4.02 -0.89 0.73 
4.77 -4.17 -0.91 0.56 
8.77 -7.98 -1.70 0.13 
8.62 -8.15 -1.70 0.13 
8.46 -8.30 -1.70 0.14 
8.28 -8.44 -1.69 0.14 
8.11 -8.58 -1.69 0.14 
7.74 -8.51 -1.65 0.53 
7.39 -8.44 -1.61 0.58 
7.06 -8.37 -1.57 0.59 
6.79 -8.37 -1.54 0.13 
6.63 -8.49 -1.54 0.13 
6.46 -8.62 -1.54 0.13 
6.30 -8.74 -1.54 0.13 
6.13 -8.85 -1.54 0.13 
5.96 -8.97 -1.54 0.13 
5.79 -9.08 -1.54 0.13 
5.61 -9.18 -1.54 0.13 
5.44 -9.28 -1.54 0.13 
5.26 -9.38 -1.54 0.13 
5.08 -9.48 -1.54 0.13 
4.90 -9.57 -1.54 0.13 
4.72 -9.66 -1.54 0.13 
4.53 -9.75 -1.54 0.13 
4.35 -9.83 -1.54 0.13 
4.16 -9.91 -1.54 0.13 
3.97 -9.98 -1.54 0.13 
3.78 -10.06 -1.54 0.13 
3.59 -10.12 -1.54 0.13 
3.40 -10.19 -1.54 0.13 
3.20 -10.25 -1.54 0.13 
2.38 -8.15 -1.22 0.95 
2.22 -8.17 -1.21 0.95 
2.61 -10.41 -1.54 0.14 
2.42 -10.45 -1.54 0.14 
2.22 -10.49 -1.54 0.14 
2.02 -10.53 -1.54 0.14 
1.82 -10.56 -1.54 0.14 
1.62 -10.60 -1.53 0.14 
1.42 -10.62 -1.53 0.14 
1.21 -10.64 -1.53 0.14 
1.01 -10.66 -1.53 0.14 
0.81 -10.68 -1.53 0.14 
0.61 -10.69 -1.53 0.14 
0.41 -10.70 -1.53 0.14 
0.20 -10.70 -1.53 0.14 
-0.00 -10.70 -1.53 0.14 
-0.20 -10.69 -1.53 0.14 
-0.40 -10.69 -1.53 0.14 
-0.61 -10.67 -1.53 0.14 
-0.81 -10.66 -1.53 0.14 
-1.01 -10.64 -1.53 0.14 
-1.21 -10.61 -1.53 0.14 
-1.41 -10.59 -1.53 0.14 
-1.61 -10.56 -1.53 0.14 
-1.81 -10.52 -1.53 0.14 
-2.01 -10.48 -1.53 0.14 
-2.21 -10.44 -1.53 0.14 
-2.40 -10.39 -1.53 0.14 
-2.60 -10.34 -1.53 0.14 
-2.79 -10.29 -1.53 0.14 
-2.99 -10.23 -1.53 0.14 
-3.18 -10.17 -1.53 0.14 
-3.37 -10.11 -1.53 0.14 
-3.56 -10.04 -1.53 0.14 
-3.75 -9.97 -1.53 0.14 
-3.93 -9.89 -1.53 0.14 
-4.12 -9.82 -1.52 0.14 
-4.30 -9.73 -1.52 0.14 
-4.49 -9.65 -1.52 0.14 
-4.67 -9.56 -1.52 0.14 
-4.85 -9.47 -1.52 0.14 
-5.02 -9.37 -1.52 0.14 
-5.20 -9.27 -1.52 0.14 
-5.37 -9.17 -1.52 0.14 
-5.54 -9.07 -1.52 0.14 
-5.71 -8.96 -1.52 0.14 
-5.88 -8.85 -1.52 0.14 
-6.05 -8.73 -1.52 0.14 
-6.21 -8.61 -1.52 0.14 
-6.37 -8.49 -1.52 0.14 
-6.53 -8.37 -1.52 0.14 
-6.68 -8.24 -1.52 0.14 
-6.84 -8.11 -1.52 0.14 
-6.99 -7.98 -1.52 0.14 
-7.26 -7.98 -1.55 0.64 
-7.57 -8.01 -1.58 0.63 
-7.89 -8.04 -1.61 0.61 
-8.22 -8.07 -1.65 0.60 
-8.44 -7.97 -1.66 0.15 
-8.60 -7.83 -1.67 0.15 
-8.76 -7.67 -1.67 0.14 
-8.90 -7.50 -1.67 0.14 
-9.04 -7.33 -1.67 0.14 
-9.18 -7.16 -1.67 0.14 
-9.31 -6.98 -1.67 0.14 
-9.44 -6.80 -1.67 0.14 
-9.57 -6.62 -1.67 0.14 
-9.69 -6.44 -1.67 0.14 
-9.81 -6.25 -1.67 0.14 
-9.92 -6.07 -1.67 0.14 
-10.03 -5.88 -1.67 0.14 
-10.14 -5.68 -1.66 0.14 
-10.24 -5.49 -1.66 0.14 
-10.34 -5.30 -1.66 0.14 
-10.44 -5.10 -1.66 0.14 
-10.53 -4.90 -1.66 0.14 
-10.62 -4.70 -1.66 0.14 
-10.71 -4.50 -1.66 0.14 
-10.79 -4.29 -1.66 0.14 
-10.87 -4.09 -1.66 0.14 
-10.94 -3.88 -1.66 0.14 
-11.01 -3.67 -1.66 0.14 
-11.08 -3.46 -1.66 0.14 
-11.14 -3.25 -1.66 0.14 
-11.20 -3.04 -1.66 0.14 
-11.25 -2.83 -1.66 0.14 
-11.30 -2.61 -1.66 0.14 
-11.35 -2.40 -1.66 0.14 
-11.39 -2.18 -1.66 0.14 
-11.43 -1.97 -1.66 0.14 
-10.79 -1.65 -1.56 0.41 
-10.81 -1.44 -1.56 0.41 
-11.52 -1.31 -1.66 0.14 
-11.54 -1.10 -1.66 0.14 
-11.56 -0.88 -1.66 0.14 
-11.57 -0.66 -1.66 0.14 
-11.58 -0.44 -1.66 0.14 
-11.59 -0.22 -1.66 0.14 
-11.49 -0.00 -1.66 0.14 
-11.04 0.21 -1.59 0.41 
-11.07 0.42 -1.60 0.41 
-11.47 0.65 -1.66 0.14 
-11.46 0.87 -1.66 0.14 
-11.44 1.09 -1.66 0.14 
-11.42 1.30 -1.66 0.14 
-11.39 1.52 -1.66 0.14 
-11.36 1.73 -1.66 0.14 
-11.32 1.95 -1.66 0.14 
-11.29 2.16 -1.66 0.14 
-11.24 2.37 -1.66 0.14 
-11.20 2.59 -1.66 0.14 
-11.14 2.80 -1.66 0.14 
-11.09 3.01 -1.66 0.14 
-11.03 3.22 -1.66 0.14 
-10.97 3.43 -1.66 0.14 
-10.90 3.63 -1.66 0.14 
-10.83 3.84 -1.66 0.14 
-10.76 4.04 -1.66 0.14 
-10.68 4.25 -1.66 0.14 
-10.60 4.45 -1.66 0.14 
-10.51 4.65 -1.66 0.14 
-10.42 4.85 -1.66 0.14 
-10.33 5.04 -1.66 0.14 
-10.23 5.24 -1.66 0.14 
-10.13 5.43 -1.66 0.14 
-10.03 5.62 -1.66 0.14 
-9.92 5.81 -1.66 0.14 
-9.81 6.00 -1.66 0.14 
-9.69 6.18 -1.66 0.14 
-9.58 6.37 -1.66 0.14 
-9.45 6.55 -1.66 0.14 
-7.88 5.68 -1.40 0.63 
-7.61 5.71 -1.37 0.65 
-7.35 5.74 -1.35 0.66 
-7.28 5.90 -1.35 0.63 
-8.80 7.41 -1.66 0.14 
-8.66 7.58 -1.66 0.14 
-8.51 7.74 -1.66 0.14 
-7.95 7.51 -1.58 0.72 
-7.68 7.54 -1.55 0.73 
-7.63 7.77 -1.57 0.21 
-7.91 8.37 -1.66 0.14 
-7.75 8.52 -1.66 0.14 
-7.59 8.66 -1.66 0.14 
-7.42 8.81 -1.66 0.14 
-7.26 8.95 -1.66 0.14 
-7.09 9.09 -1.66 0.14 
-6.91 9.22 -1.66 0.14 
-6.74 9.35 -1.66 0.14 
-6.56 9.48 -1.66 0.14 
-6.38 9.60 -1.67 0.14 
-6.20 9.72 -1.67 0.14 
-6.02 9.84 -1.67 0.14 
-5.83 9.95 -1.67 0.14 
-5.64 10.06 -1.67 0.14 
-5.45 10.17 -1.67 0.14 
-5.26 10.27 -1.67 0.14 
-5.06 10.37 -1.67 0.14 
-4.87 10.47 -1.67 0.14 
-4.67 10.56 -1.67 0.14 
-4.47 10.65 -1.67 0.14 
-4.27 10.73 -1.67 0.14 
-4.07 10.81 -1.67 0.14 
-3.86 10.89 -1.67 0.15 
-3.65 10.96 -1.67 0.15 
-3.44 11.02 -1.67 0.15 
-3.23 11.08 -1.67 0.15 
-3.02 11.14 -1.67 0.15 
-2.81 11.19 -1.67 0.15 
-2.60 11.24 -1.67 0.15 
-2.38 11.28 -1.67 0.15 
-2.17 11.32 -1.67 0.15 
-1.95 11.36 -1.67 0.15 
-1.74 11.40 -1.67 0.15 
-1.52 11.41 -1.66 0.95 
-1.30 11.42 -1.66 0.95 
-1.08 11.42 -1.66 0.95 
-0.87 11.42 -1.65 0.95 
-0.65 11.42 -1.65 0.95 
-0.43 11.42 -1.65 0.95 
-0.22 11.42 -1.65 0.95 
-0.00 11.41 -1.65 0.95 
0.22 11.41 -1.65 0.95 
0.43 11.41 -1.65 0.95 
0.65 11.40 -1.65 0.95 
0.86 11.39 -1.65 0.95 
1.08 11.39 -1.65 0.95 
1.30 11.38 -1.65 0.95 
1.52 11.37 -1.66 0.95 
1.73 11.36 -1.66 0.95 
1.95 11.35 -1.66 0.95 
2.17 11.34 -1.67 0.95 
2.39 11.32 -1.67 0.94 
2.61 11.29 -1.67 0.15 
2.82 11.24 -1.67 0.15 
3.04 11.19 -1.67 0.15 
3.25 11.14 -1.68 0.15 
3.46 11.08 -1.68 0.15 
3.67 11.02 -1.68 0.15 
3.88 10.96 -1.68 0.15 
4.09 10.89 -1.68 0.15 
4.30 10.82 -1.68 0.15 
4.51 10.74 -1.68 0.15 
4.72 10.66 -1.68 0.14 
4.92 10.57 -1.68 0.14 
5.12 10.48 -1.68 0.14 
5.32 10.39 -1.69 0.14 
5.51 10.29 -1.69 0.14 
5.71 10.18 -1.69 0.14 
5.90 10.07 -1.69 0.14 
6.09 9.96 -1.69 0.14 
6.28 9.85 -1.69 0.14 
6.47 9.73 -1.69 0.14 
6.65 9.61 -1.69 0.14 
6.83 9.48 -1.69 0.14 
7.01 9.35 -1.69 0.14 
7.19 9.22 -1.69 0.14 
7.37 9.09 -1.69 0.14 
7.54 8.95 -1.69 0.14 
7.71 8.80 -1.69 0.14 
7.88 8.66 -1.69 0.14 
8.04 8.51 -1.69 0.14 
8.20 8.36 -1.69 0.14 
8.36 8.20 -1.69 0.14 
8.51 8.04 -1.69 0.14 
8.67 7.88 -1.69 0.14 
8.82 7.72 -1.69 0.14 
8.96 7.55 -1.69 0.14 
9.11 7.38 -1.69 0.14 
9.24 7.21 -1.69 0.14 
9.38 7.04 -1.69 0.14 
9.51 6.86 -1.69 0.14 
9.64 6.68 -1.69 0.14 
9.77 6.50 -1.69 0.14 
9.89 6.31 -1.70 0.14 
10.01 6.12 -1.70 0.14 
10.13 5.93 -1.70 0.14 
10.24 5.74 -1.70 0.14 
10.35 5.55 -1.70 0.14 
10.45 5.35 -1.70 0.14 
10.55 5.15 -1.70 0.14 
10.65 4.95 -1.70 0.14 
10.75 4.75 -1.70 0.13 
10.84 4.55 -1.70 0.13 
10.92 4.34 -1.70 0.13 
11.00 4.14 -1.70 0.13 
11.08 3.93 -1.70 0.13 
11.15 3.72 -1.70 0.13 
11.22 3.51 -1.70 0.13 
11.29 3.29 -1.70 0.13 
11.35 3.08 -1.70 0.13 
11.41 2.86 -1.70 0.13 
11.46 2.65 -1.70 0.13 
11.51 2.43 -1.70 0.13 
11.56 2.21 -1.70 0.13 
11.60 1.99 -1.70 0.13 
11.63 1.77 -1.70 0.13 
11.67 1.55 -1.70 0.13 
11.69 1.33 -1.70 0.13 
11.72 1.11 -1.70 0.13 
11.74 0.89 -1.70 0.13 
11.75 0.67 -1.70 0.13 
11.77 0.45 -1.70 0.13 
11.77 0.22 -1.70 0.13 
11.78 -0.00 -1.70 0.13 
11.77 -0.22 -1.70 0.13 
11.77 -0.45 -1.70 0.13 
11.76 -0.67 -1.70 0.13 
11.74 -0.89 -1.70 0.13 
11.73 -1.11 -1.70 0.13 
11.70 -1.33 -1.70 0.13 
11.68 -1.56 -1.70 0.13 
11.64 -1.78 -1.70 0.13 
11.61 -2.00 -1.70 0.13 
11.57 -2.22 -1.70 0.13 
11.52 -2.43 -1.70 0.13 
11.48 -2.65 -1.70 0.13 
11.42 -2.87 -1.70 0.13 
11.37 -3.08 -1.70 0.13 
11.31 -3.30 -1.70 0.13 
11.24 -3.51 -1.70 0.13 
11.17 -3.72 -1.70 0.13 
11.10 -3.94 -1.70 0.13 
11.02 -4.14 -1.70 0.13 
10.94 -4.35 -1.70 0.13 
10.86 -4.56 -1.70 0.13 
10.77 -4.76 -1.70 0.13 
10.68 -4.97 -1.70 0.13 
10.58 -5.17 -1.70 0.13 
10.48 -5.37 -1.70 0.13 
6.68 -3.58 -1.09 0.25 
6.29 -3.53 -1.04 0.37 
5.97 -3.50 -1.00 0.41 
5.68 -3.47 -0.96 0.45 
5.43 -3.46 -0.93 0.55 
5.22 -3.47 -0.90 0.58 
5.04 -3.49 -0.89 0.83 
4.95 -3.57 -0.88 0.85 
4.87 -3.65 -0.88 0.87 
4.83 -3.76 -0.88 0.82 
4.79 -3.88 -0.89 0.79 
4.77 -4.02 -0.90 0.67 
4.76 -4.17 -0.91 0.56 
8.70 -7.91 -1.70 0.13 
8.55 -8.08 -1.70 0.13 
8.39 -8.23 -1.70 0.14 
8.22 -8.37 -1.69 0.14 
8.04 -8.51 -1.69 0.14 
7.74 -8.51 -1.66 0.53 
7.39 -8.43 -1.62 0.58 
7.05 -8.37 -1.58 0.59 
6.74 -8.31 -1.55 0.51 
6.57 -8.42 -1.54 0.14 
6.41 -8.54 -1.54 0.14 
6.24 -8.66 -1.54 0.14 
6.08 -8.78 -1.54 0.14 
5.91 -8.89 -1.54 0.14 
5.74 -9.00 -1.54 0.14 
5.57 -9.10 -1.54 0.14 
5.39 -9.21 -1.54 0.14 
5.22 -9.30 -1.54 0.14 
5.04 -9.40 -1.54 0.14 
4.86 -9.49 -1.54 0.14 
4.68 -9.58 -1.54 0.14 
4.49 -9.67 -1.54 0.14 
4.31 -9.75 -1.54 0.14 
4.12 -9.82 -1.54 0.14 
3.94 -9.90 -1.54 0.14 
3.75 -9.97 -1.54 0.14 
3.56 -10.04 -1.54 0.14 
3.37 -10.10 -1.54 0.14 
3.17 -10.16 -1.54 0.14 
2.38 -8.15 -1.23 0.95 
2.22 -8.17 -1.22 0.95 
2.59 -10.32 -1.54 0.14 
2.39 -10.36 -1.54 0.14 
2.20 -10.40 -1.54 0.14 
2.00 -10.44 -1.54 0.14 
1.80 -10.48 -1.54 0.14 
1.60 -10.51 -1.53 0.14 
1.40 -10.53 -1.53 0.14 
1.20 -10.55 -1.53 0.14 
1.00 -10.57 -1.53 0.14 
0.80 -10.59 -1.53 0.14 
0.60 -10.60 -1.53 0.14 
0.40 -10.60 -1.53 0.14 
0.20 -10.61 -1.53 0.14 
-0.00 -10.61 -1.53 0.14 
-0.20 -10.60 -1.53 0.14 
-0.40 -10.60 -1.53 0.14 
-0.60 -10.58 -1.53 0.14 
-0.80 -10.57 -1.53 0.14 
-1.00 -10.55 -1.53 0.14 
-1.20 -10.52 -1.53 0.14 
-1.40 -10.50 -1.53 0.14 
-1.60 -10.47 -1.53 0.14 
-1.79 -10.43 -1.53 0.14 
-1.99 -10.39 -1.53 0.14 
-2.19 -10.35 -1.53 0.14 
-2.38 -10.31 -1.53 0.14 
-2.58 -10.26 -1.53 0.14 
-2.77 -10.20 -1.53 0.14 
-2.96 -10.15 -1.53 0.14 
-3.15 -10.09 -1.53 0.14 
-3.34 -10.02 -1.53 0.14 
-3.53 -9.96 -1.53 0.14 
-3.72 -9.89 -1.53 0.14 
-3.90 -9.81 -1.53 0.14 
-4.09 -9.73 -1.52 0.14 
-4.27 -9.65 -1.52 0.14 
-4.45 -9.57 -1.52 0.14 
-4.63 -9.48 -1.52 0.14 
-4.81 -9.39 -1.52 0.14 
-4.98 -9.29 -1.52 0.14 
-5.16 -9.19 -1.52 0.14 
-5.33 -9.09 -1.52 0.14 
-5.50 -8.99 -1.52 0.14 
-5.66 -8.88 -1.52 0.14 
-5.83 -8.77 -1.52 0.14 
-5.99 -8.66 -1.52 0.14 
-6.16 -8.54 -1.52 0.14 
-6.31 -8.42 -1.52 0.14 
-6.47 -8.30 -1.52 0.14 
-6.63 -8.17 -1.52 0.14 
-6.78 -8.04 -1.52 0.14 
-6.97 -7.96 -1.53 0.66 
-7.26 -7.98 -1.56 0.64 
-7.57 -8.01 -1.59 0.63 
-7.89 -8.04 -1.63 0.61 
-8.21 -8.06 -1.66 0.15 
-8.37 -7.91 -1.66 0.15 
-8.54 -7.76 -1.67 0.15 
-8.69 -7.61 -1.67 0.14 
-8.83 -7.44 -1.67 0.14 
-8.97 -7.27 -1.67 0.14 
-9.10 -7.10 -1.67 0.14 
-9.23 -6.92 -1.67 0.14 
-9.36 -6.75 -1.67 0.14 
-9.48 -6.57 -1.67 0.14 
-9.61 -6.39 -1.67 0.14 
-9.72 -6.20 -1.67 0.14 
-9.84 -6.02 -1.67 0.14 
-9.95 -5.83 -1.67 0.14 
-10.05 -5.64 -1.66 0.14 
-10.16 -5.45 -1.66 0.14 
-10.26 -5.25 -1.66 0.14 
-10.35 -5.06 -1.66 0.14 
-10.45 -4.86 -1.66 0.14 
-10.53 -4.66 -1.66 0.14 
-10.62 -4.46 -1.66 0.14 
-10.70 -4.26 -1.66 0.14 
-10.78 -4.05 -1.66 0.14 
-10.85 -3.85 -1.66 0.14 
-10.92 -3.64 -1.66 0.14 
-10.99 -3.43 -1.66 0.14 
-11.05 -3.22 -1.66 0.14 
-11.11 -3.01 -1.66 0.14 
-11.16 -2.80 -1.66 0.14 
-11.21 -2.59 -1.66 0.14 
-11.26 -2.38 -1.66 0.14 
-11.30 -2.16 -1.66 0.14 
-11.33 -1.95 -1.66 0.14 
-10.81 -1.65 -1.58 0.41 
-10.83 -1.44 -1.58 0.41 
-11.42 -1.30 -1.66 0.14 
-11.45 -1.09 -1.66 0.14 
-11.46 -0.87 -1.66 0.14 
-11.48 -0.65 -1.66 0.14 
-11.49 -0.44 -1.66 0.14 
-11.49 -0.22 -1.66 0.14 
-11.40 -0.00 -1.66 0.14 
-11.06 0.21 -1.61 0.41 
-11.10 0.42 -1.62 0.05 
-11.38 0.65 -1.66 0.14 
-11.36 0.86 -1.66 0.14 
-11.35 1.08 -1.66 0.14 
-11.32 1.29 -1.66 0.14 
-11.30 1.51 -1.66 0.14 
-11.27 1.72 -1.66 0.14 
-11.23 1.93 -1.66 0.14 
-11.19 2.14 -1.66 0.14 
-11.15 2.36 -1.66 0.14 
-11.10 2.57 -1.66 0.14 
-11.05 2.78 -1.66 0.14 
-11.00 2.98 -1.66 0.14 
-10.94 3.19 -1.66 0.14 
-10.88 3.40 -1.66 0.14 
-10.81 3.60 -1.66 0.14 
-10.74 3.81 -1.66 0.14 
-10.67 4.01 -1.66 0.14 
-10.59 4.21 -1.66 0.14 
-10.51 4.41 -1.66 0.14 
-10.42 4.61 -1.66 0.14 
-10.34 4.81 -1.66 0.14 
-10.24 5.00 -1.66 0.14 
-10.15 5.19 -1.66 0.14 
-10.05 5.39 -1.66 0.14 
-9.94 5.58 -1.66 0.14 
-9.84 5.76 -1.66 0.14 
-9.73 5.95 -1.66 0.14 
-9.61 6.13 -1.66 0.14 
-9.50 6.31 -1.66 0.14 
-9.38 6.49 -1.66 0.14 
-7.88 5.68 -1.42 0.63 
-7.61 5.71 -1.39 0.65 
-7.35 5.74 -1.36 0.66 
-7.28 5.91 -1.37 0.63 
-8.73 7.35 -1.66 0.14 
-8.59 7.52 -1.66 0.14 
-8.44 7.68 -1.66 0.14 
-7.95 7.51 -1.59 0.72 
-7.68 7.54 -1.57 0.73 
-8.00 8.15 -1.66 0.14 
-7.84 8.30 -1.66 0.14 
-7.68 8.45 -1.66 0.14 
-7.52 8.59 -1.66 0.14 
-7.36 8.73 -1.66 0.14 
-7.20 8.87 -1.66 0.14 
-7.03 9.01 -1.66 0.14 
-6.86 9.14 -1.66 0.14 
-6.68 9.27 -1.66 0.14 
-6.51 9.40 -1.67 0.14 
-6.33 9.52 -1.67 0.14 
-6.15 9.64 -1.67 0.14 
-5.97 9.76 -1.67 0.14 
-5.78 9.87 -1.67 0.14 
-5.59 9.98 -1.67 0.14 
-5.41 10.08 -1.67 0.14 
-5.21 10.19 -1.67 0.14 
-5.02 10.29 -1.67 0.14 
-4.83 10.38 -1.67 0.14 
-4.63 10.47 -1.67 0.14 
-4.43 10.56 -1.67 0.14 
-4.23 10.64 -1.67 0.14 
-4.03 10.72 -1.67 0.14 
-3.83 10.80 -1.67 0.14 
-3.62 10.87 -1.67 0.14 
-3.42 10.94 -1.67 0.15 
-3.21 11.00 -1.67 0.15 
-3.00 11.05 -1.67 0.15 
-2.79 11.11 -1.67 0.15 
-2.58 11.15 -1.67 0.15 
-2.37 11.20 -1.67 0.15 
-2.15 11.24 -1.67 0.15 
-1.94 11.28 -1.67 0.15 
-1.73 11.31 -1.67 0.15 
-1.51 11.34 -1.67 0.15 
-1.30 11.37 -1.67 0.15 
-1.08 11.39 -1.67 0.15 
-0.87 11.41 -1.67 0.15 
-0.65 11.42 -1.67 0.95 
-0.43 11.42 -1.66 0.95 
-0.22 11.41 -1.66 0.95 
0.00 11.41 -1.66 0.95 
0.22 11.41 -1.66 0.95 
0.43 11.41 -1.66 0.95 
0.65 11.40 -1.66 0.95 
0.86 11.39 -1.66 0.95 
1.08 11.38 -1.67 0.95 
1.30 11.38 -1.67 0.95 
1.51 11.37 -1.67 0.15 
1.73 11.34 -1.67 0.15 
1.95 11.31 -1.67 0.15 
2.16 11.28 -1.67 0.15 
2.37 11.24 -1.67 0.15 
2.59 11.20 -1.67 0.15 
2.80 11.16 -1.68 0.15 
3.01 11.11 -1.68 0.15 
3.23 11.05 -1.68 0.15 
3.44 11.00 -1.68 0.15 
3.65 10.94 -1.68 0.15 
3.86 10.88 -1.68 0.15 
4.06 10.81 -1.68 0.15 
4.27 10.74 -1.68 0.15 
4.47 10.66 -1.68 0.14 
4.68 10.57 -1.68 0.14 
4.88 10.49 -1.68 0.14 
5.07 10.39 -1.68 0.14 
5.27 10.30 -1.69 0.14 
5.47 10.20 -1.69 0.14 
5.66 10.10 -1.69 0.14 
5.85 9.99 -1.69 0.14 
6.04 9.88 -1.69 0.14 
6.23 9.77 -1.69 0.14 
6.41 9.65 -1.69 0.14 
6.60 9.53 -1.69 0.14 
6.78 9.40 -1.69 0.14 
6.96 9.27 -1.69 0.14 
7.13 9.14 -1.69 0.14 
7.30 9.01 -1.69 0.14 
7.47 8.87 -1.69 0.14 
7.64 8.73 -1.69 0.14 
7.81 8.58 -1.69 0.14 
7.97 8.44 -1.69 0.14 
8.13 8.29 -1.69 0.14 
8.29 8.13 -1.69 0.14 
8.44 7.98 -1.69 0.14 
8.59 7.82 -1.69 0.14 
8.74 7.65 -1.69 0.14 
8.89 7.49 -1.69 0.14 
9.03 7.32 -1.69 0.14 
9.17 7.15 -1.69 0.14 
9.30 6.98 -1.69 0.14 
9.43 6.80 -1.69 0.14 
9.56 6.62 -1.69 0.14 
9.69 6.44 -1.69 0.14 
9.81 6.26 -1.69 0.14 
9.93 6.07 -1.70 0.14 
10.04 5.88 -1.70 0.14 
10.15 5.69 -1.70 0.14 
10.26 5.50 -1.70 0.14 
10.37 5.31 -1.70 0.14 
10.47 5.11 -1.70 0.14 
10.56 4.91 -1.70 0.14 
10.65 4.71 -1.70 0.14 
10.74 4.51 -1.70 0.14 
10.83 4.31 -1.70 0.14 
10.91 4.10 -1.70 0.14 
10.99 3.89 -1.70 0.14 
11.06 3.69 -1.70 0.14 
11.13 3.48 -1.70 0.14 
11.19 3.27 -1.70 0.14 
11.25 3.05 -1.70 0.14 
11.31 2.84 -1.70 0.14 
11.36 2.63 -1.70 0.14 
11.41 2.41 -1.70 0.14 
11.46 2.19 -1.70 0.14 
11.50 1.98 -1.70 0.14 
11.54 1.76 -1.70 0.14 
11.57 1.54 -1.70 0.14 
11.60 1.32 -1.70 0.14 
11.62 1.10 -1.70 0.14 
11.64 0.88 -1.70 0.14 
11.65 0.66 -1.70 0.14 
11.67 0.44 -1.70 0.14 
11.67 0.22 -1.70 0.14 
11.68 -0.00 -1.70 0.14 
11.67 -0.22 -1.70 0.14 
11.67 -0.44 -1.70 0.14 
11.66 -0.66 -1.70 0.14 
11.64 -0.88 -1.70 0.14 
11.63 -1.10 -1.70 0.14 
11.60 -1.32 -1.70 0.14 
11.58 -1.54 -1.70 0.14 
11.55 -1.76 -1.70 0.14 
11.51 -1.98 -1.70 0.14 
11.47 -2.20 -1.70 0.14 
11.43 -2.41 -1.70 0.14 
11.38 -2.63 -1.70 0.14 
11.33 -2.84 -1.70 0.14 
11.27 -3.06 -1.70 0.14 
11.21 -3.27 -1.70 0.14 
11.15 -3.48 -1.70 0.14 
11.08 -3.69 -1.70 0.14 
11.01 -3.90 -1.70 0.14 
10.93 -4.11 -1.70 0.14 
10.85 -4.32 -1.70 0.14 
10.77 -4.52 -1.70 0.14 
10.68 -4.72 -1.70 0.14 
10.59 -4.92 -1.70 0.14 
10.49 -5.12 -1.70 0.14 
10.39 -5.32 -1.70 0.14 
6.67 -3.57 -1.10 0.25 
6.29 -3.52 -1.05 0.37 
5.96 -3.49 -1.01 0.41 
5.67 -3.47 -0.97 0.45 
5.42 -3.46 -0.94 0.55 
5.22 -3.47 -0.91 0.58 
5.04 -3.49 -0.89 0.83 
4.95 -3.57 -0.89 0.85 
4.87 -3.65 -0.89 0.88 
4.82 -3.76 -0.89 0.82 
4.79 -3.88 -0.90 0.79 
4.76 -4.01 -0.91 0.67 
4.75 -4.16 -0.92 0.56 
8.63 -7.85 -1.70 0.14 
8.48 -8.01 -1.70 0.14 
8.32 -8.17 -1.70 0.14 
8.15 -8.31 -1.70 0.14 
7.98 -8.44 -1.69 0.14 
7.73 -8.50 -1.67 0.53 
7.38 -8.43 -1.63 0.58 
7.05 -8.37 -1.59 0.59 
6.73 -8.30 -1.56 0.61 
6.51 -8.35 -1.54 0.14 
6.35 -8.47 -1.54 0.14 
6.19 -8.59 -1.54 0.14 
6.03 -8.70 -1.54 0.14 
5.86 -8.81 -1.54 0.14 
5.69 -8.92 -1.54 0.14 
5.52 -9.03 -1.54 0.14 
5.35 -9.13 -1.54 0.14 
5.17 -9.23 -1.54 0.14 
5.00 -9.32 -1.54 0.14 
4.82 -9.41 -1.54 0.14 
4.64 -9.50 -1.54 0.14 
4.46 -9.58 -1.54 0.14 
4.27 -9.66 -1.54 0.14 
4.09 -9.74 -1.54 0.14 
3.90 -9.82 -1.54 0.14 
3.72 -9.89 -1.54 0.14 
3.53 -9.95 -1.54 0.14 
3.34 -10.02 -1.54 0.14 
3.15 -10.07 -1.54 0.14 
2.38 -8.15 -1.24 0.95 
2.22 -8.17 -1.23 0.95 
2.57 -10.23 -1.54 0.14 
2.37 -10.28 -1.54 0.14 
2.18 -10.32 -1.54 0.14 
1.98 -10.35 -1.54 0.14 
1.79 -10.39 -1.54 0.14 
1.59 -10.42 -1.53 0.14 
1.39 -10.44 -1.53 0.14 
1.19 -10.46 -1.53 0.14 
1.00 -10.48 -1.53 0.14 
0.80 -10.50 -1.53 0.14 
0.60 -10.51 -1.53 0.14 
0.40 -10.52 -1.53 0.14 
0.20 -10.52 -1.53 0.14 
-0.00 -10.52 -1.53 0.14 
-0.20 -10.51 -1.53 0.14 
-0.40 -10.51 -1.53 0.14 
-0.60 -10.49 -1.53 0.14 
-0.79 -10.48 -1.53 0.14 
-0.99 -10.46 -1.53 0.14 
-1.19 -10.44 -1.53 0.14 
-1.39 -10.41 -1.53 0.14 
-1.58 -10.38 -1.53 0.14 
-1.78 -10.34 -1.53 0.14 
-1.97 -10.31 -1.53 0.14 
-2.17 -10.27 -1.53 0.14 
-2.36 -10.22 -1.53 0.14 
-2.55 -10.17 -1.53 0.14 
-2.75 -10.12 -1.53 0.14 
-2.94 -10.06 -1.53 0.14 
-3.12 -10.00 -1.53 0.14 
-3.31 -9.94 -1.53 0.14 
-3.50 -9.87 -1.53 0.14 
-3.69 -9.80 -1.53 0.14 
-3.87 -9.73 -1.53 0.14 
-4.05 -9.65 -1.52 0.14 
-4.23 -9.57 -1.52 0.14 
-4.41 -9.49 -1.52 0.14 
-4.59 -9.40 -1.52 0.14 
-4.77 -9.31 -1.52 0.14 
-4.94 -9.22 -1.52 0.14 
-5.11 -9.12 -1.52 0.14 
-5.28 -9.02 -1.52 0.14 
-5.45 -8.91 -1.52 0.14 
-5.62 -8.81 -1.52 0.14 
-5.78 -8.70 -1.52 0.14 
-5.94 -8.58 -1.52 0.14 
-6.10 -8.47 -1.52 0.14 
-6.26 -8.35 -1.52 0.14 
-6.42 -8.23 -1.52 0.14 
-6.57 -8.10 -1.52 0.14 
-6.72 -7.98 -1.52 0.14 
-6.96 -7.95 -1.54 0.66 
-7.26 -7.98 -1.57 0.64 
-7.56 -8.01 -1.60 0.63 
-7.88 -8.03 -1.64 0.62 
-8.15 -7.99 -1.66 0.15 
-8.31 -7.85 -1.67 0.15 
-8.47 -7.70 -1.67 0.15 
-8.62 -7.54 -1.67 0.14 
-8.76 -7.38 -1.67 0.14 
-8.89 -7.21 -1.67 0.14 
-9.03 -7.04 -1.67 0.14 
-9.16 -6.87 -1.67 0.14 
-9.28 -6.69 -1.67 0.14 
-9.41 -6.51 -1.67 0.14 
-9.53 -6.33 -1.67 0.14 
-9.64 -6.15 -1.67 0.14 
-9.76 -5.97 -1.67 0.14 
-9.87 -5.78 -1.67 0.14 
-9.97 -5.59 -1.67 0.14 
-10.07 -5.40 -1.66 0.14 
-10.17 -5.21 -1.66 0.14 
-10.27 -5.01 -1.66 0.14 
-10.36 -4.82 -1.66 0.14 
-10.45 -4.62 -1.66 0.14 
-10.53 -4.42 -1.66 0.14 
-10.61 -4.22 -1.66 0.14 
-10.69 -4.02 -1.66 0.14 
-10.76 -3.81 -1.66 0.14 
-10.83 -3.61 -1.66 0.14 
-10.90 -3.40 -1.66 0.14 
-10.96 -3.20 -1.66 0.14 
-11.01 -2.99 -1.66 0.14 
-11.07 -2.78 -1.66 0.14 
-11.12 -2.57 -1.66 0.14 
-11.16 -2.36 -1.66 0.14 
-11.20 -2.15 -1.66 0.14 
-11.24 -1.93 -1.66 0.14 
-10.84 -1.65 -1.60 0.41 
-10.86 -1.45 -1.60 0.41 
-11.33 -1.29 -1.66 0.14 
-11.35 -1.08 -1.66 0.14 
-11.37 -0.86 -1.66 0.14 
-11.38 -0.65 -1.66 0.14 
-11.39 -0.43 -1.66 0.14 
-11.40 -0.22 -1.66 0.14 
-11.31 -0.00 -1.66 0.14 
-11.30 0.21 -1.66 0.14 
-11.30 0.43 -1.66 0.14 
-11.29 0.64 -1.66 0.14 
-11.27 0.85 -1.66 0.14 
-11.25 1.07 -1.66 0.14 
-11.23 1.28 -1.66 0.14 
-11.20 1.49 -1.66 0.14 
-11.17 1.70 -1.66 0.14 
-11.14 1.92 -1.66 0.14 
-11.10 2.13 -1.66 0.14 
-11.06 2.34 -1.66 0.14 
-11.01 2.54 -1.66 0.14 
-10.96 2.75 -1.66 0.14 
-10.91 2.96 -1.66 0.14 
-10.85 3.17 -1.66 0.14 
-10.79 3.37 -1.66 0.14 
-10.72 3.57 -1.66 0.14 
-10.65 3.78 -1.66 0.14 
-10.58 3.98 -1.66 0.14 
-10.50 4.18 -1.66 0.14 
-10.42 4.38 -1.66 0.14 
-10.34 4.57 -1.66 0.14 
-10.25 4.77 -1.66 0.14 
-10.16 4.96 -1.66 0.14 
-10.06 5.15 -1.66 0.14 
-9.96 5.34 -1.66 0.14 
-9.86 5.53 -1.66 0.14 
-9.76 5.72 -1.66 0.14 
-9.65 5.90 -1.66 0.14 
-9.53 6.08 -1.66 0.14 
-9.42 6.26 -1.66 0.14 
-9.30 6.44 -1.66 0.14 
-7.88 5.68 -1.43 0.63 
-7.61 5.71 -1.40 0.65 
-7.35 5.74 -1.37 0.66 
-7.29 5.91 -1.38 0.63 
-8.65 7.29 -1.66 0.14 
-8.51 7.46 -1.66 0.14 
-8.37 7.62 -1.66 0.14 
-7.95 7.51 -1.61 0.72 
-7.68 7.54 -1.58 0.73 
-7.93 8.08 -1.66 0.14 
-7.78 8.23 -1.66 0.14 
-7.62 8.38 -1.66 0.14 
-7.46 8.52 -1.66 0.14 
-7.30 8.66 -1.66 0.14 
-7.14 8.80 -1.66 0.14 
-6.97 8.94 -1.66 0.14 
-6.80 9.07 -1.66 0.14 
-6.63 9.20 -1.66 0.14 
-6.45 9.32 -1.67 0.14 
-6.28 9.44 -1.67 0.14 
-6.10 9.56 -1.67 0.14 
-5.92 9.68 -1.67 0.14 
-5.73 9.79 -1.67 0.14 
-5.55 9.90 -1.67 0.14 
-5.36 10.00 -1.67 0.14 
-5.17 10.10 -1.67 0.14 
-4.98 10.20 -1.67 0.14 
-4.79 10.30 -1.67 0.14 
-4.59 10.39 -1.67 0.14 
-4.40 10.47 -1.67 0.14 
-4.20 10.56 -1.67 0.14 
-4.00 10.64 -1.67 0.14 
-3.80 10.71 -1.67 0.14 
-3.59 10.78 -1.67 0.14 
-3.39 10.85 -1.67 0.14 
-3.18 10.92 -1.67 0.14 
-2.98 10.97 -1.67 0.16 
-2.77 11.02 -1.67 0.16 
-2.56 11.07 -1.67 0.16 
-2.35 11.12 -1.67 0.16 
-2.14 11.16 -1.67 0.16 
-1.93 11.19 -1.67 0.16 
-1.71 11.23 -1.67 0.16 
-1.50 11.26 -1.67 0.16 
-1.29 11.28 -1.67 0.16 
-1.07 11.31 -1.67 0.16 
-0.86 11.32 -1.67 0.16 
-0.64 11.34 -1.67 0.16 
-0.43 11.35 -1.67 0.16 
-0.22 11.36 -1.67 0.16 
0.00 11.36 -1.67 0.16 
0.22 11.36 -1.67 0.16 
0.43 11.36 -1.67 0.16 
0.65 11.35 -1.67 0.16 
0.86 11.34 -1.67 0.16 
1.07 11.32 -1.67 0.16 
1.29 11.31 -1.67 0.15 
1.50 11.28 -1.67 0.15 
1.72 11.26 -1.67 0.15 
1.93 11.23 -1.67 0.15 
2.14 11.19 -1.67 0.15 
2.36 11.16 -1.68 0.15 
2.57 11.12 -1.68 0.15 
2.78 11.07 -1.68 0.15 
2.99 11.02 -1.68 0.15 
3.20 10.97 -1.68 0.15 
3.41 10.92 -1.68 0.15 
3.62 10.86 -1.68 0.15 
3.83 10.79 -1.68 0.15 
4.03 10.72 -1.68 0.14 
4.23 10.65 -1.68 0.14 
4.44 10.57 -1.68 0.14 
4.64 10.49 -1.68 0.14 
4.84 10.40 -1.68 0.14 
5.03 10.31 -1.68 0.14 
5.23 10.21 -1.69 0.14 
5.42 10.11 -1.69 0.14 
5.61 10.01 -1.69 0.14 
5.80 9.91 -1.69 0.14 
5.99 9.80 -1.69 0.14 
6.18 9.68 -1.69 0.14 
6.36 9.57 -1.69 0.14 
6.54 9.45 -1.69 0.14 
6.72 9.32 -1.69 0.14 
6.90 9.20 -1.69 0.14 
7.07 9.07 -1.69 0.14 
7.24 8.93 -1.69 0.14 
7.41 8.80 -1.69 0.14 
7.58 8.66 -1.69 0.14 
7.74 8.51 -1.69 0.14 
7.90 8.37 -1.69 0.14 
8.06 8.22 -1.69 0.14 
8.22 8.06 -1.69 0.14 
8.37 7.91 -1.69 0.14 
8.52 7.75 -1.69 0.14 
8.67 7.59 -1.69 0.14 
8.81 7.43 -1.69 0.14 
8.95 7.26 -1.69 0.14 
9.09 7.09 -1.69 0.14 
9.22 6.92 -1.69 0.14 
9.36 6.74 -1.69 0.14 
9.48 6.57 -1.69 0.14 
9.61 6.39 -1.69 0.14 
9.73 6.20 -1.69 0.14 
9.84 6.02 -1.70 0.14 
9.96 5.83 -1.70 0.14 
10.07 5.65 -1.70 0.14 
10.18 5.45 -1.70 0.14 
10.28 5.26 -1.70 0.14 
10.38 5.07 -1.70 0.14 
10.47 4.87 -1.70 0.14 
10.57 4.67 -1.70 0.14 
10.65 4.47 -1.70 0.14 
10.74 4.27 -1.70 0.14 
10.82 4.07 -1.70 0.14 
10.89 3.86 -1.70 0.14 
10.97 3.66 -1.70 0.14 
11.04 3.45 -1.70 0.14 
11.10 3.24 -1.70 0.14 
11.16 3.03 -1.70 0.14 
11.22 2.82 -1.70 0.14 
11.27 2.60 -1.70 0.14 
11.32 2.39 -1.70 0.14 
11.36 2.18 -1.70 0.14 
11.40 1.96 -1.70 0.14 
11.44 1.75 -1.70 0.14 
