VERSION 0.7
FIELDS x y z intensity
SIZE 4 4 4 8
TYPE F F F F
COUNT 1 1 1 1
WIDTH 1984
HEIGHT 1
VIEWPOINT 0.0 0.0 0.0 1.0 0.0 0.0 0.0
POINTS 1984
DATA ascii
-14.51 -3.35 -0.84 0.19 
-27.66 -5.84 -1.59 0.05 
-27.75 -5.31 -1.59 0.05 
-27.82 -4.79 -1.59 0.05 
-27.89 -4.26 -1.59 0.05 
-27.95 -3.72 -1.59 0.05 
-28.00 -3.19 -1.59 0.05 
-9.85 -0.94 -0.56 0.27 
-9.74 -0.74 -0.55 0.28 
-9.64 -0.55 -0.54 0.33 
-9.64 -0.37 -0.54 0.33 
-9.64 -0.18 -0.54 0.33 
-9.60 -0.00 -0.55 0.33 
-9.62 0.18 -0.55 0.91 
-9.64 0.37 -0.55 0.91 
-9.73 0.55 -0.56 0.71 
-9.84 0.75 -0.57 0.71 
-27.32 2.59 -1.58 0.05 
-27.25 3.11 -1.58 0.05 
-27.18 3.62 -1.57 0.05 
-27.09 4.13 -1.57 0.05 
-26.99 4.64 -1.57 0.05 
-26.89 5.15 -1.57 0.05 
-26.78 5.66 -1.57 0.05 
-26.65 6.16 -1.57 0.05 
-26.52 6.66 -1.57 0.05 
-26.38 7.16 -1.57 0.05 
-26.23 7.65 -1.57 0.05 
-7.65 2.39 -0.46 0.42 
-7.62 2.54 -0.46 0.80 
-7.46 2.65 -0.45 0.30 
-7.06 2.65 -0.43 0.32 
-6.70 2.66 -0.41 0.35 
-6.37 2.68 -0.40 0.36 
-6.07 2.69 -0.38 0.38 
-5.82 2.70 -0.37 0.37 
-5.58 2.73 -0.36 0.62 
-5.44 2.78 -0.35 0.63 
-5.36 2.87 -0.35 0.80 
-5.35 3.00 -0.35 0.80 
-5.34 3.13 -0.36 0.79 
-5.33 3.26 -0.36 0.78 
-5.31 3.39 -0.36 0.85 
-5.31 3.53 -0.37 0.67 
-5.33 3.69 -0.37 0.69 
-5.33 3.84 -0.38 0.68 
-5.34 4.00 -0.38 0.67 
-19.39 15.13 -1.41 0.05 
-19.10 15.49 -1.41 0.05 
-18.80 15.84 -1.41 0.05 
-18.50 16.19 -1.41 0.05 
-13.52 12.30 -1.05 0.92 
-13.19 12.47 -1.04 0.73 
-12.93 12.69 -1.04 0.87 
-12.73 12.97 -1.04 0.93 
-12.47 13.20 -1.04 0.93 
-12.20 13.42 -1.04 0.93 
-11.95 13.65 -1.04 0.93 
-15.93 18.91 -1.42 0.05 
-15.59 19.23 -1.42 0.05 
-15.25 19.55 -1.42 0.05 
-12.74 16.99 -1.22 0.35 
-12.42 17.23 -1.22 0.79 
-14.16 20.46 -1.43 0.05 
-13.79 20.75 -1.43 0.05 
-13.41 21.03 -1.43 0.05 
-13.03 21.30 -1.43 0.05 
-12.63 21.57 -1.44 0.05 
-7.31 13.04 -0.86 0.48 
-3.37 6.28 -0.41 0.73 
-3.22 6.28 -0.41 0.74 
-3.07 6.28 -0.40 0.75 
-2.92 6.28 -0.40 0.76 
-2.78 6.28 -0.39 0.77 
-2.64 6.28 -0.39 0.78 
-2.50 6.28 -0.39 0.79 
-2.36 6.28 -0.39 0.79 
-2.23 6.29 -0.38 0.79 
-2.10 6.29 -0.38 0.80 
-1.97 6.30 -0.38 0.81 
-1.84 6.30 -0.38 0.79 
-1.71 6.31 -0.38 0.80 
-1.58 6.31 -0.37 0.81 
-1.46 6.31 -0.37 0.82 
-1.34 6.32 -0.37 0.83 
-1.22 6.36 -0.37 0.83 
-1.10 6.39 -0.37 0.80 
-0.99 6.49 -0.38 0.62 
-0.88 6.63 -0.38 0.21 
-1.91 16.71 -0.97 0.75 
-1.63 17.13 -0.99 0.25 
-1.93 25.43 -1.47 0.05 
-1.45 25.48 -1.47 0.05 
-0.48 12.56 -0.72 0.38 
-0.48 25.54 -1.47 0.05 
0.00 25.56 -1.47 0.05 
0.48 25.56 -1.47 0.05 
0.97 25.56 -1.47 0.05 
1.45 25.54 -1.47 0.05 
1.94 25.52 -1.47 0.05 
2.42 25.49 -1.47 0.05 
2.90 25.44 -1.47 0.05 
3.38 25.39 -1.47 0.05 
3.86 25.32 -1.47 0.05 
4.34 25.25 -1.47 0.05 
2.75 14.35 -0.84 0.57 
3.53 16.73 -0.98 0.74 
3.89 16.83 -0.99 0.47 
6.24 24.86 -1.47 0.05 
6.71 24.74 -1.47 0.05 
7.18 24.61 -1.47 0.05 
7.64 24.47 -1.47 0.05 
8.11 24.32 -1.47 0.05 
8.56 24.16 -1.47 0.05 
4.40 11.71 -0.72 0.69 
9.47 23.82 -1.47 0.05 
5.63 13.41 -0.84 0.32 
5.80 13.12 -0.82 0.93 
6.06 13.03 -0.83 0.59 
11.24 23.03 -1.47 0.05 
11.67 22.81 -1.47 0.05 
9.12 17.01 -1.11 0.42 
9.35 16.68 -1.10 0.74 
9.82 16.77 -1.12 0.27 
13.35 21.84 -1.47 0.05 
12.40 19.45 -1.33 0.72 
14.17 21.31 -1.47 0.05 
14.56 21.03 -1.47 0.05 
14.96 20.75 -1.47 0.05 
15.34 20.46 -1.47 0.05 
15.72 20.15 -1.47 0.05 
13.27 16.37 -1.21 0.83 
16.46 19.53 -1.47 0.05 
16.82 19.21 -1.47 0.05 
7.01 7.70 -0.60 0.09 
6.90 7.30 -0.58 0.09 
6.90 7.04 -0.57 0.16 
6.94 6.81 -0.56 0.18 
6.99 6.61 -0.55 0.18 
7.07 6.43 -0.55 0.23 
7.18 6.28 -0.55 0.21 
7.29 6.14 -0.55 0.21 
7.40 6.00 -0.55 0.21 
7.66 5.98 -0.56 0.46 
7.94 5.96 -0.57 0.53 
8.25 5.95 -0.58 0.47 
8.57 5.94 -0.60 0.48 
8.92 5.93 -0.62 0.46 
9.30 5.93 -0.63 0.50 
5.89 3.60 -0.40 0.49 
5.88 3.44 -0.39 0.56 
5.89 3.30 -0.39 0.52 
5.89 3.16 -0.38 0.62 
5.92 3.03 -0.38 0.69 
6.04 2.95 -0.39 0.36 
6.34 2.95 -0.40 0.29 
21.33 9.43 -1.34 0.72 
23.65 9.93 -1.47 0.05 
23.84 9.48 -1.47 0.05 
24.04 9.04 -1.48 0.05 
24.22 8.58 -1.48 0.05 
24.39 8.13 -1.48 0.05 
24.56 7.67 -1.48 0.05 
25.10 7.32 -1.50 0.55 
25.86 7.02 -1.54 0.55 
26.63 6.69 -1.58 0.54 
27.42 6.34 -1.62 0.54 
27.83 5.88 -1.63 0.06 
28.01 5.37 -1.64 0.05 
28.12 4.84 -1.64 0.05 
28.23 4.31 -1.64 0.05 
28.32 3.77 -1.64 0.05 
28.40 3.24 -1.64 0.05 
28.48 2.70 -1.64 0.05 
28.54 2.16 -1.64 0.05 
28.59 1.63 -1.65 0.05 
28.63 1.08 -1.65 0.05 
28.67 0.54 -1.65 0.05 
28.69 0.00 -1.65 0.05 
28.70 -0.54 -1.65 0.05 
28.70 -1.09 -1.65 0.05 
28.69 -1.63 -1.65 0.05 
28.67 -2.17 -1.65 0.05 
28.64 -2.72 -1.65 0.05 
28.59 -3.26 -1.65 0.05 
28.54 -3.80 -1.65 0.05 
28.48 -4.34 -1.65 0.05 
28.40 -4.89 -1.66 0.05 
28.32 -5.42 -1.66 0.05 
28.23 -5.96 -1.66 0.05 
28.12 -6.50 -1.66 0.05 
28.01 -7.03 -1.66 0.05 
27.88 -7.56 -1.66 0.05 
27.74 -8.09 -1.66 0.05 
27.60 -8.62 -1.66 0.05 
27.44 -9.15 -1.66 0.05 
27.27 -9.67 -1.66 0.05 
27.10 -10.19 -1.66 0.05 
26.91 -10.70 -1.66 0.05 
26.71 -11.21 -1.66 0.05 
26.50 -11.72 -1.66 0.05 
26.29 -12.22 -1.67 0.05 
26.06 -12.72 -1.67 0.05 
25.82 -13.22 -1.67 0.05 
25.56 -13.70 -1.67 0.05 
22.93 -12.85 -1.51 0.05 
22.68 -13.29 -1.51 0.05 
22.44 -13.72 -1.51 0.05 
22.18 -14.15 -1.51 0.05 
21.91 -14.57 -1.51 0.05 
21.64 -14.98 -1.51 0.05 
21.35 -15.39 -1.51 0.05 
21.06 -15.80 -1.51 0.05 
11.73 -9.15 -0.85 0.74 
20.46 -16.59 -1.51 0.05 
20.14 -16.98 -1.51 0.05 
19.82 -17.36 -1.51 0.05 
19.49 -17.73 -1.51 0.05 
19.16 -18.10 -1.51 0.05 
18.81 -18.46 -1.51 0.05 
18.46 -18.82 -1.51 0.05 
18.11 -19.16 -1.51 0.05 
17.74 -19.50 -1.51 0.05 
17.37 -19.84 -1.51 0.05 
16.99 -20.16 -1.51 0.05 
11.63 -14.35 -1.06 0.73 
11.28 -14.46 -1.05 0.56 
11.29 -15.05 -1.08 0.55 
6.31 -8.76 -0.62 0.48 
6.28 -9.07 -0.63 0.09 
14.60 -21.96 -1.51 0.05 
14.18 -22.23 -1.51 0.05 
13.76 -22.50 -1.51 0.05 
13.33 -22.75 -1.51 0.05 
12.89 -23.00 -1.51 0.05 
12.45 -23.23 -1.51 0.05 
12.01 -23.46 -1.51 0.05 
11.56 -23.68 -1.51 0.05 
11.11 -23.90 -1.51 0.05 
10.66 -24.10 -1.51 0.05 
10.20 -24.29 -1.51 0.05 
9.73 -24.48 -1.51 0.05 
9.27 -24.65 -1.51 0.05 
8.80 -24.82 -1.51 0.05 
8.32 -24.98 -1.51 0.05 
7.85 -25.12 -1.51 0.05 
7.37 -25.26 -1.51 0.05 
6.89 -25.39 -1.51 0.05 
6.41 -25.51 -1.51 0.05 
5.92 -25.62 -1.51 0.05 
5.43 -25.72 -1.51 0.05 
4.94 -25.81 -1.51 0.05 
4.45 -25.89 -1.51 0.05 
3.96 -25.96 -1.51 0.05 
3.47 -26.02 -1.51 0.05 
2.97 -26.08 -1.51 0.05 
2.48 -26.12 -1.51 0.05 
1.98 -26.15 -1.51 0.05 
1.49 -26.18 -1.51 0.05 
0.99 -26.19 -1.51 0.05 
0.23 -12.05 -0.69 0.76 
0.00 -26.19 -1.50 0.05 
-0.50 -26.17 -1.50 0.05 
-0.99 -26.15 -1.50 0.05 
-1.48 -26.11 -1.50 0.05 
-1.98 -26.07 -1.50 0.05 
-2.47 -26.01 -1.50 0.05 
-2.96 -25.95 -1.50 0.05 
-3.45 -25.88 -1.50 0.05 
-3.94 -25.79 -1.50 0.05 
-4.42 -25.70 -1.50 0.05 
-4.90 -25.60 -1.50 0.05 
-5.38 -25.49 -1.50 0.05 
-5.86 -25.37 -1.50 0.05 
-6.34 -25.24 -1.50 0.05 
-6.81 -25.11 -1.49 0.05 
-7.28 -24.96 -1.49 0.05 
-7.75 -24.80 -1.49 0.05 
-8.21 -24.64 -1.49 0.05 
-8.67 -24.46 -1.49 0.05 
-9.13 -24.28 -1.49 0.05 
-9.58 -24.09 -1.49 0.05 
-10.03 -23.89 -1.49 0.05 
-10.47 -23.68 -1.49 0.05 
-10.91 -23.47 -1.49 0.05 
-11.35 -23.24 -1.49 0.05 
-11.78 -23.01 -1.48 0.05 
-12.20 -22.77 -1.48 0.05 
-12.63 -22.52 -1.48 0.05 
-13.04 -22.26 -1.48 0.05 
-13.45 -22.00 -1.48 0.05 
-13.86 -21.73 -1.48 0.05 
-14.26 -21.45 -1.48 0.05 
-14.65 -21.16 -1.48 0.05 
-15.04 -20.86 -1.48 0.05 
-15.42 -20.56 -1.48 0.05 
-15.80 -20.25 -1.48 0.05 
-16.17 -19.94 -1.47 0.05 
-16.53 -19.62 -1.47 0.05 
-16.89 -19.29 -1.47 0.05 
-17.24 -18.95 -1.47 0.05 
-8.15 -8.62 -0.68 0.89 
-17.92 -18.26 -1.47 0.05 
-18.25 -17.91 -1.47 0.05 
-18.57 -17.55 -1.47 0.05 
-18.89 -17.18 -1.47 0.05 
-19.20 -16.81 -1.47 0.05 
-19.50 -16.43 -1.46 0.05 
-19.79 -16.05 -1.46 0.05 
-20.08 -15.66 -1.46 0.05 
-20.36 -15.27 -1.46 0.05 
-20.63 -14.87 -1.46 0.05 
-20.89 -14.47 -1.46 0.05 
-21.15 -14.06 -1.46 0.05 
-21.40 -13.65 -1.46 0.05 
-21.64 -13.23 -1.46 0.05 
-21.87 -12.81 -1.46 0.05 
-22.09 -12.39 -1.46 0.05 
-22.31 -11.96 -1.45 0.05 
-22.52 -11.53 -1.45 0.05 
-18.01 -8.79 -1.15 0.83 
-25.30 -11.76 -1.60 0.05 
-25.50 -11.27 -1.60 0.05 
-25.69 -10.78 -1.60 0.05 
-25.87 -10.29 -1.60 0.05 
-26.05 -9.79 -1.60 0.05 
-26.21 -9.29 -1.60 0.05 
-26.36 -8.79 -1.60 0.05 
-26.51 -8.28 -1.60 0.05 
-26.64 -7.77 -1.59 0.05 
-14.00 -3.80 -0.83 0.69 
-13.96 -3.51 -0.83 0.87 
-14.39 -3.33 -0.85 0.34 
-27.09 -5.72 -1.59 0.05 
-27.18 -5.21 -1.59 0.05 
-27.25 -4.69 -1.59 0.05 
-27.32 -4.17 -1.59 0.05 
-27.38 -3.65 -1.59 0.05 
-27.43 -3.13 -1.59 0.05 
-9.83 -0.93 -0.57 0.70 
-9.72 -0.74 -0.56 0.71 
-9.64 -0.55 -0.55 0.90 
-9.62 -0.36 -0.55 0.91 
-9.60 -0.18 -0.55 0.33 
-9.59 -0.00 -0.56 0.91 
-9.61 0.18 -0.56 0.91 
-9.64 0.37 -0.57 0.91 
-9.72 0.55 -0.57 0.72 
-9.83 0.75 -0.58 0.71 
-26.77 2.54 -1.58 0.05 
-26.71 3.05 -1.58 0.05 
-26.63 3.55 -1.58 0.05 
-26.55 4.05 -1.57 0.05 
-26.46 4.55 -1.57 0.05 
-26.35 5.05 -1.57 0.05 
-26.24 5.54 -1.57 0.05 
-26.12 6.04 -1.57 0.05 
-25.99 6.53 -1.57 0.05 
-25.85 7.01 -1.57 0.05 
-25.70 7.50 -1.57 0.05 
-7.65 2.39 -0.47 0.42 
-7.62 2.54 -0.47 0.80 
-7.45 2.64 -0.46 0.30 
-7.05 2.65 -0.44 0.32 
-6.69 2.66 -0.42 0.35 
-6.36 2.67 -0.40 0.36 
-6.06 2.68 -0.39 0.38 
-5.81 2.70 -0.38 0.37 
-5.58 2.72 -0.36 0.62 
-5.43 2.78 -0.36 0.63 
-5.36 2.87 -0.36 0.80 
-5.35 3.00 -0.36 0.80 
-5.34 3.13 -0.36 0.79 
-5.33 3.26 -0.37 0.78 
-5.31 3.39 -0.37 0.85 
-5.31 3.53 -0.37 0.67 
-5.32 3.68 -0.38 0.70 
-5.33 3.84 -0.39 0.68 
-5.33 4.00 -0.39 0.67 
-19.01 14.83 -1.41 0.05 
-18.72 15.18 -1.41 0.05 
-18.43 15.53 -1.41 0.05 
-18.13 15.87 -1.41 0.05 
-13.52 12.30 -1.07 0.92 
-13.19 12.46 -1.06 0.92 
-12.93 12.69 -1.06 0.87 
-12.73 12.97 -1.07 0.93 
-12.47 13.20 -1.06 0.93 
-12.20 13.42 -1.06 0.93 
-11.95 13.65 -1.06 0.93 
-15.59 18.50 -1.42 0.05 
-15.26 18.82 -1.42 0.05 
-14.92 19.13 -1.42 0.05 
-14.57 19.43 -1.42 0.05 
-12.41 17.21 -1.24 0.79 
-13.86 20.02 -1.43 0.05 
-13.49 20.30 -1.43 0.05 
-13.12 20.57 -1.43 0.05 
-12.74 20.84 -1.43 0.05 
-12.36 21.10 -1.43 0.05 
-7.31 13.04 -0.88 0.48 
-3.37 6.28 -0.42 0.74 
-3.21 6.28 -0.41 0.74 
-3.06 6.27 -0.41 0.75 
-2.92 6.27 -0.41 0.76 
-2.77 6.27 -0.40 0.77 
-2.63 6.27 -0.40 0.78 
-2.50 6.28 -0.40 0.79 
-2.36 6.28 -0.39 0.79 
-2.23 6.28 -0.39 0.79 
-2.10 6.29 -0.39 0.80 
-1.97 6.29 -0.39 0.81 
-1.84 6.30 -0.38 0.79 
-1.71 6.30 -0.38 0.80 
-1.58 6.30 -0.38 0.81 
-1.46 6.31 -0.38 0.82 
-1.33 6.32 -0.38 0.83 
-1.22 6.35 -0.38 0.83 
-1.10 6.39 -0.38 0.80 
-0.99 6.48 -0.38 0.62 
-0.88 6.62 -0.39 0.50 
-1.91 16.73 -0.99 0.75 
-1.63 17.17 -1.01 0.25 
-1.89 24.87 -1.46 0.05 
-1.42 24.92 -1.46 0.05 
-0.48 12.55 -0.74 0.43 
-0.47 24.98 -1.47 0.05 
0.00 24.99 -1.47 0.05 
0.47 25.00 -1.47 0.05 
0.95 24.99 -1.47 0.05 
1.42 24.98 -1.47 0.05 
1.89 24.96 -1.47 0.05 
2.37 24.92 -1.47 0.05 
2.84 24.88 -1.47 0.05 
3.31 24.83 -1.47 0.05 
3.78 24.76 -1.47 0.05 
4.25 24.69 -1.47 0.05 
2.75 14.35 -0.86 0.56 
3.54 16.74 -1.00 0.74 
3.89 16.85 -1.01 0.47 
6.11 24.31 -1.47 0.05 
6.56 24.19 -1.47 0.05 
7.02 24.07 -1.47 0.05 
7.48 23.93 -1.47 0.05 
7.93 23.78 -1.47 0.05 
8.37 23.63 -1.47 0.05 
4.40 11.71 -0.73 0.69 
9.26 23.29 -1.47 0.05 
5.63 13.41 -0.85 0.32 
5.80 13.11 -0.84 0.93 
6.06 13.03 -0.84 0.59 
11.00 22.52 -1.47 0.05 
11.42 22.30 -1.47 0.05 
9.14 17.05 -1.13 0.26 
9.36 16.70 -1.12 0.74 
12.65 21.60 -1.47 0.05 
13.06 21.36 -1.47 0.05 
12.40 19.44 -1.35 0.73 
13.85 20.84 -1.47 0.05 
14.24 20.57 -1.47 0.05 
14.62 20.29 -1.47 0.05 
15.00 20.01 -1.47 0.05 
15.37 19.71 -1.47 0.05 
13.27 16.37 -1.24 0.83 
16.09 19.10 -1.46 0.05 
16.45 18.78 -1.46 0.05 
6.92 7.61 -0.60 0.09 
6.83 7.23 -0.58 0.11 
6.86 6.99 -0.57 0.18 
6.90 6.77 -0.57 0.18 
6.95 6.57 -0.56 0.18 
7.03 6.40 -0.56 0.23 
7.14 6.25 -0.56 0.21 
7.25 6.11 -0.56 0.21 
7.36 5.97 -0.56 0.46 
7.65 5.97 -0.57 0.46 
7.93 5.95 -0.58 0.53 
8.24 5.94 -0.60 0.48 
8.56 5.93 -0.61 0.48 
8.91 5.92 -0.63 0.52 
9.29 5.93 -0.65 0.50 
5.88 3.59 -0.40 0.49 
5.87 3.44 -0.40 0.56 
5.88 3.30 -0.40 0.52 
5.88 3.15 -0.39 0.62 
5.92 3.03 -0.39 0.69 
6.03 2.94 -0.39 0.36 
6.33 2.94 -0.41 0.33 
21.33 9.43 -1.37 0.72 
23.16 9.72 -1.47 0.05 
23.35 9.29 -1.47 0.05 
23.54 8.85 -1.47 0.05 
23.72 8.41 -1.48 0.05 
23.89 7.96 -1.48 0.05 
24.36 7.61 -1.50 0.55 
25.09 7.32 -1.53 0.55 
25.85 7.01 -1.57 0.55 
26.62 6.68 -1.61 0.54 
27.10 6.26 -1.63 0.06 
27.31 5.77 -1.64 0.05 
27.43 5.25 -1.64 0.05 
27.54 4.74 -1.64 0.05 
27.64 4.22 -1.64 0.05 
27.73 3.70 -1.64 0.05 
27.81 3.17 -1.64 0.05 
27.88 2.65 -1.64 0.05 
27.95 2.12 -1.64 0.05 
28.00 1.59 -1.64 0.05 
28.04 1.06 -1.65 0.05 
28.07 0.53 -1.65 0.05 
28.09 -0.00 -1.65 0.05 
28.10 -0.53 -1.65 0.05 
28.10 -1.06 -1.65 0.05 
28.09 -1.60 -1.65 0.05 
28.07 -2.13 -1.65 0.05 
28.04 -2.66 -1.65 0.05 
28.00 -3.19 -1.65 0.05 
27.94 -3.72 -1.65 0.05 
27.88 -4.25 -1.65 0.05 
27.81 -4.78 -1.65 0.05 
27.73 -5.31 -1.66 0.05 
27.63 -5.84 -1.66 0.05 
27.53 -6.36 -1.66 0.05 
27.42 -6.88 -1.66 0.05 
27.29 -7.41 -1.66 0.05 
27.16 -7.92 -1.66 0.05 
27.02 -8.44 -1.66 0.05 
26.86 -8.95 -1.66 0.05 
26.70 -9.46 -1.66 0.05 
26.52 -9.97 -1.66 0.05 
26.34 -10.48 -1.66 0.05 
26.15 -10.98 -1.66 0.05 
25.94 -11.47 -1.66 0.05 
25.73 -11.97 -1.66 0.05 
25.51 -12.45 -1.66 0.05 
25.28 -12.94 -1.67 0.05 
25.01 -13.40 -1.66 0.05 
22.44 -12.58 -1.51 0.05 
22.21 -13.01 -1.51 0.05 
21.96 -13.43 -1.51 0.05 
21.71 -13.85 -1.51 0.05 
21.45 -14.26 -1.51 0.05 
21.18 -14.66 -1.51 0.05 
20.90 -15.07 -1.51 0.05 
20.62 -15.46 -1.51 0.05 
11.73 -9.15 -0.87 0.74 
20.03 -16.24 -1.51 0.05 
19.72 -16.62 -1.51 0.05 
19.40 -16.99 -1.51 0.05 
19.08 -17.36 -1.51 0.05 
18.75 -17.72 -1.51 0.05 
18.42 -18.07 -1.51 0.05 
18.07 -18.42 -1.51 0.05 
17.72 -18.76 -1.51 0.05 
17.36 -19.09 -1.51 0.05 
17.00 -19.42 -1.51 0.05 
16.63 -19.74 -1.51 0.05 
11.63 -14.35 -1.08 0.73 
11.28 -14.46 -1.08 0.56 
11.29 -15.05 -1.10 0.55 
6.31 -8.76 -0.63 0.49 
14.69 -21.22 -1.51 0.05 
14.29 -21.50 -1.51 0.05 
13.88 -21.76 -1.51 0.05 
13.46 -22.02 -1.51 0.05 
13.04 -22.27 -1.51 0.05 
12.62 -22.51 -1.51 0.05 
12.19 -22.74 -1.51 0.05 
11.76 -22.97 -1.51 0.05 
11.32 -23.18 -1.51 0.05 
10.88 -23.39 -1.51 0.05 
10.43 -23.59 -1.51 0.05 
9.98 -23.78 -1.51 0.05 
9.53 -23.96 -1.51 0.05 
9.07 -24.13 -1.51 0.05 
8.61 -24.29 -1.51 0.05 
8.15 -24.45 -1.51 0.05 
7.68 -24.59 -1.51 0.05 
7.21 -24.73 -1.51 0.05 
6.74 -24.85 -1.51 0.05 
6.27 -24.97 -1.51 0.05 
5.80 -25.08 -1.51 0.05 
5.32 -25.18 -1.51 0.05 
4.84 -25.26 -1.51 0.05 
4.36 -25.34 -1.51 0.05 
3.88 -25.41 -1.51 0.05 
3.39 -25.48 -1.51 0.05 
2.91 -25.53 -1.51 0.05 
2.43 -25.57 -1.51 0.05 
1.94 -25.60 -1.51 0.05 
1.46 -25.62 -1.51 0.05 
0.97 -25.64 -1.50 0.05 
0.23 -12.05 -0.71 0.76 
-0.00 -25.64 -1.50 0.05 
-0.48 -25.62 -1.50 0.05 
-0.97 -25.60 -1.50 0.05 
-1.45 -25.56 -1.50 0.05 
-1.94 -25.52 -1.50 0.05 
-2.42 -25.47 -1.50 0.05 
-2.90 -25.41 -1.50 0.05 
-3.38 -25.33 -1.50 0.05 
-3.85 -25.25 -1.50 0.05 
-4.33 -25.16 -1.50 0.05 
-4.80 -25.07 -1.50 0.05 
-5.27 -24.96 -1.50 0.05 
-5.74 -24.84 -1.50 0.05 
-6.21 -24.72 -1.49 0.05 
-6.67 -24.58 -1.49 0.05 
-7.13 -24.44 -1.49 0.05 
-7.59 -24.28 -1.49 0.05 
-8.04 -24.12 -1.49 0.05 
-8.49 -23.95 -1.49 0.05 
-8.94 -23.78 -1.49 0.05 
-9.38 -23.59 -1.49 0.05 
-9.82 -23.39 -1.49 0.05 
-10.26 -23.19 -1.49 0.05 
-10.69 -22.98 -1.49 0.05 
-11.11 -22.76 -1.49 0.05 
-11.53 -22.53 -1.48 0.05 
-11.95 -22.30 -1.48 0.05 
-12.36 -22.05 -1.48 0.05 
-12.77 -21.80 -1.48 0.05 
-13.17 -21.54 -1.48 0.05 
-13.57 -21.28 -1.48 0.05 
-13.96 -21.00 -1.48 0.05 
-14.35 -20.72 -1.48 0.05 
-14.73 -20.43 -1.48 0.05 
-15.10 -20.14 -1.48 0.05 
-15.47 -19.84 -1.48 0.05 
-15.83 -19.53 -1.47 0.05 
-16.19 -19.21 -1.47 0.05 
-16.54 -18.89 -1.47 0.05 
-16.88 -18.56 -1.47 0.05 
-8.15 -8.62 -0.70 0.89 
-17.55 -17.89 -1.47 0.05 
-17.87 -17.54 -1.47 0.05 
-18.19 -17.19 -1.47 0.05 
-18.50 -16.83 -1.47 0.05 
-18.80 -16.46 -1.47 0.05 
-19.10 -16.09 -1.46 0.05 
-19.39 -15.72 -1.46 0.05 
-19.67 -15.34 -1.46 0.05 
-19.94 -14.96 -1.46 0.05 
-20.21 -14.57 -1.46 0.05 
-20.47 -14.17 -1.46 0.05 
-20.72 -13.77 -1.46 0.05 
-20.96 -13.37 -1.46 0.05 
-21.20 -12.96 -1.46 0.05 
-21.42 -12.55 -1.46 0.05 
-21.64 -12.13 -1.46 0.05 
-21.85 -11.71 -1.45 0.05 
-22.06 -11.29 -1.45 0.05 
-18.01 -8.79 -1.18 0.83 
-24.78 -11.52 -1.60 0.05 
-24.98 -11.05 -1.60 0.05 
-25.17 -10.56 -1.60 0.05 
-25.35 -10.08 -1.60 0.05 
-25.52 -9.59 -1.60 0.05 
-25.68 -9.10 -1.60 0.05 
-25.83 -8.61 -1.60 0.05 
-25.97 -8.11 -1.60 0.05 
-26.10 -7.62 -1.59 0.05 
-13.99 -3.80 -0.85 0.62 
-13.95 -3.50 -0.84 0.87 
-14.16 -3.27 -0.85 0.92 
-26.54 -5.61 -1.59 0.05 
-26.63 -5.10 -1.59 0.05 
-26.70 -4.59 -1.59 0.05 
-26.77 -4.08 -1.59 0.05 
-26.83 -3.58 -1.59 0.05 
-26.88 -3.06 -1.59 0.05 
-9.82 -0.93 -0.58 0.70 
-9.72 -0.74 -0.57 0.71 
-9.64 -0.55 -0.57 0.90 
-9.61 -0.36 -0.56 0.91 
-9.59 -0.18 -0.56 0.91 
-9.59 -0.00 -0.57 0.91 
-9.61 0.18 -0.58 0.91 
-9.63 0.36 -0.58 0.91 
-9.72 0.55 -0.58 0.72 
-9.82 0.75 -0.59 0.71 
-26.25 2.49 -1.58 0.05 
-26.18 2.99 -1.58 0.05 
-26.11 3.48 -1.58 0.05 
-26.03 3.97 -1.58 0.06 
-25.94 4.46 -1.58 0.06 
-25.84 4.95 -1.57 0.06 
-25.73 5.43 -1.57 0.06 
-25.61 5.92 -1.57 0.06 
-25.48 6.40 -1.57 0.06 
-25.35 6.88 -1.57 0.06 
-25.20 7.35 -1.57 0.06 
-7.65 2.39 -0.48 0.42 
-7.62 2.54 -0.48 0.80 
-7.43 2.64 -0.47 0.30 
-7.03 2.64 -0.45 0.32 
-6.68 2.65 -0.43 0.35 
-6.35 2.67 -0.41 0.36 
-6.06 2.68 -0.40 0.38 
-5.80 2.70 -0.38 0.37 
-5.57 2.72 -0.37 0.62 
-5.43 2.78 -0.36 0.63 
-5.36 2.87 -0.36 0.80 
-5.35 3.00 -0.37 0.80 
-5.34 3.13 -0.37 0.79 
-5.32 3.26 -0.37 0.78 
-5.31 3.39 -0.38 0.85 
-5.30 3.53 -0.38 0.67 
-5.32 3.68 -0.39 0.70 
-5.32 3.84 -0.39 0.69 
-5.33 4.00 -0.40 0.67 
-18.64 14.54 -1.41 0.06 
-18.36 14.89 -1.41 0.06 
-18.07 15.23 -1.41 0.06 
-17.78 15.57 -1.41 0.06 
-13.52 12.30 -1.09 0.92 
-13.19 12.46 -1.09 0.92 
-12.93 12.69 -1.08 0.87 
-12.73 12.97 -1.09 0.93 
-12.47 13.20 -1.09 0.93 
-12.20 13.42 -1.09 0.93 
-11.95 13.65 -1.09 0.93 
-15.27 18.12 -1.42 0.05 
-14.94 18.43 -1.42 0.05 
-14.61 18.73 -1.42 0.05 
-12.73 16.98 -1.27 0.60 
-12.40 17.20 -1.27 0.79 
-13.57 19.59 -1.43 0.05 
-13.21 19.87 -1.43 0.05 
-12.85 20.14 -1.43 0.05 
-12.48 20.40 -1.43 0.05 
-12.10 20.66 -1.43 0.05 
-3.55 6.34 -0.43 0.02 
-3.36 6.27 -0.43 0.74 
-3.21 6.27 -0.42 0.74 
-3.06 6.27 -0.42 0.75 
-2.91 6.27 -0.41 0.76 
-2.77 6.26 -0.41 0.77 
-2.63 6.27 -0.41 0.78 
-2.49 6.27 -0.40 0.79 
-2.36 6.27 -0.40 0.79 
-2.22 6.28 -0.40 0.80 
-2.09 6.28 -0.40 0.80 
-1.96 6.29 -0.39 0.81 
-1.84 6.29 -0.39 0.79 
-1.71 6.29 -0.39 0.80 
-1.58 6.30 -0.39 0.81 
-1.46 6.30 -0.39 0.82 
-1.33 6.31 -0.39 0.84 
-1.22 6.35 -0.39 0.83 
-1.10 6.38 -0.39 0.80 
-0.99 6.47 -0.39 0.62 
-0.88 6.61 -0.40 0.50 
-0.83 7.28 -0.44 0.04 
-2.31 24.29 -1.46 0.05 
-1.85 24.34 -1.46 0.05 
-1.39 24.38 -1.46 0.05 
-0.48 12.55 -0.75 0.47 
-0.46 24.44 -1.46 0.05 
0.00 24.45 -1.46 0.05 
0.46 24.46 -1.46 0.05 
0.93 24.45 -1.46 0.05 
1.39 24.44 -1.46 0.05 
1.85 24.42 -1.47 0.05 
2.31 24.38 -1.47 0.05 
2.78 24.34 -1.47 0.05 
3.24 24.29 -1.47 0.05 
3.70 24.23 -1.47 0.05 
4.16 24.16 -1.47 0.05 
2.75 14.35 -0.87 0.54 
3.54 16.75 -1.02 0.74 
3.90 16.87 -1.04 0.47 
5.97 23.79 -1.47 0.05 
6.42 23.67 -1.47 0.05 
6.87 23.55 -1.47 0.05 
7.31 23.41 -1.47 0.05 
7.76 23.27 -1.47 0.05 
8.19 23.11 -1.47 0.05 
4.40 11.71 -0.75 0.69 
9.06 22.79 -1.47 0.05 
5.63 13.40 -0.87 0.32 
5.80 13.11 -0.86 0.93 
6.06 13.03 -0.86 0.59 
10.76 22.03 -1.47 0.05 
11.17 21.82 -1.47 0.05 
9.17 17.11 -1.16 0.26 
9.38 16.73 -1.15 0.48 
12.38 21.13 -1.47 0.05 
12.78 20.89 -1.47 0.05 
12.39 19.42 -1.38 0.73 
13.55 20.39 -1.47 0.05 
13.93 20.12 -1.46 0.05 
14.31 19.85 -1.46 0.05 
14.68 19.57 -1.46 0.05 
15.04 19.28 -1.46 0.05 
13.28 16.37 -1.26 0.81 
15.75 18.69 -1.46 0.05 
16.09 18.38 -1.46 0.05 
6.85 7.54 -0.61 0.14 
6.79 7.18 -0.59 0.18 
6.81 6.94 -0.58 0.18 
6.85 6.73 -0.57 0.21 
6.91 6.53 -0.57 0.19 
7.00 6.37 -0.57 0.23 
7.10 6.22 -0.56 0.23 
7.21 6.07 -0.56 0.21 
7.35 5.96 -0.57 0.47 
7.64 5.95 -0.58 0.46 
7.92 5.94 -0.59 0.53 
8.23 5.93 -0.61 0.48 
8.55 5.92 -0.62 0.48 
8.91 5.92 -0.64 0.52 
9.29 5.92 -0.66 0.50 
5.87 3.59 -0.41 0.49 
5.86 3.43 -0.41 0.56 
5.87 3.29 -0.40 0.52 
5.88 3.15 -0.40 0.63 
5.91 3.02 -0.40 0.69 
6.02 2.94 -0.40 0.36 
6.31 2.94 -0.42 0.34 
21.32 9.43 -1.40 0.72 
22.69 9.52 -1.47 0.05 
22.88 9.10 -1.47 0.05 
23.06 8.67 -1.47 0.05 
23.24 8.24 -1.48 0.05 
23.63 7.88 -1.49 0.57 
24.35 7.61 -1.53 0.55 
25.08 7.32 -1.56 0.55 
25.84 7.01 -1.60 0.55 
26.40 6.63 -1.63 0.06 
26.62 6.15 -1.64 0.05 
26.75 5.65 -1.64 0.05 
26.87 5.15 -1.64 0.05 
26.98 4.64 -1.64 0.05 
27.08 4.13 -1.64 0.05 
27.17 3.62 -1.64 0.05 
27.25 3.11 -1.64 0.05 
27.32 2.59 -1.64 0.05 
27.38 2.08 -1.64 0.05 
27.42 1.56 -1.64 0.05 
27.46 1.04 -1.64 0.05 
27.49 0.52 -1.65 0.05 
27.51 -0.00 -1.65 0.05 
27.52 -0.52 -1.65 0.05 
27.52 -1.04 -1.65 0.05 
27.51 -1.56 -1.65 0.05 
27.49 -2.09 -1.65 0.05 
27.46 -2.61 -1.65 0.05 
27.42 -3.13 -1.65 0.05 
27.37 -3.65 -1.65 0.05 
27.31 -4.17 -1.65 0.05 
27.24 -4.68 -1.65 0.05 
27.16 -5.20 -1.65 0.05 
27.07 -5.72 -1.66 0.05 
26.96 -6.23 -1.66 0.05 
26.85 -6.74 -1.66 0.05 
26.73 -7.25 -1.66 0.05 
26.60 -7.76 -1.66 0.05 
26.46 -8.27 -1.66 0.05 
26.31 -8.77 -1.66 0.05 
26.15 -9.27 -1.66 0.05 
25.98 -9.77 -1.66 0.05 
25.80 -10.26 -1.66 0.05 
25.61 -10.75 -1.66 0.05 
25.41 -11.24 -1.66 0.05 
25.20 -11.72 -1.66 0.05 
24.98 -12.20 -1.66 0.05 
24.75 -12.67 -1.66 0.05 
24.48 -13.12 -1.66 0.05 
21.98 -12.32 -1.51 0.05 
21.75 -12.74 -1.51 0.05 
21.51 -13.15 -1.51 0.05 
21.26 -13.56 -1.51 0.05 
21.00 -13.96 -1.51 0.05 
20.74 -14.36 -1.51 0.05 
20.47 -14.75 -1.51 0.05 
20.19 -15.14 -1.51 0.05 
11.72 -9.14 -0.89 0.74 
19.61 -15.90 -1.51 0.05 
19.31 -16.27 -1.51 0.05 
19.00 -16.64 -1.51 0.05 
18.69 -17.00 -1.51 0.05 
18.36 -17.35 -1.51 0.05 
18.03 -17.70 -1.51 0.05 
17.70 -18.03 -1.51 0.05 
17.35 -18.37 -1.51 0.05 
17.00 -18.69 -1.51 0.05 
16.65 -19.01 -1.51 0.05 
16.29 -19.33 -1.51 0.05 
11.63 -14.35 -1.11 0.73 
11.28 -14.46 -1.10 0.56 
11.29 -15.05 -1.13 0.55 
6.31 -8.76 -0.65 0.49 
14.39 -20.78 -1.51 0.05 
13.99 -21.05 -1.51 0.05 
13.59 -21.31 -1.51 0.05 
13.19 -21.56 -1.51 0.05 
12.77 -21.81 -1.51 0.05 
12.36 -22.04 -1.51 0.05 
11.94 -22.27 -1.51 0.05 
11.51 -22.49 -1.51 0.05 
11.08 -22.70 -1.51 0.05 
10.65 -22.90 -1.51 0.05 
10.21 -23.10 -1.51 0.05 
9.77 -23.28 -1.51 0.05 
9.33 -23.46 -1.51 0.05 
8.88 -23.63 -1.51 0.05 
8.43 -23.79 -1.51 0.05 
7.98 -23.94 -1.51 0.05 
7.52 -24.08 -1.51 0.05 
7.06 -24.21 -1.51 0.05 
6.60 -24.34 -1.51 0.05 
6.14 -24.45 -1.51 0.05 
5.68 -24.56 -1.51 0.05 
5.21 -24.66 -1.51 0.05 
4.74 -24.74 -1.51 0.05 
4.27 -24.82 -1.51 0.05 
3.80 -24.89 -1.51 0.05 
3.32 -24.95 -1.51 0.05 
2.85 -25.00 -1.51 0.05 
2.38 -25.04 -1.51 0.05 
1.90 -25.07 -1.50 0.05 
1.43 -25.09 -1.50 0.05 
0.95 -25.11 -1.50 0.05 
0.23 -12.05 -0.72 0.77 
-0.00 -25.11 -1.50 0.05 
-0.47 -25.09 -1.50 0.05 
-0.95 -25.07 -1.50 0.05 
-1.42 -25.04 -1.50 0.05 
-1.90 -24.99 -1.50 0.05 
-2.37 -24.94 -1.50 0.05 
-2.84 -24.88 -1.50 0.05 
-3.31 -24.81 -1.50 0.05 
-3.77 -24.74 -1.50 0.05 
-4.24 -24.65 -1.50 0.05 
-4.70 -24.55 -1.50 0.05 
-5.16 -24.45 -1.50 0.05 
-5.62 -24.33 -1.49 0.05 
-6.08 -24.21 -1.49 0.05 
-6.53 -24.08 -1.49 0.05 
-6.98 -23.94 -1.49 0.05 
-7.43 -23.79 -1.49 0.05 
-7.88 -23.63 -1.49 0.05 
-8.32 -23.46 -1.49 0.05 
-8.76 -23.29 -1.49 0.05 
-9.19 -23.11 -1.49 0.05 
-9.62 -22.92 -1.49 0.05 
-10.05 -22.72 -1.49 0.05 
-10.47 -22.51 -1.49 0.05 
-10.89 -22.30 -1.48 0.05 
-11.30 -22.07 -1.48 0.05 
-11.71 -21.84 -1.48 0.05 
-12.11 -21.60 -1.48 0.05 
-12.51 -21.36 -1.48 0.05 
-12.91 -21.10 -1.48 0.05 
-13.29 -20.84 -1.48 0.05 
-13.68 -20.58 -1.48 0.05 
-14.06 -20.30 -1.48 0.05 
-14.43 -20.02 -1.48 0.05 
-14.80 -19.73 -1.48 0.05 
-15.16 -19.43 -1.47 0.05 
-15.51 -19.13 -1.47 0.05 
-15.86 -18.82 -1.47 0.05 
-16.21 -18.51 -1.47 0.05 
-16.54 -18.19 -1.47 0.05 
-8.15 -8.62 -0.71 0.89 
-17.20 -17.53 -1.47 0.05 
-17.51 -17.19 -1.47 0.05 
-17.82 -16.84 -1.47 0.05 
-18.13 -16.49 -1.47 0.05 
-18.43 -16.13 -1.47 0.05 
-18.72 -15.77 -1.46 0.05 
-19.00 -15.40 -1.46 0.05 
-19.27 -15.03 -1.46 0.05 
-19.54 -14.66 -1.46 0.05 
-19.80 -14.27 -1.46 0.05 
-20.06 -13.89 -1.46 0.05 
-20.30 -13.50 -1.46 0.05 
-20.54 -13.10 -1.46 0.05 
-20.77 -12.70 -1.46 0.05 
-21.00 -12.30 -1.46 0.05 
-21.21 -11.89 -1.46 0.05 
-21.42 -11.48 -1.45 0.05 
-21.62 -11.07 -1.45 0.05 
-18.01 -8.79 -1.20 0.83 
-24.29 -11.29 -1.60 0.05 
-24.48 -10.83 -1.60 0.05 
-24.67 -10.35 -1.60 0.05 
-24.84 -9.88 -1.60 0.05 
-25.01 -9.40 -1.60 0.05 
-25.17 -8.92 -1.60 0.05 
-25.32 -8.44 -1.60 0.05 
-25.46 -7.95 -1.60 0.05 
-25.59 -7.47 -1.60 0.05 
-13.98 -3.79 -0.87 0.62 
-13.94 -3.50 -0.86 0.87 
-14.16 -3.27 -0.87 0.92 
-26.02 -5.50 -1.59 0.05 
-26.10 -5.00 -1.59 0.05 
-26.18 -4.50 -1.59 0.05 
-26.24 -4.00 -1.59 0.05 
-26.30 -3.50 -1.59 0.05 
-26.35 -3.00 -1.59 0.05 
-9.81 -0.93 -0.59 0.70 
-9.71 -0.74 -0.58 0.71 
-9.63 -0.55 -0.58 0.90 
-9.61 -0.36 -0.58 0.91 
-9.59 -0.18 -0.57 0.91 
-9.58 -0.00 -0.58 0.91 
-9.61 0.18 -0.59 0.91 
-9.63 0.36 -0.59 0.91 
-9.71 0.55 -0.59 0.72 
-9.81 0.74 -0.60 0.71 
-25.74 2.44 -1.58 0.06 
-25.68 2.93 -1.58 0.06 
-25.61 3.41 -1.58 0.06 
-25.53 3.89 -1.58 0.06 
-25.44 4.38 -1.58 0.06 
-25.34 4.85 -1.58 0.06 
-25.23 5.33 -1.57 0.06 
-25.12 5.80 -1.57 0.06 
-24.99 6.28 -1.57 0.06 
-24.86 6.75 -1.57 0.06 
-24.72 7.21 -1.57 0.06 
-7.65 2.39 -0.49 0.42 
-7.62 2.54 -0.49 0.80 
-7.42 2.63 -0.48 0.30 
-7.02 2.64 -0.46 0.32 
-6.67 2.65 -0.44 0.35 
-6.34 2.66 -0.42 0.36 
-6.05 2.67 -0.40 0.38 
-5.79 2.69 -0.39 0.38 
-5.57 2.72 -0.38 0.62 
-5.42 2.77 -0.37 0.63 
-5.35 2.87 -0.37 0.80 
-5.34 2.99 -0.37 0.80 
-5.33 3.12 -0.38 0.79 
-5.32 3.25 -0.38 0.78 
-5.31 3.38 -0.38 0.85 
-5.30 3.52 -0.39 0.68 
-5.31 3.68 -0.39 0.70 
-5.32 3.83 -0.40 0.69 
-5.33 3.99 -0.41 0.68 
-18.29 14.26 -1.42 0.06 
-18.01 14.60 -1.42 0.06 
-17.73 14.94 -1.42 0.06 
-17.44 15.27 -1.41 0.06 
-13.52 12.30 -1.12 0.92 
-13.19 12.46 -1.11 0.92 
-12.94 12.69 -1.11 0.88 
-12.73 12.97 -1.11 0.93 
-12.47 13.20 -1.11 0.93 
-12.20 13.42 -1.11 0.93 
-11.95 13.65 -1.11 0.93 
-14.95 17.75 -1.42 0.05 
-14.63 18.05 -1.42 0.05 
-14.31 18.34 -1.42 0.05 
-12.73 16.97 -1.29 0.69 
-12.40 17.20 -1.29 0.92 
-13.29 19.19 -1.42 0.05 
-12.94 19.46 -1.43 0.05 
-12.58 19.72 -1.43 0.05 
-12.22 19.98 -1.43 0.05 
-11.85 20.23 -1.43 0.05 
-3.51 6.27 -0.44 0.73 
-3.36 6.27 -0.43 0.74 
-3.21 6.26 -0.43 0.74 
-3.06 6.26 -0.43 0.75 
-2.91 6.26 -0.42 0.76 
-2.77 6.26 -0.42 0.77 
-2.63 6.26 -0.41 0.78 
-2.49 6.27 -0.41 0.79 
-2.36 6.27 -0.41 0.79 
-2.22 6.27 -0.41 0.80 
-2.09 6.28 -0.40 0.80 
-1.96 6.28 -0.40 0.81 
-1.83 6.29 -0.40 0.79 
-1.71 6.29 -0.40 0.80 
-1.58 6.29 -0.40 0.81 
-1.46 6.30 -0.39 0.82 
-1.33 6.31 -0.39 0.84 
-1.21 6.34 -0.39 0.83 
-1.10 6.38 -0.40 0.80 
-0.99 6.46 -0.40 0.62 
-0.88 6.60 -0.41 0.50 
-0.82 7.15 -0.44 0.04 
-2.26 23.77 -1.46 0.05 
-1.81 23.82 -1.46 0.05 
-1.36 23.87 -1.46 0.05 
-0.48 12.55 -0.77 0.51 
-0.45 23.92 -1.46 0.05 
0.00 23.94 -1.46 0.05 
0.45 23.94 -1.46 0.05 
0.91 23.94 -1.46 0.05 
1.36 23.92 -1.46 0.05 
1.81 23.90 -1.46 0.05 
2.27 23.87 -1.46 0.05 
2.72 23.83 -1.46 0.05 
3.17 23.77 -1.46 0.05 
3.62 23.72 -1.46 0.05 
4.07 23.65 -1.46 0.05 
2.75 14.36 -0.89 0.46 
3.54 16.77 -1.05 0.74 
3.90 16.89 -1.06 0.47 
5.85 23.28 -1.47 0.05 
6.29 23.17 -1.47 0.05 
6.72 23.05 -1.47 0.05 
7.16 22.92 -1.47 0.05 
7.59 22.77 -1.47 0.05 
8.02 22.62 -1.47 0.05 
4.40 11.70 -0.76 0.69 
8.87 22.30 -1.47 0.05 
5.63 13.40 -0.89 0.32 
5.80 13.11 -0.88 0.93 
6.06 13.03 -0.88 0.59 
10.53 21.56 -1.46 0.05 
10.93 21.36 -1.46 0.05 
11.33 21.14 -1.46 0.05 
9.40 16.76 -1.17 0.48 
12.12 20.69 -1.46 0.05 
12.51 20.45 -1.46 0.05 
12.36 19.37 -1.40 0.76 
13.26 19.95 -1.46 0.05 
13.64 19.70 -1.46 0.05 
14.00 19.43 -1.46 0.05 
14.37 19.16 -1.46 0.05 
14.72 18.88 -1.46 0.05 
13.28 16.38 -1.29 0.56 
15.42 18.29 -1.46 0.05 
15.75 17.99 -1.46 0.05 
6.80 7.48 -0.62 0.14 
6.74 7.14 -0.60 0.18 
6.77 6.90 -0.59 0.19 
6.82 6.69 -0.58 0.21 
6.87 6.49 -0.58 0.21 
6.96 6.33 -0.57 0.23 
7.07 6.19 -0.57 0.23 
7.17 6.04 -0.57 0.21 
7.34 5.95 -0.58 0.47 
7.62 5.94 -0.59 0.46 
7.91 5.93 -0.60 0.53 
8.21 5.92 -0.62 0.48 
8.54 5.91 -0.63 0.53 
8.90 5.92 -0.65 0.52 
9.28 5.92 -0.67 0.50 
5.86 3.58 -0.42 0.49 
5.85 3.43 -0.41 0.56 
5.86 3.28 -0.41 0.53 
5.87 3.14 -0.41 0.63 
5.90 3.02 -0.40 0.69 
6.01 2.93 -0.41 0.60 
6.30 2.93 -0.42 0.37 
6.80 3.01 -0.45 0.05 
22.24 9.34 -1.47 0.05 
22.43 8.92 -1.47 0.05 
22.61 8.50 -1.47 0.05 
22.92 8.12 -1.48 0.57 
23.62 7.87 -1.52 0.57 
24.34 7.60 -1.56 0.55 
25.07 7.32 -1.59 0.55 
25.72 6.98 -1.63 0.06 
25.95 6.52 -1.63 0.06 
26.09 6.03 -1.63 0.05 
26.22 5.54 -1.64 0.05 
26.34 5.04 -1.64 0.05 
26.44 4.55 -1.64 0.05 
26.54 4.05 -1.64 0.05 
26.62 3.55 -1.64 0.05 
26.70 3.05 -1.64 0.05 
26.77 2.54 -1.64 0.05 
26.83 2.03 -1.64 0.05 
26.88 1.53 -1.64 0.05 
26.91 1.02 -1.64 0.05 
26.94 0.51 -1.64 0.05 
26.96 -0.00 -1.65 0.05 
26.97 -0.51 -1.65 0.05 
26.97 -1.02 -1.65 0.05 
26.96 -1.53 -1.65 0.05 
26.94 -2.04 -1.65 0.05 
26.91 -2.55 -1.65 0.05 
26.87 -3.06 -1.65 0.05 
26.82 -3.57 -1.65 0.05 
26.76 -4.08 -1.65 0.05 
26.69 -4.59 -1.65 0.05 
26.61 -5.10 -1.65 0.05 
26.52 -5.60 -1.65 0.05 
26.42 -6.11 -1.66 0.05 
26.31 -6.61 -1.66 0.05 
26.19 -7.11 -1.66 0.05 
26.06 -7.60 -1.66 0.05 
25.93 -8.10 -1.66 0.05 
25.78 -8.59 -1.66 0.05 
25.62 -9.08 -1.66 0.05 
25.45 -9.57 -1.66 0.05 
25.28 -10.05 -1.66 0.05 
25.09 -10.53 -1.66 0.05 
24.89 -11.01 -1.66 0.05 
24.69 -11.48 -1.66 0.05 
24.47 -11.95 -1.66 0.05 
24.25 -12.41 -1.66 0.05 
23.97 -12.85 -1.66 0.05 
21.53 -12.07 -1.51 0.05 
21.31 -12.48 -1.51 0.05 
21.07 -12.88 -1.51 0.05 
20.83 -13.28 -1.51 0.05 
20.58 -13.68 -1.51 0.05 
20.32 -14.07 -1.51 0.05 
20.05 -14.45 -1.51 0.05 
19.78 -14.83 -1.51 0.05 
11.72 -9.14 -0.91 0.74 
19.21 -15.58 -1.51 0.05 
18.92 -15.94 -1.51 0.05 
18.61 -16.30 -1.51 0.05 
18.31 -16.65 -1.51 0.05 
17.99 -17.00 -1.51 0.05 
17.67 -17.34 -1.51 0.05 
17.34 -17.67 -1.51 0.05 
17.00 -18.00 -1.51 0.05 
16.66 -18.31 -1.51 0.05 
16.31 -18.63 -1.51 0.05 
15.96 -18.93 -1.51 0.05 
11.63 -14.35 -1.13 0.73 
11.28 -14.46 -1.12 0.56 
11.29 -15.05 -1.15 0.55 
6.31 -8.76 -0.66 0.49 
14.10 -20.36 -1.51 0.05 
13.71 -20.62 -1.51 0.05 
13.32 -20.88 -1.51 0.05 
12.92 -21.12 -1.51 0.05 
12.51 -21.36 -1.51 0.05 
12.11 -21.59 -1.51 0.05 
11.70 -21.82 -1.51 0.05 
11.28 -22.03 -1.51 0.05 
10.86 -22.24 -1.51 0.05 
10.43 -22.44 -1.51 0.05 
10.01 -22.63 -1.51 0.05 
9.58 -22.81 -1.51 0.05 
9.14 -22.99 -1.51 0.05 
8.70 -23.15 -1.51 0.05 
8.26 -23.31 -1.51 0.05 
7.82 -23.45 -1.51 0.05 
7.37 -23.59 -1.51 0.05 
6.92 -23.72 -1.51 0.05 
6.47 -23.84 -1.51 0.05 
6.02 -23.96 -1.51 0.05 
5.56 -24.06 -1.51 0.05 
5.10 -24.16 -1.51 0.05 
4.64 -24.24 -1.51 0.05 
4.18 -24.32 -1.51 0.05 
3.72 -24.39 -1.51 0.05 
3.26 -24.44 -1.51 0.05 
2.79 -24.49 -1.50 0.05 
2.33 -24.53 -1.50 0.05 
1.86 -24.57 -1.50 0.05 
1.40 -24.59 -1.50 0.05 
0.93 -24.60 -1.50 0.05 
0.23 -12.05 -0.74 0.77 
-0.00 -24.60 -1.50 0.05 
-0.47 -24.59 -1.50 0.05 
-0.93 -24.56 -1.50 0.05 
-1.39 -24.53 -1.50 0.05 
-1.86 -24.49 -1.50 0.05 
-2.32 -24.44 -1.50 0.05 
-2.78 -24.38 -1.50 0.05 
-3.24 -24.31 -1.50 0.05 
-3.70 -24.24 -1.50 0.05 
-4.15 -24.15 -1.50 0.05 
-4.61 -24.06 -1.50 0.05 
-5.06 -23.95 -1.49 0.05 
-5.51 -23.84 -1.49 0.05 
-5.96 -23.72 -1.49 0.05 
-6.40 -23.59 -1.49 0.05 
-6.84 -23.46 -1.49 0.05 
-7.28 -23.31 -1.49 0.05 
-7.72 -23.16 -1.49 0.05 
-8.15 -22.99 -1.49 0.05 
-8.58 -22.82 -1.49 0.05 
-9.01 -22.65 -1.49 0.05 
-9.43 -22.46 -1.49 0.05 
-9.85 -22.26 -1.49 0.05 
-10.26 -22.06 -1.49 0.05 
-10.67 -21.85 -1.48 0.05 
-11.07 -21.63 -1.48 0.05 
-11.47 -21.41 -1.48 0.05 
-11.87 -21.17 -1.48 0.05 
-12.26 -20.93 -1.48 0.05 
-12.65 -20.68 -1.48 0.05 
-13.03 -20.43 -1.48 0.05 
-13.41 -20.17 -1.48 0.05 
-13.78 -19.90 -1.48 0.05 
-14.14 -19.62 -1.48 0.05 
-14.50 -19.34 -1.48 0.05 
-14.86 -19.05 -1.47 0.05 
-15.21 -18.75 -1.47 0.05 
-15.55 -18.45 -1.47 0.05 
-15.88 -18.14 -1.47 0.05 
-16.21 -17.83 -1.47 0.05 
-8.15 -8.62 -0.72 0.89 
-16.86 -17.18 -1.47 0.06 
-17.17 -16.85 -1.47 0.06 
-17.47 -16.51 -1.47 0.06 
-17.77 -16.16 -1.47 0.06 
-18.06 -15.81 -1.47 0.06 
-18.35 -15.46 -1.46 0.06 
-18.62 -15.10 -1.46 0.06 
-18.89 -14.74 -1.46 0.06 
-19.16 -14.37 -1.46 0.06 
-19.41 -13.99 -1.46 0.06 
-19.66 -13.61 -1.46 0.06 
-19.90 -13.23 -1.46 0.06 
-20.14 -12.84 -1.46 0.06 
-20.37 -12.45 -1.46 0.06 
-20.58 -12.06 -1.46 0.06 
-20.80 -11.66 -1.46 0.06 
-21.00 -11.26 -1.45 0.06 
-21.20 -10.85 -1.45 0.06 
-18.01 -8.79 -1.22 0.83 
-23.81 -11.07 -1.60 0.06 
-24.00 -10.61 -1.60 0.06 
-24.19 -10.15 -1.60 0.06 
-24.36 -9.69 -1.60 0.06 
-24.52 -9.22 -1.60 0.06 
-24.68 -8.75 -1.60 0.06 
-24.82 -8.27 -1.60 0.06 
-24.96 -7.80 -1.60 0.06 
-25.09 -7.32 -1.60 0.06 
-13.97 -3.79 -0.88 0.62 
-13.94 -3.50 -0.88 0.88 
-14.16 -3.27 -0.89 0.92 
-25.51 -5.39 -1.59 0.06 
-25.60 -4.90 -1.59 0.06 
-25.67 -4.41 -1.59 0.06 
-25.73 -3.93 -1.59 0.06 
-25.79 -3.44 -1.59 0.06 
-25.84 -2.95 -1.59 0.06 
-9.81 -0.93 -0.60 0.70 
-9.70 -0.74 -0.59 0.71 
-9.63 -0.55 -0.59 0.90 
-9.60 -0.36 -0.59 0.91 
-9.58 -0.18 -0.58 0.91 
-9.58 -0.00 -0.60 0.91 
-9.60 0.18 -0.60 0.91 
-9.62 0.36 -0.60 0.91 
-9.70 0.55 -0.60 0.72 
-9.81 0.74 -0.61 0.71 
-25.26 2.40 -1.58 0.06 
-25.20 2.87 -1.58 0.06 
-25.13 3.35 -1.58 0.06 
-25.05 3.82 -1.58 0.06 
-24.96 4.29 -1.58 0.06 
-24.86 4.76 -1.58 0.06 
-24.76 5.23 -1.58 0.06 
-24.65 5.70 -1.57 0.06 
-24.52 6.16 -1.57 0.06 
-24.39 6.62 -1.57 0.06 
-24.26 7.08 -1.57 0.06 
-7.65 2.39 -0.50 0.42 
-7.62 2.54 -0.50 0.80 
-7.41 2.63 -0.49 0.30 
-7.01 2.63 -0.47 0.32 
-6.65 2.65 -0.45 0.35 
-6.33 2.66 -0.43 0.36 
-6.04 2.67 -0.41 0.38 
-5.78 2.69 -0.40 0.38 
-5.56 2.72 -0.39 0.62 
-5.41 2.77 -0.38 0.63 
-5.35 2.87 -0.38 0.80 
-5.34 2.99 -0.38 0.80 
-5.33 3.12 -0.38 0.79 
-5.32 3.25 -0.39 0.78 
-5.30 3.38 -0.39 0.85 
-5.30 3.52 -0.40 0.68 
-5.31 3.68 -0.40 0.70 
-5.32 3.83 -0.41 0.69 
-5.32 3.99 -0.41 0.68 
-17.94 14.00 -1.42 0.06 
-17.67 14.33 -1.42 0.06 
-17.40 14.66 -1.42 0.06 
-17.11 14.98 -1.42 0.06 
-13.52 12.30 -1.14 0.92 
-13.19 12.46 -1.13 0.92 
-12.94 12.69 -1.13 0.88 
-12.73 12.97 -1.13 0.93 
-12.47 13.20 -1.13 0.93 
-12.20 13.42 -1.13 0.93 
-11.95 13.65 -1.13 0.93 
-14.65 17.39 -1.42 0.05 
-14.34 17.68 -1.42 0.05 
-14.02 17.97 -1.42 0.05 
-12.73 16.97 -1.32 0.69 
-12.40 17.20 -1.32 0.92 
-13.02 18.80 -1.42 0.05 
-12.67 19.07 -1.43 0.05 
-12.32 19.32 -1.43 0.05 
-11.97 19.57 -1.43 0.05 
-11.61 19.82 -1.43 0.05 
-3.51 6.26 -0.45 0.73 
-3.36 6.26 -0.44 0.74 
-3.20 6.26 -0.44 0.75 
-3.06 6.26 -0.43 0.75 
-2.91 6.25 -0.43 0.76 
-2.77 6.25 -0.43 0.77 
-2.63 6.26 -0.42 0.78 
-2.49 6.26 -0.42 0.79 
-2.35 6.26 -0.42 0.79 
-2.22 6.27 -0.41 0.80 
-2.09 6.27 -0.41 0.80 
-1.96 6.28 -0.41 0.81 
-1.83 6.28 -0.41 0.80 
-1.71 6.28 -0.41 0.80 
-1.58 6.29 -0.40 0.81 
-1.45 6.29 -0.40 0.82 
-1.33 6.30 -0.40 0.84 
-1.21 6.34 -0.40 0.83 
-1.10 6.37 -0.40 0.81 
-0.98 6.45 -0.41 0.62 
-0.88 6.59 -0.41 0.50 
-0.80 7.02 -0.44 0.04 
-2.21 23.28 -1.46 0.05 
-1.77 23.33 -1.46 0.05 
-1.33 23.37 -1.46 0.05 
-0.48 12.55 -0.78 0.55 
-0.44 23.43 -1.46 0.05 
-0.00 23.44 -1.46 0.05 
0.44 23.44 -1.46 0.05 
0.89 23.44 -1.46 0.05 
1.33 23.43 -1.46 0.05 
1.78 23.40 -1.46 0.05 
2.22 23.37 -1.46 0.05 
2.66 23.33 -1.46 0.05 
2.59 19.47 -1.22 0.35 
3.54 23.22 -1.46 0.05 
3.98 23.16 -1.46 0.05 
2.75 14.38 -0.91 0.23 
3.54 16.78 -1.07 0.74 
3.91 16.91 -1.08 0.47 
5.72 22.80 -1.46 0.05 
6.16 22.69 -1.46 0.05 
6.58 22.57 -1.46 0.05 
7.01 22.44 -1.46 0.05 
7.43 22.30 -1.46 0.05 
7.85 22.15 -1.46 0.05 
4.37 11.63 -0.77 0.89 
8.69 21.84 -1.46 0.05 
5.63 13.40 -0.90 0.32 
5.80 13.11 -0.89 0.93 
6.06 13.03 -0.89 0.59 
10.31 21.11 -1.46 0.05 
10.71 20.91 -1.46 0.05 
11.10 20.70 -1.46 0.05 
9.41 16.79 -1.20 0.47 
11.87 20.26 -1.46 0.05 
12.25 20.03 -1.46 0.05 
12.36 19.37 -1.43 0.76 
12.99 19.54 -1.46 0.05 
13.35 19.29 -1.46 0.05 
13.71 19.03 -1.46 0.05 
14.07 18.76 -1.46 0.05 
14.42 18.48 -1.46 0.05 
14.76 18.20 -1.46 0.05 
15.10 17.91 -1.46 0.05 
15.43 17.62 -1.46 0.05 
6.74 7.41 -0.62 0.11 
6.70 7.09 -0.61 0.18 
6.73 6.86 -0.60 0.19 
6.78 6.65 -0.59 0.21 
6.83 6.46 -0.59 0.28 
6.93 6.30 -0.58 0.23 
7.03 6.16 -0.58 0.23 
7.13 6.01 -0.58 0.23 
7.32 5.94 -0.59 0.47 
7.61 5.93 -0.60 0.46 
7.90 5.93 -0.61 0.45 
8.20 5.91 -0.63 0.48 
8.54 5.91 -0.65 0.53 
8.90 5.92 -0.67 0.52 
9.28 5.92 -0.69 0.50 
5.84 3.57 -0.43 0.49 
5.84 3.42 -0.42 0.56 
5.85 3.28 -0.42 0.53 
5.86 3.14 -0.41 0.63 
5.89 3.02 -0.41 0.69 
6.00 2.93 -0.42 0.60 
6.30 2.93 -0.43 0.37 
6.68 2.96 -0.45 0.05 
21.81 9.15 -1.47 0.06 
21.99 8.75 -1.47 0.06 
22.24 8.36 -1.48 0.44 
22.91 8.12 -1.51 0.57 
23.62 7.87 -1.55 0.57 
24.33 7.60 -1.59 0.55 
25.05 7.31 -1.62 0.06 
25.28 6.86 -1.63 0.06 
25.45 6.39 -1.63 0.06 
25.59 5.91 -1.63 0.06 
25.71 5.43 -1.64 0.06 
25.82 4.95 -1.64 0.06 
25.92 4.46 -1.64 0.06 
26.02 3.97 -1.64 0.06 
26.10 3.48 -1.64 0.06 
26.18 2.99 -1.64 0.05 
26.24 2.49 -1.64 0.05 
26.30 1.99 -1.64 0.05 
26.35 1.50 -1.64 0.05 
26.39 1.00 -1.64 0.05 
26.41 0.50 -1.64 0.05 
26.43 -0.00 -1.65 0.05 
26.44 -0.50 -1.65 0.05 
26.44 -1.00 -1.65 0.05 
26.43 -1.50 -1.65 0.05 
26.41 -2.00 -1.65 0.05 
26.38 -2.50 -1.65 0.05 
26.34 -3.00 -1.65 0.05 
26.29 -3.50 -1.65 0.05 
26.23 -4.00 -1.65 0.05 
26.16 -4.50 -1.65 0.05 
26.08 -5.00 -1.65 0.05 
26.00 -5.49 -1.65 0.05 
25.90 -5.98 -1.65 0.05 
25.79 -6.48 -1.66 0.05 
25.67 -6.97 -1.66 0.05 
25.55 -7.45 -1.66 0.05 
25.41 -7.94 -1.66 0.05 
25.27 -8.42 -1.66 0.05 
25.11 -8.90 -1.66 0.05 
24.95 -9.38 -1.66 0.05 
24.77 -9.85 -1.66 0.05 
24.59 -10.32 -1.66 0.05 
24.40 -10.79 -1.66 0.05 
24.20 -11.25 -1.66 0.05 
23.99 -11.71 -1.66 0.05 
23.77 -12.17 -1.66 0.05 
23.49 -12.59 -1.66 0.05 
21.10 -11.83 -1.51 0.05 
20.88 -12.23 -1.51 0.05 
20.65 -12.63 -1.51 0.05 
20.41 -13.02 -1.51 0.05 
20.17 -13.41 -1.51 0.05 
19.92 -13.79 -1.51 0.05 
19.65 -14.17 -1.51 0.05 
19.39 -14.54 -1.51 0.05 
11.72 -9.14 -0.93 0.74 
18.83 -15.27 -1.51 0.05 
18.54 -15.62 -1.51 0.05 
18.24 -15.97 -1.51 0.05 
17.94 -16.32 -1.51 0.05 
17.63 -16.66 -1.51 0.05 
17.31 -16.99 -1.51 0.05 
16.99 -17.32 -1.51 0.05 
16.66 -17.64 -1.51 0.05 
16.33 -17.95 -1.51 0.05 
15.99 -18.26 -1.51 0.05 
15.64 -18.56 -1.51 0.05 
11.63 -14.35 -1.15 0.73 
11.28 -14.46 -1.14 0.56 
11.29 -15.05 -1.17 0.55 
6.32 -8.76 -0.67 0.49 
13.82 -19.95 -1.51 0.05 
13.44 -20.21 -1.51 0.05 
13.05 -20.46 -1.51 0.05 
12.66 -20.70 -1.51 0.05 
12.27 -20.94 -1.51 0.05 
11.87 -21.16 -1.51 0.05 
11.46 -21.38 -1.51 0.05 
11.05 -21.59 -1.51 0.05 
10.64 -21.80 -1.51 0.05 
10.23 -21.99 -1.51 0.05 
9.81 -22.18 -1.51 0.05 
9.38 -22.36 -1.51 0.05 
8.96 -22.53 -1.51 0.05 
8.53 -22.69 -1.51 0.05 
8.10 -22.84 -1.51 0.05 
7.66 -22.99 -1.51 0.05 
7.22 -23.12 -1.51 0.05 
6.78 -23.25 -1.51 0.05 
6.34 -23.37 -1.51 0.05 
5.90 -23.48 -1.51 0.05 
5.45 -23.58 -1.51 0.05 
5.00 -23.68 -1.51 0.05 
4.55 -23.76 -1.51 0.05 
4.10 -23.83 -1.51 0.05 
3.65 -23.90 -1.50 0.05 
3.19 -23.96 -1.50 0.05 
2.74 -24.01 -1.50 0.05 
2.28 -24.05 -1.50 0.05 
1.83 -24.08 -1.50 0.05 
1.37 -24.10 -1.50 0.05 
0.91 -24.11 -1.50 0.05 
0.23 -12.05 -0.75 0.77 
-0.00 -24.11 -1.50 0.05 
-0.46 -24.10 -1.50 0.05 
-0.91 -24.08 -1.50 0.05 
-1.37 -24.05 -1.50 0.05 
-1.82 -24.01 -1.50 0.06 
-2.27 -23.96 -1.50 0.06 
-2.73 -23.90 -1.50 0.06 
-3.18 -23.83 -1.50 0.06 
-3.62 -23.76 -1.50 0.06 
-4.07 -23.67 -1.50 0.06 
-4.52 -23.58 -1.49 0.06 
-4.96 -23.48 -1.49 0.06 
-5.40 -23.37 -1.49 0.06 
-5.84 -23.26 -1.49 0.06 
-6.28 -23.13 -1.49 0.06 
-6.71 -23.00 -1.49 0.06 
-7.14 -22.85 -1.49 0.06 
-7.57 -22.70 -1.49 0.06 
-7.99 -22.54 -1.49 0.06 
-8.41 -22.38 -1.49 0.06 
-8.83 -22.20 -1.49 0.06 
-9.24 -22.02 -1.49 0.06 
-9.65 -21.83 -1.49 0.06 
-10.06 -21.63 -1.48 0.06 
-10.46 -21.42 -1.48 0.06 
-10.86 -21.21 -1.48 0.06 
-11.25 -20.99 -1.48 0.06 
-11.64 -20.76 -1.48 0.06 
-12.02 -20.52 -1.48 0.06 
-12.40 -20.28 -1.48 0.06 
-12.78 -20.03 -1.48 0.06 
-13.14 -19.77 -1.48 0.06 
-13.51 -19.51 -1.48 0.06 
-13.87 -19.24 -1.48 0.06 
-14.22 -18.96 -1.48 0.06 
-14.57 -18.68 -1.47 0.06 
-14.91 -18.39 -1.47 0.06 
-15.25 -18.09 -1.47 0.06 
-15.58 -17.79 -1.47 0.06 
-15.90 -17.48 -1.47 0.06 
-8.15 -8.62 -0.74 0.89 
-16.53 -16.85 -1.47 0.06 
-16.84 -16.52 -1.47 0.06 
-17.13 -16.19 -1.47 0.06 
-17.43 -15.85 -1.47 0.06 
-17.71 -15.51 -1.47 0.06 
-17.99 -15.16 -1.46 0.06 
-18.26 -14.81 -1.46 0.06 
-18.53 -14.45 -1.46 0.06 
-18.79 -14.09 -1.46 0.06 
-19.04 -13.72 -1.46 0.06 
-19.28 -13.35 -1.46 0.06 
-19.52 -12.98 -1.46 0.06 
-19.75 -12.60 -1.46 0.06 
-19.97 -12.21 -1.46 0.06 
-20.19 -11.83 -1.46 0.06 
-20.40 -11.44 -1.46 0.06 
-20.60 -11.04 -1.45 0.06 
-20.79 -10.64 -1.45 0.06 
-18.01 -8.79 -1.25 0.83 
-21.15 -9.84 -1.45 0.06 
-23.54 -10.41 -1.60 0.06 
-23.72 -9.96 -1.60 0.06 
-23.89 -9.50 -1.60 0.06 
-24.05 -9.04 -1.60 0.06 
-24.21 -8.58 -1.60 0.06 
-24.35 -8.12 -1.60 0.06 
-24.49 -7.65 -1.60 0.06 
-24.61 -7.18 -1.60 0.06 
-13.96 -3.79 -0.90 0.62 
-13.93 -3.50 -0.89 0.88 
-14.16 -3.27 -0.90 0.92 
-25.03 -5.29 -1.59 0.06 
-25.11 -4.81 -1.59 0.06 
-25.18 -4.33 -1.59 0.06 
-25.25 -3.85 -1.59 0.06 
-25.30 -3.37 -1.59 0.06 
-25.35 -2.89 -1.59 0.06 
-9.80 -0.93 -0.61 0.70 
-9.69 -0.74 -0.60 0.71 
-9.62 -0.55 -0.60 0.90 
-9.60 -0.36 -0.60 0.91 
-9.58 -0.18 -0.60 0.91 
-9.57 -0.00 -0.61 0.91 
-9.60 0.18 -0.61 0.91 
-9.62 0.36 -0.61 0.91 
-9.69 0.55 -0.62 0.72 
-9.80 0.74 -0.62 0.71 
-24.79 2.35 -1.58 0.06 
-24.73 2.82 -1.58 0.06 
-24.66 3.29 -1.58 0.06 
-24.58 3.75 -1.58 0.06 
-24.50 4.21 -1.58 0.06 
-24.41 4.67 -1.58 0.06 
-24.30 5.13 -1.58 0.06 
-24.19 5.59 -1.58 0.06 
-24.07 6.04 -1.57 0.06 
-23.94 6.50 -1.57 0.06 
-23.81 6.95 -1.57 0.06 
-7.65 2.39 -0.51 0.42 
-7.62 2.54 -0.51 0.80 
-7.39 2.62 -0.50 0.30 
-7.00 2.63 -0.47 0.32 
-6.64 2.64 -0.45 0.35 
-6.32 2.65 -0.44 0.36 
-6.03 2.67 -0.42 0.38 
-5.77 2.68 -0.40 0.38 
-5.56 2.71 -0.39 0.62 
-5.41 2.77 -0.39 0.63 
-5.34 2.86 -0.38 0.80 
-5.33 2.99 -0.39 0.80 
-5.32 3.12 -0.39 0.79 
-5.31 3.25 -0.40 0.78 
-5.30 3.38 -0.40 0.85 
-5.29 3.52 -0.40 0.68 
-5.30 3.67 -0.41 0.70 
-5.31 3.83 -0.42 0.69 
-5.32 3.99 -0.42 0.68 
-5.32 4.15 -0.43 0.67 
-17.35 14.07 -1.42 0.06 
-17.08 14.39 -1.42 0.06 
-16.80 14.71 -1.42 0.06 
-13.52 12.30 -1.16 0.92 
-13.19 12.46 -1.15 0.92 
-12.94 12.69 -1.15 0.43 
-12.73 12.97 -1.15 0.93 
-12.47 13.20 -1.15 0.93 
-12.21 13.42 -1.15 0.93 
-11.95 13.65 -1.15 0.93 
-14.38 17.06 -1.42 0.06 
-14.06 17.34 -1.42 0.06 
-13.74 17.62 -1.42 0.06 
-12.73 16.97 -1.35 0.69 
-12.40 17.20 -1.34 0.92 
-12.76 18.43 -1.42 0.06 
-12.42 18.69 -1.42 0.06 
-12.08 18.94 -1.43 0.06 
-11.73 19.19 -1.43 0.06 
-11.38 19.42 -1.43 0.06 
-3.51 6.26 -0.46 0.73 
-3.35 6.26 -0.45 0.74 
-3.20 6.25 -0.45 0.75 
-3.05 6.25 -0.44 0.75 
-2.91 6.25 -0.44 0.76 
-2.76 6.25 -0.43 0.77 
-2.62 6.25 -0.43 0.78 
-2.49 6.26 -0.43 0.79 
-2.35 6.26 -0.42 0.79 
-2.22 6.26 -0.42 0.80 
-2.09 6.26 -0.42 0.80 
-1.96 6.27 -0.42 0.81 
-1.83 6.28 -0.41 0.80 
-1.70 6.28 -0.41 0.80 
-1.58 6.28 -0.41 0.81 
-1.45 6.29 -0.41 0.82 
-1.33 6.30 -0.41 0.84 
-1.21 6.33 -0.41 0.83 
-1.09 6.37 -0.41 0.81 
-0.98 6.44 -0.41 0.62 
-0.88 6.58 -0.42 0.50 
-0.79 6.95 -0.44 0.20 
-2.16 22.81 -1.45 0.05 
-1.73 22.86 -1.45 0.05 
-1.30 22.90 -1.46 0.05 
-0.47 12.54 -0.80 0.58 
-0.43 22.95 -1.46 0.05 
-0.00 22.96 -1.46 0.05 
0.43 22.97 -1.46 0.05 
0.87 22.96 -1.46 0.05 
1.30 22.95 -1.46 0.05 
1.74 22.93 -1.46 0.05 
2.17 22.90 -1.46 0.05 
2.61 22.86 -1.46 0.05 
2.59 19.45 -1.25 0.35 
3.47 22.75 -1.46 0.05 
3.90 22.68 -1.46 0.05 
2.76 14.38 -0.93 0.03 
3.55 16.80 -1.09 0.74 
3.91 16.94 -1.10 0.47 
5.61 22.33 -1.46 0.05 
6.03 22.22 -1.46 0.05 
6.45 22.11 -1.46 0.05 
6.87 21.98 -1.46 0.05 
7.28 21.85 -1.46 0.05 
7.69 21.70 -1.46 0.05 
4.37 11.63 -0.79 0.89 
8.51 21.40 -1.46 0.05 
5.62 13.40 -0.92 0.32 
5.80 13.11 -0.91 0.93 
6.06 13.02 -0.91 0.59 
10.10 20.68 -1.46 0.05 
10.49 20.49 -1.46 0.05 
10.87 20.28 -1.46 0.05 
9.43 16.82 -1.22 0.47 
11.63 19.85 -1.46 0.05 
12.00 19.62 -1.46 0.05 
12.36 19.37 -1.46 0.76 
12.73 19.14 -1.46 0.05 
13.08 18.89 -1.46 0.05 
13.43 18.64 -1.46 0.05 
13.78 18.38 -1.46 0.05 
14.12 18.11 -1.46 0.05 
13.29 16.39 -1.34 0.21 
14.79 17.55 -1.46 0.05 
6.76 7.72 -0.65 0.14 
6.67 7.34 -0.63 0.11 
6.66 7.05 -0.62 0.19 
6.70 6.82 -0.61 0.21 
6.74 6.62 -0.60 0.21 
6.81 6.43 -0.59 0.28 
6.90 6.27 -0.59 0.23 
7.00 6.13 -0.59 0.23 
7.10 5.98 -0.59 0.23 
7.31 5.93 -0.60 0.47 
7.60 5.92 -0.61 0.46 
7.89 5.91 -0.63 0.45 
8.19 5.90 -0.64 0.54 
8.53 5.91 -0.66 0.53 
8.90 5.91 -0.68 0.52 
9.28 5.92 -0.70 0.50 
5.83 3.57 -0.43 0.48 
5.83 3.41 -0.43 0.56 
5.84 3.27 -0.42 0.53 
5.85 3.14 -0.42 0.63 
5.89 3.01 -0.42 0.69 
6.00 2.93 -0.42 0.60 
6.29 2.92 -0.44 0.37 
6.64 2.94 -0.46 0.29 
21.39 8.98 -1.47 0.06 
21.57 8.58 -1.47 0.06 
22.22 8.35 -1.51 0.56 
22.91 8.12 -1.54 0.57 
23.61 7.87 -1.58 0.57 
24.32 7.60 -1.62 0.55 
24.64 7.19 -1.63 0.07 
24.83 6.74 -1.63 0.06 
24.97 6.27 -1.63 0.06 
25.09 5.80 -1.63 0.06 
25.21 5.33 -1.63 0.06 
25.32 4.85 -1.64 0.06 
25.43 4.37 -1.64 0.06 
25.52 3.89 -1.64 0.06 
25.60 3.41 -1.64 0.06 
25.68 2.93 -1.64 0.06 
25.74 2.44 -1.64 0.06 
25.80 1.96 -1.64 0.06 
25.84 1.47 -1.64 0.06 
25.88 0.98 -1.64 0.06 
25.90 0.49 -1.64 0.06 
25.92 -0.00 -1.64 0.06 
25.93 -0.49 -1.65 0.06 
25.93 -0.98 -1.65 0.06 
25.92 -1.47 -1.65 0.06 
25.90 -1.96 -1.65 0.06 
25.87 -2.46 -1.65 0.06 
25.83 -2.95 -1.65 0.06 
25.78 -3.44 -1.65 0.06 
25.72 -3.92 -1.65 0.06 
25.66 -4.41 -1.65 0.06 
25.58 -4.90 -1.65 0.06 
25.49 -5.38 -1.65 0.06 
25.40 -5.87 -1.65 0.06 
25.29 -6.35 -1.65 0.06 
25.18 -6.83 -1.65 0.06 
25.05 -7.31 -1.66 0.06 
24.92 -7.78 -1.66 0.06 
24.78 -8.26 -1.66 0.06 
24.62 -8.73 -1.66 0.06 
24.46 -9.20 -1.66 0.06 
24.29 -9.66 -1.66 0.06 
24.11 -10.12 -1.66 0.06 
23.92 -10.58 -1.66 0.06 
23.73 -11.03 -1.66 0.06 
23.52 -11.48 -1.66 0.06 
23.31 -11.93 -1.66 0.06 
23.03 -12.34 -1.66 0.06 
20.69 -11.60 -1.51 0.06 
20.47 -11.99 -1.51 0.06 
20.25 -12.38 -1.51 0.06 
20.02 -12.77 -1.51 0.06 
19.78 -13.15 -1.51 0.06 
19.53 -13.52 -1.51 0.06 
19.27 -13.89 -1.51 0.06 
19.01 -14.26 -1.51 0.06 
11.72 -9.14 -0.94 0.74 
18.46 -14.97 -1.51 0.06 
18.18 -15.32 -1.51 0.06 
17.89 -15.66 -1.51 0.06 
17.59 -16.00 -1.51 0.06 
17.29 -16.33 -1.51 0.06 
16.98 -16.66 -1.51 0.06 
16.66 -16.98 -1.51 0.06 
16.34 -17.29 -1.51 0.06 
16.01 -17.60 -1.51 0.06 
15.67 -17.90 -1.51 0.06 
15.33 -18.19 -1.51 0.06 
11.63 -14.35 -1.17 0.73 
11.28 -14.46 -1.16 0.56 
11.29 -15.05 -1.19 0.55 
6.32 -8.76 -0.69 0.49 
13.55 -19.56 -1.51 0.06 
13.17 -19.82 -1.51 0.06 
12.79 -20.06 -1.51 0.06 
12.41 -20.30 -1.51 0.06 
12.03 -20.53 -1.51 0.06 
11.63 -20.75 -1.51 0.06 
11.24 -20.97 -1.51 0.06 
10.84 -21.17 -1.51 0.06 
10.43 -21.37 -1.51 0.06 
10.03 -21.56 -1.51 0.06 
9.62 -21.75 -1.51 0.06 
9.20 -21.92 -1.51 0.06 
8.78 -22.09 -1.51 0.06 
8.36 -22.25 -1.51 0.06 
7.94 -22.40 -1.51 0.06 
7.51 -22.54 -1.51 0.06 
7.08 -22.67 -1.51 0.06 
6.65 -22.80 -1.51 0.06 
6.22 -22.91 -1.51 0.06 
5.78 -23.02 -1.51 0.06 
5.34 -23.12 -1.51 0.06 
4.90 -23.21 -1.51 0.06 
4.46 -23.30 -1.50 0.06 
4.02 -23.37 -1.50 0.06 
3.58 -23.44 -1.50 0.06 
3.13 -23.49 -1.50 0.06 
2.68 -23.54 -1.50 0.06 
2.24 -23.58 -1.50 0.06 
1.79 -23.61 -1.50 0.06 
1.34 -23.63 -1.50 0.06 
0.90 -23.64 -1.50 0.06 
0.23 -12.05 -0.76 0.77 
0.00 -23.64 -1.50 0.06 
-0.45 -23.63 -1.50 0.06 
-0.89 -23.61 -1.50 0.06 
-1.34 -23.58 -1.50 0.06 
-1.79 -23.54 -1.50 0.06 
-2.23 -23.49 -1.50 0.06 
-2.67 -23.44 -1.50 0.06 
-3.11 -23.37 -1.50 0.06 
-3.55 -23.30 -1.50 0.06 
-3.99 -23.22 -1.49 0.06 
-4.43 -23.13 -1.49 0.06 
-4.86 -23.03 -1.49 0.06 
-5.30 -22.92 -1.49 0.06 
-5.73 -22.81 -1.49 0.06 
-6.15 -22.68 -1.49 0.06 
-6.58 -22.55 -1.49 0.06 
-7.00 -22.41 -1.49 0.06 
-7.42 -22.26 -1.49 0.06 
-7.84 -22.11 -1.49 0.06 
-8.25 -21.94 -1.49 0.06 
-8.66 -21.77 -1.49 0.06 
-9.06 -21.59 -1.49 0.06 
-9.47 -21.41 -1.49 0.06 
-9.86 -21.21 -1.48 0.06 
-10.26 -21.01 -1.48 0.06 
-10.65 -20.80 -1.48 0.06 
-11.03 -20.59 -1.48 0.06 
-11.42 -20.36 -1.48 0.06 
-11.79 -20.13 -1.48 0.06 
-12.16 -19.89 -1.48 0.06 
-12.53 -19.65 -1.48 0.06 
-12.89 -19.40 -1.48 0.06 
-13.25 -19.14 -1.48 0.06 
-13.60 -18.87 -1.48 0.06 
-13.95 -18.60 -1.48 0.06 
-14.29 -18.32 -1.47 0.06 
-14.63 -18.04 -1.47 0.06 
-14.96 -17.75 -1.47 0.06 
-15.28 -17.45 -1.47 0.06 
-15.60 -17.15 -1.47 0.06 
-8.15 -8.62 -0.75 0.89 
-16.22 -16.53 -1.47 0.06 
-16.52 -16.21 -1.47 0.06 
-16.81 -15.88 -1.47 0.06 
-17.10 -15.55 -1.47 0.06 
-17.38 -15.21 -1.47 0.06 
-17.65 -14.87 -1.46 0.06 
-17.92 -14.53 -1.46 0.06 
-18.18 -14.18 -1.46 0.06 
-18.43 -13.82 -1.46 0.06 
-18.68 -13.46 -1.46 0.06 
-18.92 -13.10 -1.46 0.06 
-19.15 -12.73 -1.46 0.06 
-19.38 -12.36 -1.46 0.06 
-19.60 -11.98 -1.46 0.06 
-19.81 -11.60 -1.46 0.06 
-20.01 -11.22 -1.46 0.06 
-20.21 -10.83 -1.45 0.06 
-20.40 -10.44 -1.45 0.06 
-18.01 -8.79 -1.27 0.83 
-20.75 -9.65 -1.45 0.06 
-23.10 -10.22 -1.60 0.06 
-23.28 -9.77 -1.60 0.06 
