VERSION 0.7
FIELDS x y z intensity
SIZE 4 4 4 8
TYPE F F F F
COUNT 1 1 1 1
WIDTH 2006
HEIGHT 1
VIEWPOINT 0.0 0.0 0.0 1.0 0.0 0.0 0.0
POINTS 2006
DATA ascii
13.39 -3.36 -1.68 0.11 
13.33 -3.62 -1.68 0.11 
13.26 -3.87 -1.68 0.11 
13.19 -4.12 -1.68 0.11 
13.12 -4.37 -1.68 0.11 
13.04 -4.62 -1.68 0.11 
12.95 -4.87 -1.68 0.11 
12.86 -5.11 -1.68 0.11 
12.76 -5.36 -1.68 0.11 
12.66 -5.60 -1.68 0.11 
12.56 -5.84 -1.68 0.11 
12.45 -6.08 -1.68 0.11 
12.34 -6.32 -1.68 0.11 
6.51 -3.49 -0.90 0.39 
6.16 -3.46 -0.86 0.38 
5.84 -3.42 -0.82 0.46 
5.59 -3.42 -0.80 0.52 
5.38 -3.43 -0.77 0.58 
5.21 -3.47 -0.76 0.75 
5.13 -3.55 -0.76 0.95 
5.08 -3.66 -0.76 0.87 
5.04 -3.78 -0.76 0.73 
5.00 -3.90 -0.77 0.67 
5.00 -4.05 -0.78 0.71 
5.02 -4.23 -0.80 0.63 
10.42 -9.12 -1.68 0.12 
9.88 -8.99 -1.62 0.43 
9.37 -8.85 -1.56 0.44 
9.04 -8.87 -1.54 0.11 
8.87 -9.04 -1.54 0.11 
8.70 -9.21 -1.54 0.11 
8.53 -9.37 -1.54 0.11 
8.35 -9.54 -1.54 0.11 
8.17 -9.70 -1.54 0.11 
7.99 -9.85 -1.54 0.11 
7.80 -10.00 -1.54 0.11 
7.61 -10.15 -1.54 0.11 
7.42 -10.30 -1.54 0.11 
7.23 -10.44 -1.54 0.11 
7.03 -10.58 -1.54 0.11 
6.83 -10.71 -1.54 0.11 
6.63 -10.84 -1.54 0.11 
6.42 -10.97 -1.54 0.11 
6.22 -11.09 -1.54 0.11 
6.01 -11.21 -1.54 0.11 
5.80 -11.32 -1.54 0.11 
5.58 -11.43 -1.54 0.11 
5.37 -11.54 -1.54 0.11 
5.15 -11.64 -1.54 0.11 
4.93 -11.74 -1.54 0.11 
4.71 -11.83 -1.54 0.11 
4.48 -11.92 -1.55 0.11 
4.26 -12.01 -1.55 0.11 
4.03 -12.09 -1.55 0.11 
3.80 -12.17 -1.55 0.11 
3.57 -12.24 -1.55 0.11 
3.34 -12.31 -1.55 0.11 
3.11 -12.37 -1.55 0.11 
2.87 -12.43 -1.55 0.11 
2.64 -12.48 -1.55 0.11 
2.40 -12.53 -1.55 0.11 
2.16 -12.58 -1.55 0.11 
1.93 -12.62 -1.55 0.11 
1.69 -12.66 -1.55 0.11 
1.36 -11.96 -1.46 0.75 
1.21 -12.71 -1.55 0.11 
0.97 -12.74 -1.55 0.11 
0.46 -8.03 -0.98 0.96 
0.31 -8.06 -0.98 0.96 
0.24 -12.78 -1.55 0.11 
0.00 -12.78 -1.55 0.11 
-0.24 -12.78 -1.55 0.11 
-0.48 -12.77 -1.55 0.11 
-0.73 -12.77 -1.55 0.11 
-0.97 -12.75 -1.55 0.11 
-1.21 -12.73 -1.55 0.11 
-1.45 -12.71 -1.55 0.11 
-1.69 -12.68 -1.55 0.11 
-1.93 -12.65 -1.55 0.11 
-2.17 -12.61 -1.55 0.11 
-2.41 -12.57 -1.55 0.11 
-2.64 -12.52 -1.55 0.11 
-2.88 -12.47 -1.55 0.11 
-3.12 -12.41 -1.55 0.11 
-3.35 -12.35 -1.55 0.11 
-3.58 -12.29 -1.55 0.11 
-3.82 -12.22 -1.55 0.11 
-4.05 -12.14 -1.55 0.11 
-4.28 -12.07 -1.55 0.11 
-4.50 -11.98 -1.55 0.11 
-4.73 -11.90 -1.55 0.11 
-4.96 -11.80 -1.55 0.11 
-5.18 -11.71 -1.55 0.11 
-5.40 -11.61 -1.55 0.11 
-5.62 -11.50 -1.55 0.11 
-5.83 -11.40 -1.55 0.11 
-6.05 -11.28 -1.55 0.11 
-6.26 -11.17 -1.55 0.11 
-6.47 -11.05 -1.55 0.11 
-6.68 -10.92 -1.55 0.11 
-6.88 -10.79 -1.55 0.11 
-7.09 -10.66 -1.55 0.11 
-7.29 -10.52 -1.55 0.11 
-7.48 -10.38 -1.55 0.11 
-7.68 -10.24 -1.55 0.11 
-7.87 -10.09 -1.55 0.11 
-8.06 -9.94 -1.55 0.11 
-8.25 -9.79 -1.55 0.11 
-8.43 -9.63 -1.55 0.11 
-8.61 -9.47 -1.55 0.11 
-8.79 -9.30 -1.55 0.11 
-8.96 -9.13 -1.55 0.11 
-9.13 -8.96 -1.55 0.11 
-9.30 -8.78 -1.55 0.11 
-9.46 -8.61 -1.55 0.11 
-9.74 -8.53 -1.57 0.51 
-10.20 -8.60 -1.62 0.49 
-10.69 -8.67 -1.67 0.47 
-11.05 -8.62 -1.70 0.12 
-11.23 -8.42 -1.70 0.12 
-11.40 -8.22 -1.71 0.11 
-11.55 -8.00 -1.70 0.11 
-11.70 -7.78 -1.70 0.11 
-11.84 -7.55 -1.70 0.11 
-11.98 -7.33 -1.70 0.11 
-12.12 -7.10 -1.70 0.11 
-12.25 -6.87 -1.70 0.11 
-12.37 -6.63 -1.70 0.11 
-12.49 -6.40 -1.70 0.11 
-12.55 -6.13 -1.69 0.12 
-12.72 -5.92 -1.70 0.11 
-12.83 -5.67 -1.70 0.11 
-12.93 -5.43 -1.70 0.11 
-13.03 -5.18 -1.70 0.11 
-13.12 -4.93 -1.70 0.11 
-13.21 -4.68 -1.70 0.11 
-13.29 -4.43 -1.70 0.11 
-13.37 -4.18 -1.70 0.11 
-13.45 -3.92 -1.70 0.11 
-13.52 -3.67 -1.70 0.11 
-13.58 -3.41 -1.70 0.11 
-13.64 -3.15 -1.70 0.11 
-13.69 -2.89 -1.70 0.11 
-13.74 -2.63 -1.70 0.11 
-10.34 -1.78 -1.27 0.61 
-10.21 -1.56 -1.25 0.93 
-10.20 -1.36 -1.25 0.94 
-10.20 -1.16 -1.25 0.95 
-10.22 -0.97 -1.25 0.95 
-10.24 -0.78 -1.25 0.94 
-10.28 -0.58 -1.25 0.94 
-10.33 -0.39 -1.25 0.93 
-10.40 -0.20 -1.26 0.88 
-10.49 -0.00 -1.28 0.88 
-13.81 0.26 -1.69 0.11 
-13.80 0.52 -1.69 0.11 
-13.78 0.78 -1.69 0.11 
-13.76 1.04 -1.69 0.11 
-13.74 1.30 -1.69 0.11 
-13.71 1.56 -1.69 0.11 
-13.67 1.82 -1.69 0.11 
-13.63 2.08 -1.69 0.11 
-13.58 2.34 -1.69 0.11 
-13.53 2.59 -1.69 0.11 
-13.48 2.85 -1.69 0.11 
-13.42 3.10 -1.69 0.11 
-13.35 3.35 -1.69 0.11 
-13.28 3.60 -1.69 0.11 
-13.21 3.85 -1.69 0.11 
-13.13 4.10 -1.69 0.11 
-13.05 4.35 -1.69 0.11 
-12.96 4.59 -1.68 0.11 
-12.86 4.84 -1.68 0.11 
-12.77 5.08 -1.68 0.11 
-12.66 5.32 -1.68 0.11 
-11.40 5.04 -1.53 0.52 
-10.99 5.11 -1.49 0.53 
-12.33 6.02 -1.68 0.12 
-12.21 6.25 -1.68 0.12 
-12.09 6.48 -1.68 0.12 
-11.96 6.70 -1.68 0.12 
-11.83 6.93 -1.68 0.12 
-11.69 7.15 -1.68 0.12 
-11.55 7.37 -1.68 0.12 
-11.40 7.58 -1.68 0.12 
-11.26 7.79 -1.68 0.12 
-11.10 8.00 -1.68 0.12 
-10.95 8.21 -1.68 0.12 
-10.79 8.41 -1.68 0.12 
-10.62 8.61 -1.68 0.12 
-10.45 8.81 -1.68 0.12 
-10.28 9.00 -1.67 0.12 
-10.11 9.19 -1.67 0.12 
-9.93 9.38 -1.67 0.12 
-9.75 9.56 -1.67 0.12 
-9.56 9.74 -1.67 0.12 
-9.37 9.92 -1.67 0.12 
-9.18 10.09 -1.67 0.12 
-8.99 10.26 -1.67 0.12 
-8.78 10.42 -1.67 0.13 
-8.57 10.57 -1.67 0.13 
-8.36 10.72 -1.67 0.13 
-8.14 10.86 -1.66 0.13 
-7.89 10.94 -1.65 0.84 
-7.61 10.98 -1.64 0.85 
-7.33 11.02 -1.62 0.84 
-7.05 11.06 -1.61 0.85 
-6.78 11.09 -1.59 0.86 
-6.52 11.12 -1.58 0.87 
-6.25 11.16 -1.57 0.88 
-5.99 11.18 -1.55 0.88 
-5.74 11.21 -1.54 0.88 
-5.49 11.24 -1.53 0.89 
-5.24 11.26 -1.52 0.71 
-5.00 11.30 -1.51 0.12 
-4.78 11.39 -1.51 0.12 
-4.56 11.47 -1.51 0.12 
-4.34 11.56 -1.51 0.12 
-4.12 11.63 -1.51 0.12 
-3.90 11.71 -1.51 0.12 
-3.68 11.78 -1.51 0.12 
-3.46 11.84 -1.51 0.12 
-3.23 11.90 -1.51 0.12 
-3.00 11.96 -1.51 0.12 
-2.78 12.01 -1.51 0.12 
-2.55 12.06 -1.51 0.12 
-2.32 12.10 -1.51 0.12 
-2.09 12.14 -1.51 0.12 
-1.86 12.18 -1.51 0.12 
-1.63 12.21 -1.51 0.12 
-1.40 12.24 -1.51 0.12 
-1.16 12.26 -1.51 0.12 
-0.93 12.28 -1.51 0.12 
-0.70 12.29 -1.51 0.12 
-0.47 12.30 -1.51 0.12 
-0.23 12.30 -1.51 0.12 
0.00 12.31 -1.51 0.12 
0.23 12.30 -1.51 0.12 
0.47 12.29 -1.51 0.12 
0.70 12.28 -1.51 0.12 
0.93 12.26 -1.51 0.12 
1.16 12.24 -1.51 0.12 
1.39 12.22 -1.51 0.12 
1.62 12.19 -1.51 0.12 
1.85 12.15 -1.51 0.12 
2.08 12.12 -1.51 0.12 
2.31 12.07 -1.51 0.12 
2.54 12.03 -1.51 0.12 
2.77 11.98 -1.51 0.12 
2.99 11.92 -1.51 0.12 
3.22 11.86 -1.51 0.12 
3.44 11.80 -1.51 0.12 
3.66 11.73 -1.51 0.12 
3.89 11.66 -1.51 0.12 
4.11 11.58 -1.51 0.12 
4.32 11.50 -1.51 0.12 
4.54 11.42 -1.51 0.12 
4.76 11.33 -1.51 0.12 
4.97 11.24 -1.51 0.12 
5.20 11.17 -1.51 0.71 
5.44 11.14 -1.52 0.89 
5.69 11.11 -1.53 0.89 
5.94 11.08 -1.54 0.89 
6.19 11.05 -1.55 0.88 
6.45 11.01 -1.56 0.87 
6.71 10.98 -1.58 0.86 
6.98 10.94 -1.59 0.87 
7.25 10.90 -1.60 0.86 
7.52 10.86 -1.62 0.85 
7.80 10.82 -1.63 0.84 
8.07 10.76 -1.65 0.13 
8.28 10.62 -1.65 0.13 
8.49 10.47 -1.65 0.13 
8.70 10.32 -1.65 0.13 
8.90 10.17 -1.66 0.12 
9.10 10.00 -1.66 0.12 
9.28 9.83 -1.66 0.12 
9.47 9.65 -1.66 0.12 
9.65 9.47 -1.66 0.12 
9.83 9.29 -1.66 0.12 
10.00 9.10 -1.66 0.12 
10.18 8.91 -1.66 0.12 
10.34 8.72 -1.66 0.12 
10.51 8.52 -1.66 0.12 
10.67 8.32 -1.66 0.12 
10.83 8.12 -1.66 0.12 
10.98 7.91 -1.66 0.12 
11.13 7.71 -1.66 0.12 
11.27 7.49 -1.66 0.12 
11.41 7.28 -1.66 0.12 
11.55 7.06 -1.66 0.12 
11.69 6.85 -1.66 0.12 
11.82 6.62 -1.66 0.12 
11.94 6.40 -1.66 0.12 
12.06 6.17 -1.66 0.12 
12.18 5.95 -1.66 0.12 
12.29 5.72 -1.66 0.12 
12.40 5.48 -1.66 0.12 
12.50 5.25 -1.66 0.12 
12.60 5.01 -1.66 0.12 
12.70 4.77 -1.66 0.12 
12.79 4.53 -1.66 0.12 
12.87 4.29 -1.66 0.12 
12.96 4.05 -1.66 0.12 
13.03 3.80 -1.66 0.12 
13.11 3.56 -1.66 0.12 
13.17 3.31 -1.66 0.12 
13.24 3.06 -1.66 0.12 
13.29 2.81 -1.67 0.12 
13.35 2.56 -1.67 0.12 
13.40 2.30 -1.67 0.12 
13.44 2.05 -1.67 0.12 
13.48 1.80 -1.67 0.12 
13.52 1.54 -1.67 0.12 
13.55 1.29 -1.67 0.12 
13.57 1.03 -1.67 0.12 
13.59 0.77 -1.67 0.12 
13.61 0.52 -1.67 0.12 
13.62 0.26 -1.67 0.12 
13.62 -0.00 -1.67 0.12 
13.63 -0.26 -1.67 0.12 
13.62 -0.52 -1.67 0.12 
13.61 -0.77 -1.67 0.12 
13.60 -1.03 -1.67 0.12 
13.58 -1.29 -1.67 0.12 
13.56 -1.55 -1.67 0.12 
13.53 -1.80 -1.67 0.12 
13.50 -2.06 -1.67 0.12 
13.46 -2.32 -1.67 0.12 
13.42 -2.57 -1.67 0.12 
13.37 -2.82 -1.67 0.12 
13.32 -3.08 -1.68 0.12 
13.26 -3.33 -1.68 0.12 
13.20 -3.58 -1.68 0.12 
13.13 -3.83 -1.68 0.12 
13.06 -4.08 -1.68 0.12 
12.99 -4.33 -1.68 0.12 
12.91 -4.57 -1.68 0.12 
12.82 -4.82 -1.68 0.12 
12.73 -5.06 -1.68 0.12 
12.64 -5.30 -1.68 0.12 
12.54 -5.54 -1.68 0.12 
12.43 -5.78 -1.68 0.12 
12.33 -6.02 -1.68 0.12 
12.21 -6.25 -1.68 0.12 
6.51 -3.49 -0.90 0.39 
6.16 -3.45 -0.87 0.41 
5.84 -3.42 -0.83 0.46 
5.59 -3.42 -0.80 0.52 
5.38 -3.43 -0.78 0.58 
5.21 -3.47 -0.77 0.83 
5.13 -3.55 -0.76 0.95 
5.07 -3.66 -0.77 0.87 
5.04 -3.78 -0.77 0.81 
5.00 -3.90 -0.78 0.67 
4.99 -4.05 -0.79 0.71 
5.02 -4.23 -0.80 0.63 
10.32 -9.04 -1.68 0.12 
9.88 -8.98 -1.64 0.43 
9.36 -8.84 -1.58 0.44 
8.95 -8.78 -1.54 0.12 
8.78 -8.95 -1.54 0.12 
8.61 -9.12 -1.54 0.12 
8.44 -9.28 -1.54 0.12 
8.27 -9.44 -1.54 0.11 
8.09 -9.60 -1.54 0.11 
7.91 -9.75 -1.54 0.11 
7.72 -9.90 -1.54 0.11 
7.54 -10.05 -1.54 0.11 
7.35 -10.19 -1.54 0.11 
7.16 -10.33 -1.54 0.11 
6.96 -10.47 -1.54 0.11 
6.76 -10.60 -1.54 0.11 
6.56 -10.73 -1.54 0.11 
6.36 -10.86 -1.54 0.11 
6.16 -10.98 -1.54 0.11 
5.95 -11.10 -1.54 0.11 
5.74 -11.21 -1.54 0.11 
5.53 -11.32 -1.54 0.11 
5.31 -11.42 -1.54 0.11 
5.10 -11.52 -1.54 0.11 
4.88 -11.62 -1.54 0.11 
4.66 -11.71 -1.54 0.11 
4.44 -11.80 -1.55 0.11 
4.21 -11.89 -1.55 0.11 
3.99 -11.97 -1.55 0.11 
3.76 -12.04 -1.55 0.11 
3.53 -12.12 -1.55 0.11 
3.31 -12.18 -1.55 0.11 
3.07 -12.25 -1.55 0.11 
2.84 -12.30 -1.55 0.11 
2.61 -12.36 -1.55 0.11 
2.38 -12.41 -1.55 0.11 
2.14 -12.45 -1.55 0.11 
1.91 -12.49 -1.55 0.11 
1.67 -12.53 -1.55 0.11 
1.36 -11.96 -1.48 0.77 
1.19 -12.59 -1.55 0.11 
0.96 -12.61 -1.55 0.11 
0.46 -8.03 -0.99 0.96 
0.31 -8.06 -0.99 0.96 
0.24 -12.65 -1.55 0.11 
0.00 -12.65 -1.55 0.11 
-0.24 -12.65 -1.55 0.11 
-0.48 -12.65 -1.55 0.11 
-0.72 -12.64 -1.55 0.11 
-0.96 -12.62 -1.55 0.11 
-1.20 -12.60 -1.55 0.11 
-1.43 -12.58 -1.55 0.11 
-1.67 -12.55 -1.55 0.11 
-1.91 -12.52 -1.55 0.11 
-2.15 -12.48 -1.55 0.11 
-2.38 -12.44 -1.55 0.11 
-2.62 -12.39 -1.55 0.11 
-2.85 -12.34 -1.55 0.11 
-3.09 -12.29 -1.55 0.11 
-3.32 -12.23 -1.55 0.11 
-3.55 -12.16 -1.55 0.11 
-3.78 -12.09 -1.55 0.11 
-4.01 -12.02 -1.55 0.11 
-4.23 -11.94 -1.55 0.11 
-4.46 -11.86 -1.55 0.11 
-4.68 -11.78 -1.55 0.11 
-4.91 -11.69 -1.55 0.11 
-5.13 -11.59 -1.55 0.11 
-5.34 -11.49 -1.55 0.11 
-5.56 -11.39 -1.55 0.11 
-5.78 -11.28 -1.55 0.11 
-5.99 -11.17 -1.55 0.11 
-6.20 -11.05 -1.55 0.11 
-6.41 -10.94 -1.55 0.11 
-6.61 -10.81 -1.55 0.11 
-6.81 -10.68 -1.55 0.11 
-7.02 -10.55 -1.55 0.11 
-7.21 -10.42 -1.55 0.11 
-7.41 -10.28 -1.55 0.11 
-7.60 -10.14 -1.55 0.11 
-7.79 -9.99 -1.55 0.11 
-7.98 -9.84 -1.55 0.11 
-8.16 -9.69 -1.55 0.11 
-8.34 -9.53 -1.55 0.11 
-8.52 -9.37 -1.55 0.11 
-8.70 -9.21 -1.55 0.11 
-8.87 -9.04 -1.55 0.11 
-9.04 -8.87 -1.55 0.11 
-9.20 -8.70 -1.55 0.11 
-9.37 -8.52 -1.55 0.11 
-9.73 -8.52 -1.59 0.51 
-10.20 -8.59 -1.63 0.49 
-10.69 -8.67 -1.69 0.47 
-10.94 -8.53 -1.70 0.12 
-11.12 -8.34 -1.70 0.12 
-11.29 -8.13 -1.70 0.11 
-11.44 -7.92 -1.70 0.11 
-11.58 -7.70 -1.70 0.11 
-11.72 -7.48 -1.70 0.11 
-11.86 -7.25 -1.70 0.11 
-12.00 -7.03 -1.70 0.11 
-12.12 -6.80 -1.70 0.11 
-12.25 -6.57 -1.70 0.11 
-12.37 -6.33 -1.70 0.11 
-12.42 -6.07 -1.69 0.12 
-12.59 -5.86 -1.70 0.11 
-12.70 -5.62 -1.70 0.11 
-12.80 -5.37 -1.70 0.11 
-12.90 -5.13 -1.70 0.11 
-12.99 -4.88 -1.70 0.11 
-13.08 -4.64 -1.70 0.11 
-13.16 -4.39 -1.70 0.11 
-13.24 -4.14 -1.70 0.11 
-13.31 -3.88 -1.70 0.11 
-13.38 -3.63 -1.70 0.11 
-13.44 -3.38 -1.70 0.11 
-13.50 -3.12 -1.70 0.11 
-13.56 -2.86 -1.70 0.11 
-13.60 -2.61 -1.70 0.11 
-10.34 -1.78 -1.29 0.61 
-10.21 -1.56 -1.27 0.93 
-10.20 -1.36 -1.26 0.94 
-10.20 -1.16 -1.26 0.95 
-10.22 -0.97 -1.26 0.95 
-10.24 -0.78 -1.26 0.94 
-10.28 -0.58 -1.26 0.94 
-10.33 -0.39 -1.27 0.93 
-10.40 -0.20 -1.27 0.88 
-10.97 -0.00 -1.36 0.90 
-13.67 0.26 -1.69 0.12 
-13.66 0.52 -1.69 0.12 
-13.65 0.78 -1.69 0.12 
-13.63 1.03 -1.69 0.12 
-13.60 1.29 -1.69 0.12 
-13.57 1.55 -1.69 0.12 
-13.53 1.80 -1.69 0.12 
-13.49 2.06 -1.69 0.12 
-13.45 2.31 -1.69 0.12 
-13.40 2.57 -1.69 0.12 
-13.34 2.82 -1.69 0.12 
-13.29 3.07 -1.69 0.12 
-13.22 3.32 -1.69 0.12 
-13.15 3.57 -1.69 0.12 
-13.08 3.82 -1.69 0.12 
-13.00 4.06 -1.69 0.12 
-12.92 4.31 -1.68 0.12 
-12.83 4.55 -1.68 0.12 
-12.74 4.79 -1.68 0.12 
-12.64 5.03 -1.68 0.12 
-12.54 5.26 -1.68 0.12 
-11.40 5.04 -1.54 0.52 
-10.99 5.11 -1.50 0.53 
-12.21 5.96 -1.68 0.12 
-12.09 6.19 -1.68 0.12 
-11.97 6.42 -1.68 0.12 
-11.84 6.64 -1.68 0.12 
-11.71 6.86 -1.68 0.12 
-11.58 7.08 -1.68 0.12 
-11.44 7.29 -1.68 0.12 
-11.29 7.51 -1.68 0.12 
-11.15 7.72 -1.68 0.12 
-10.99 7.92 -1.68 0.12 
-10.84 8.13 -1.68 0.12 
-10.68 8.33 -1.68 0.12 
-10.52 8.53 -1.68 0.12 
-10.35 8.72 -1.68 0.12 
-10.18 8.92 -1.67 0.12 
-10.01 9.10 -1.67 0.12 
-9.83 9.29 -1.67 0.12 
-9.65 9.47 -1.67 0.12 
-9.47 9.65 -1.67 0.12 
-9.28 9.82 -1.67 0.12 
-9.09 9.99 -1.67 0.12 
-8.90 10.16 -1.67 0.12 
-8.70 10.33 -1.67 0.12 
-8.50 10.48 -1.67 0.13 
-8.28 10.62 -1.67 0.13 
-8.07 10.76 -1.66 0.13 
-7.86 10.90 -1.66 0.13 
-7.60 10.98 -1.65 0.85 
-7.33 11.02 -1.64 0.84 
-7.05 11.06 -1.62 0.85 
-6.78 11.09 -1.61 0.86 
-6.51 11.12 -1.60 0.87 
-6.25 11.15 -1.58 0.88 
-5.99 11.18 -1.57 0.88 
-5.74 11.21 -1.56 0.88 
-5.48 11.23 -1.55 0.89 
-5.24 11.26 -1.54 0.90 
-4.99 11.28 -1.53 0.89 
-4.74 11.30 -1.52 0.72 
-4.52 11.36 -1.51 0.12 
-4.30 11.44 -1.51 0.12 
-4.08 11.52 -1.51 0.12 
-3.86 11.59 -1.51 0.12 
-3.64 11.66 -1.51 0.12 
-3.42 11.73 -1.51 0.12 
-3.20 11.79 -1.51 0.12 
-2.97 11.84 -1.51 0.12 
-2.75 11.90 -1.51 0.12 
-2.52 11.94 -1.51 0.12 
-2.30 11.99 -1.51 0.12 
-2.07 12.03 -1.51 0.12 
-1.84 12.06 -1.51 0.12 
-1.61 12.09 -1.51 0.12 
-1.38 12.12 -1.51 0.12 
-1.15 12.14 -1.51 0.12 
-0.92 12.16 -1.51 0.12 
-0.69 12.17 -1.51 0.12 
-0.46 12.18 -1.51 0.12 
-0.23 12.19 -1.51 0.12 
0.00 12.19 -1.51 0.12 
0.23 12.18 -1.51 0.12 
0.46 12.17 -1.51 0.12 
0.69 12.16 -1.51 0.12 
0.92 12.15 -1.51 0.12 
1.15 12.12 -1.51 0.12 
1.38 12.10 -1.51 0.12 
1.61 12.07 -1.51 0.12 
1.84 12.04 -1.51 0.12 
2.06 12.00 -1.51 0.12 
2.29 11.96 -1.51 0.12 
2.52 11.91 -1.51 0.12 
2.74 11.86 -1.51 0.12 
2.96 11.80 -1.51 0.12 
3.19 11.75 -1.51 0.12 
3.41 11.68 -1.51 0.12 
3.63 11.62 -1.51 0.12 
3.85 11.54 -1.51 0.12 
4.07 11.47 -1.51 0.12 
4.28 11.39 -1.51 0.12 
4.50 11.31 -1.51 0.12 
4.71 11.22 -1.51 0.72 
4.95 11.19 -1.51 0.90 
5.19 11.17 -1.52 0.90 
5.44 11.14 -1.53 0.89 
5.69 11.11 -1.54 0.89 
5.94 11.08 -1.56 0.89 
6.19 11.05 -1.57 0.88 
6.45 11.01 -1.58 0.87 
6.71 10.98 -1.59 0.86 
6.98 10.94 -1.61 0.87 
7.24 10.90 -1.62 0.86 
7.52 10.86 -1.63 0.85 
7.79 10.81 -1.65 0.13 
8.00 10.67 -1.65 0.13 
8.21 10.53 -1.65 0.13 
8.42 10.38 -1.65 0.13 
8.62 10.23 -1.66 0.13 
8.82 10.07 -1.66 0.12 
9.01 9.90 -1.66 0.12 
9.19 9.73 -1.66 0.12 
9.38 9.56 -1.66 0.12 
9.56 9.38 -1.66 0.12 
9.73 9.20 -1.66 0.12 
9.91 9.01 -1.66 0.12 
10.08 8.82 -1.66 0.12 
10.24 8.63 -1.66 0.12 
10.41 8.44 -1.66 0.12 
10.57 8.24 -1.66 0.12 
10.72 8.04 -1.66 0.12 
10.87 7.84 -1.66 0.12 
11.02 7.63 -1.66 0.12 
11.16 7.42 -1.66 0.12 
11.30 7.21 -1.66 0.12 
11.44 7.00 -1.66 0.12 
11.57 6.78 -1.66 0.12 
11.70 6.56 -1.66 0.12 
11.82 6.34 -1.66 0.12 
11.94 6.11 -1.66 0.12 
12.06 5.89 -1.66 0.12 
12.17 5.66 -1.66 0.12 
12.28 5.43 -1.66 0.12 
12.38 5.20 -1.66 0.12 
12.48 4.96 -1.66 0.12 
12.57 4.73 -1.66 0.12 
12.66 4.49 -1.66 0.12 
12.75 4.25 -1.66 0.12 
12.83 4.01 -1.66 0.12 
12.91 3.77 -1.66 0.12 
12.98 3.52 -1.66 0.12 
13.05 3.28 -1.66 0.12 
13.11 3.03 -1.66 0.12 
13.17 2.78 -1.67 0.12 
13.22 2.53 -1.67 0.12 
13.27 2.28 -1.67 0.12 
13.31 2.03 -1.67 0.12 
13.35 1.78 -1.67 0.12 
13.39 1.53 -1.67 0.12 
13.41 1.27 -1.67 0.12 
13.44 1.02 -1.67 0.12 
13.46 0.76 -1.67 0.12 
13.48 0.51 -1.67 0.12 
13.49 0.26 -1.67 0.12 
13.49 -0.00 -1.67 0.12 
13.49 -0.26 -1.67 0.12 
13.49 -0.51 -1.67 0.12 
13.48 -0.77 -1.67 0.12 
13.47 -1.02 -1.67 0.12 
13.45 -1.28 -1.67 0.12 
13.43 -1.53 -1.67 0.12 
13.40 -1.79 -1.67 0.12 
13.37 -2.04 -1.67 0.12 
13.33 -2.29 -1.67 0.12 
13.29 -2.55 -1.67 0.12 
13.24 -2.80 -1.67 0.12 
13.19 -3.05 -1.68 0.12 
13.13 -3.30 -1.68 0.12 
13.07 -3.55 -1.68 0.12 
13.01 -3.79 -1.68 0.12 
12.94 -4.04 -1.68 0.12 
12.86 -4.29 -1.68 0.12 
12.78 -4.53 -1.68 0.12 
12.70 -4.77 -1.68 0.12 
12.61 -5.01 -1.68 0.12 
12.51 -5.25 -1.68 0.12 
12.42 -5.49 -1.68 0.12 
12.31 -5.73 -1.68 0.12 
12.21 -5.96 -1.68 0.12 
12.09 -6.19 -1.68 0.12 
6.50 -3.48 -0.91 0.39 
6.16 -3.45 -0.87 0.41 
5.84 -3.42 -0.84 0.46 
5.58 -3.41 -0.81 0.55 
5.38 -3.43 -0.79 0.58 
5.21 -3.46 -0.77 0.83 
5.13 -3.55 -0.77 0.95 
5.07 -3.65 -0.77 0.87 
5.03 -3.77 -0.78 0.81 
4.99 -3.89 -0.78 0.67 
4.99 -4.04 -0.79 0.71 
5.01 -4.23 -0.81 0.63 
10.23 -8.95 -1.68 0.12 
9.87 -8.98 -1.65 0.43 
9.36 -8.84 -1.59 0.44 
8.88 -8.72 -1.54 0.42 
8.70 -8.86 -1.54 0.12 
8.53 -9.03 -1.54 0.12 
8.36 -9.19 -1.54 0.12 
8.19 -9.35 -1.54 0.12 
8.01 -9.50 -1.54 0.12 
7.83 -9.66 -1.54 0.12 
7.65 -9.81 -1.54 0.12 
7.46 -9.95 -1.54 0.12 
7.28 -10.09 -1.54 0.12 
7.09 -10.23 -1.54 0.12 
6.89 -10.37 -1.54 0.12 
6.70 -10.50 -1.54 0.12 
6.50 -10.63 -1.54 0.12 
6.30 -10.75 -1.54 0.12 
6.09 -10.87 -1.54 0.12 
5.89 -10.99 -1.54 0.12 
5.68 -11.10 -1.54 0.12 
5.47 -11.21 -1.54 0.12 
5.26 -11.31 -1.54 0.12 
5.05 -11.41 -1.54 0.12 
4.83 -11.51 -1.54 0.12 
4.61 -11.60 -1.54 0.12 
4.39 -11.69 -1.54 0.12 
4.17 -11.77 -1.55 0.12 
3.95 -11.85 -1.55 0.12 
3.73 -11.92 -1.55 0.12 
3.50 -11.99 -1.55 0.12 
3.27 -12.06 -1.55 0.12 
3.04 -12.12 -1.55 0.12 
2.82 -12.18 -1.55 0.12 
2.58 -12.23 -1.55 0.12 
2.35 -12.28 -1.55 0.12 
2.12 -12.33 -1.55 0.12 
1.89 -12.37 -1.55 0.12 
1.65 -12.40 -1.55 0.12 
1.36 -11.96 -1.49 0.71 
1.18 -12.46 -1.55 0.12 
0.95 -12.48 -1.55 0.12 
0.46 -8.03 -1.00 0.96 
0.31 -8.06 -1.00 0.96 
0.24 -12.52 -1.55 0.12 
-0.00 -12.53 -1.55 0.12 
-0.24 -12.53 -1.55 0.12 
-0.47 -12.52 -1.55 0.12 
-0.71 -12.51 -1.55 0.12 
-0.95 -12.50 -1.55 0.12 
-1.18 -12.48 -1.55 0.12 
-1.42 -12.45 -1.55 0.12 
-1.66 -12.43 -1.55 0.12 
-1.89 -12.39 -1.55 0.12 
-2.13 -12.36 -1.55 0.12 
-2.36 -12.32 -1.55 0.12 
-2.59 -12.27 -1.55 0.12 
-2.82 -12.22 -1.55 0.12 
-3.05 -12.17 -1.55 0.12 
-3.28 -12.11 -1.55 0.12 
-3.51 -12.04 -1.55 0.12 
-3.74 -11.97 -1.55 0.12 
-3.97 -11.90 -1.55 0.11 
-4.19 -11.83 -1.55 0.11 
-4.41 -11.74 -1.55 0.11 
-4.64 -11.66 -1.55 0.11 
-4.86 -11.57 -1.55 0.11 
-5.07 -11.48 -1.55 0.11 
-5.29 -11.38 -1.55 0.11 
-5.51 -11.28 -1.55 0.11 
-5.72 -11.17 -1.55 0.11 
-5.93 -11.06 -1.55 0.11 
-6.14 -10.94 -1.55 0.11 
-6.34 -10.83 -1.55 0.11 
-6.55 -10.70 -1.55 0.11 
-6.75 -10.58 -1.55 0.11 
-6.95 -10.45 -1.55 0.11 
-7.14 -10.31 -1.55 0.11 
-7.34 -10.18 -1.55 0.11 
-7.53 -10.04 -1.55 0.12 
-7.71 -9.89 -1.55 0.12 
-7.90 -9.74 -1.55 0.12 
-8.08 -9.59 -1.55 0.12 
-8.26 -9.44 -1.55 0.12 
-8.44 -9.28 -1.55 0.12 
-8.61 -9.11 -1.55 0.12 
-8.78 -8.95 -1.55 0.12 
-8.95 -8.78 -1.55 0.12 
-9.11 -8.61 -1.55 0.12 
-9.30 -8.46 -1.56 0.44 
-9.73 -8.52 -1.60 0.51 
-10.19 -8.59 -1.65 0.49 
-10.66 -8.64 -1.70 0.12 
-10.84 -8.45 -1.70 0.12 
-11.02 -8.26 -1.70 0.12 
-11.17 -8.05 -1.70 0.11 
-11.32 -7.84 -1.70 0.11 
-11.47 -7.62 -1.70 0.11 
-11.61 -7.40 -1.70 0.11 
-11.74 -7.18 -1.70 0.11 
-11.88 -6.96 -1.70 0.11 
-12.00 -6.73 -1.70 0.11 
-12.13 -6.50 -1.70 0.11 
-12.25 -6.27 -1.70 0.11 
-12.30 -6.01 -1.69 0.12 
-12.47 -5.80 -1.70 0.11 
-12.57 -5.56 -1.70 0.11 
-12.68 -5.32 -1.70 0.11 
-12.77 -5.08 -1.70 0.11 
-12.86 -4.84 -1.70 0.11 
-12.95 -4.59 -1.70 0.11 
-13.03 -4.34 -1.70 0.11 
-13.11 -4.10 -1.70 0.11 
-13.18 -3.85 -1.70 0.11 
-13.25 -3.59 -1.70 0.12 
-13.31 -3.34 -1.70 0.12 
-13.37 -3.09 -1.70 0.12 
-13.42 -2.84 -1.70 0.12 
-13.47 -2.58 -1.70 0.12 
-10.34 -1.78 -1.30 0.61 
-10.21 -1.56 -1.28 0.93 
-10.20 -1.36 -1.27 0.94 
-10.20 -1.16 -1.27 0.95 
-10.22 -0.97 -1.27 0.95 
-10.24 -0.78 -1.27 0.94 
-10.28 -0.58 -1.27 0.94 
-10.33 -0.39 -1.28 0.93 
-10.40 -0.20 -1.29 0.88 
-10.98 -0.00 -1.37 0.90 
-13.54 0.26 -1.69 0.12 
-13.53 0.51 -1.69 0.12 
-13.51 0.77 -1.69 0.12 
-13.49 1.02 -1.69 0.12 
-13.47 1.28 -1.69 0.12 
-13.44 1.53 -1.69 0.12 
-13.40 1.79 -1.69 0.12 
-13.36 2.04 -1.69 0.12 
-13.32 2.29 -1.69 0.12 
-13.27 2.54 -1.69 0.12 
-13.21 2.79 -1.69 0.12 
-13.16 3.04 -1.69 0.12 
-13.09 3.29 -1.69 0.12 
-13.02 3.53 -1.69 0.12 
-12.95 3.78 -1.69 0.12 
-12.87 4.02 -1.69 0.12 
-12.79 4.26 -1.68 0.12 
-12.70 4.50 -1.68 0.12 
-12.61 4.74 -1.68 0.12 
-12.52 4.98 -1.68 0.12 
-12.42 5.21 -1.68 0.12 
-11.40 5.04 -1.56 0.52 
-11.00 5.12 -1.52 0.58 
-12.09 5.90 -1.68 0.12 
-11.97 6.13 -1.68 0.12 
-11.85 6.35 -1.68 0.12 
-11.73 6.57 -1.68 0.12 
-11.60 6.79 -1.68 0.12 
-11.46 7.01 -1.68 0.12 
-11.33 7.22 -1.68 0.12 
-11.18 7.43 -1.68 0.12 
-11.04 7.64 -1.68 0.12 
-10.89 7.85 -1.68 0.12 
-10.73 8.05 -1.68 0.12 
-10.58 8.25 -1.68 0.12 
-10.42 8.45 -1.68 0.12 
-10.25 8.64 -1.68 0.12 
-10.08 8.83 -1.67 0.12 
-9.91 9.02 -1.67 0.12 
-9.74 9.20 -1.67 0.12 
-9.56 9.38 -1.67 0.12 
-9.38 9.56 -1.67 0.12 
-9.19 9.73 -1.67 0.12 
-9.00 9.90 -1.67 0.12 
-8.81 10.06 -1.67 0.12 
-8.62 10.23 -1.67 0.12 
-8.42 10.39 -1.67 0.12 
-8.21 10.53 -1.67 0.13 
-8.00 10.67 -1.67 0.13 
-7.79 10.80 -1.66 0.13 
-7.57 10.94 -1.66 0.13 
-7.32 11.02 -1.65 0.84 
-7.05 11.05 -1.64 0.85 
-6.78 11.09 -1.62 0.86 
-6.51 11.12 -1.61 0.87 
-6.25 11.15 -1.60 0.88 
-5.99 11.18 -1.59 0.88 
-5.74 11.20 -1.57 0.88 
-5.48 11.23 -1.56 0.89 
-5.23 11.26 -1.55 0.90 
-4.99 11.28 -1.54 0.89 
-4.74 11.30 -1.53 0.90 
-4.50 11.32 -1.52 0.91 
-4.26 11.34 -1.51 0.73 
-4.04 11.41 -1.51 0.12 
-3.83 11.48 -1.51 0.12 
-3.61 11.55 -1.51 0.12 
-3.39 11.61 -1.51 0.12 
-3.17 11.67 -1.51 0.12 
-2.95 11.73 -1.51 0.12 
-2.72 11.78 -1.51 0.12 
-2.50 11.83 -1.51 0.12 
-2.27 11.87 -1.51 0.12 
-2.05 11.91 -1.51 0.12 
-1.82 11.95 -1.51 0.12 
-1.60 11.98 -1.51 0.12 
-1.37 12.00 -1.51 0.12 
-1.14 12.02 -1.51 0.12 
-0.91 12.04 -1.51 0.12 
-0.69 12.06 -1.51 0.12 
-0.46 12.06 -1.51 0.12 
-0.23 12.07 -1.51 0.12 
0.00 12.07 -1.51 0.12 
0.23 12.07 -1.51 0.12 
0.46 12.06 -1.51 0.12 
0.68 12.05 -1.51 0.12 
0.91 12.03 -1.51 0.12 
1.14 12.01 -1.51 0.12 
1.37 11.98 -1.51 0.12 
1.59 11.95 -1.51 0.12 
1.82 11.92 -1.51 0.12 
2.04 11.88 -1.51 0.12 
2.27 11.84 -1.51 0.12 
2.49 11.80 -1.51 0.12 
2.71 11.75 -1.51 0.12 
2.94 11.69 -1.51 0.12 
3.16 11.63 -1.51 0.12 
3.38 11.57 -1.51 0.12 
3.59 11.50 -1.51 0.12 
3.81 11.43 -1.51 0.12 
4.03 11.36 -1.51 0.12 
4.24 11.28 -1.51 0.12 
4.47 11.24 -1.51 0.72 
4.71 11.22 -1.52 0.91 
4.95 11.19 -1.53 0.90 
5.19 11.16 -1.54 0.90 
5.44 11.14 -1.55 0.89 
5.69 11.11 -1.56 0.89 
5.94 11.08 -1.57 0.89 
6.19 11.04 -1.58 0.88 
6.45 11.01 -1.59 0.87 
6.71 10.97 -1.61 0.86 
6.98 10.94 -1.62 0.87 
7.24 10.90 -1.63 0.86 
7.51 10.85 -1.65 0.13 
7.72 10.71 -1.65 0.13 
7.93 10.58 -1.65 0.13 
8.14 10.44 -1.65 0.13 
8.35 10.29 -1.66 0.13 
8.54 10.14 -1.66 0.12 
8.73 9.97 -1.66 0.12 
8.92 9.81 -1.66 0.12 
9.11 9.64 -1.66 0.12 
9.29 9.47 -1.66 0.12 
9.47 9.29 -1.66 0.12 
9.64 9.11 -1.66 0.12 
9.81 8.93 -1.66 0.12 
9.98 8.74 -1.66 0.12 
10.15 8.55 -1.66 0.12 
10.31 8.36 -1.66 0.12 
10.46 8.16 -1.66 0.12 
10.62 7.96 -1.66 0.12 
10.77 7.76 -1.66 0.12 
10.91 7.56 -1.66 0.12 
11.06 7.35 -1.66 0.12 
11.20 7.14 -1.66 0.12 
11.33 6.93 -1.66 0.12 
11.46 6.71 -1.66 0.12 
11.59 6.50 -1.66 0.12 
11.71 6.28 -1.66 0.12 
11.83 6.06 -1.66 0.12 
11.94 5.83 -1.66 0.12 
12.05 5.61 -1.66 0.12 
12.16 5.38 -1.66 0.12 
12.26 5.15 -1.66 0.12 
12.36 4.92 -1.66 0.12 
12.45 4.68 -1.66 0.12 
12.54 4.45 -1.66 0.12 
12.63 4.21 -1.66 0.12 
12.71 3.97 -1.66 0.12 
12.78 3.73 -1.66 0.12 
12.85 3.49 -1.66 0.12 
12.92 3.24 -1.66 0.12 
12.98 3.00 -1.67 0.12 
13.04 2.75 -1.67 0.12 
13.09 2.51 -1.67 0.12 
13.14 2.26 -1.67 0.12 
13.18 2.01 -1.67 0.12 
13.22 1.76 -1.67 0.12 
13.26 1.51 -1.67 0.12 
13.29 1.26 -1.67 0.12 
13.31 1.01 -1.67 0.12 
13.33 0.76 -1.67 0.12 
13.35 0.51 -1.67 0.12 
13.36 0.25 -1.67 0.12 
13.36 0.00 -1.67 0.12 
13.36 -0.25 -1.67 0.12 
13.36 -0.51 -1.67 0.12 
13.35 -0.76 -1.67 0.12 
13.34 -1.01 -1.67 0.12 
13.32 -1.26 -1.67 0.12 
13.30 -1.52 -1.67 0.12 
13.27 -1.77 -1.67 0.12 
13.24 -2.02 -1.67 0.12 
13.20 -2.27 -1.67 0.12 
13.16 -2.52 -1.67 0.12 
13.11 -2.77 -1.67 0.12 
13.06 -3.02 -1.68 0.12 
13.01 -3.27 -1.68 0.12 
12.94 -3.51 -1.68 0.12 
12.88 -3.76 -1.68 0.12 
12.81 -4.00 -1.68 0.12 
12.74 -4.24 -1.68 0.12 
12.66 -4.49 -1.68 0.12 
12.57 -4.73 -1.68 0.12 
12.48 -4.96 -1.68 0.12 
12.39 -5.20 -1.68 0.12 
12.29 -5.44 -1.68 0.12 
12.19 -5.67 -1.68 0.12 
12.09 -5.90 -1.68 0.12 
11.98 -6.13 -1.68 0.12 
6.50 -3.48 -0.92 0.39 
6.16 -3.45 -0.88 0.41 
5.84 -3.42 -0.85 0.46 
5.58 -3.41 -0.82 0.55 
5.37 -3.43 -0.80 0.59 
5.21 -3.46 -0.78 0.83 
5.13 -3.55 -0.78 0.95 
5.07 -3.65 -0.78 0.87 
5.03 -3.77 -0.79 0.81 
4.99 -3.89 -0.79 0.81 
4.98 -4.04 -0.80 0.71 
5.01 -4.22 -0.82 0.63 
10.13 -8.87 -1.68 0.12 
9.87 -8.97 -1.67 0.43 
9.35 -8.84 -1.61 0.44 
8.88 -8.71 -1.55 0.50 
8.61 -8.78 -1.54 0.12 
8.45 -8.94 -1.54 0.12 
8.28 -9.10 -1.54 0.12 
8.11 -9.26 -1.54 0.12 
7.93 -9.41 -1.54 0.12 
7.75 -9.56 -1.54 0.12 
7.57 -9.71 -1.54 0.12 
7.39 -9.85 -1.54 0.12 
7.20 -10.00 -1.54 0.12 
7.02 -10.13 -1.54 0.12 
6.82 -10.27 -1.54 0.12 
6.63 -10.40 -1.54 0.12 
6.43 -10.52 -1.54 0.12 
6.24 -10.64 -1.54 0.12 
6.03 -10.76 -1.54 0.12 
5.83 -10.88 -1.54 0.12 
5.63 -10.99 -1.54 0.12 
5.42 -11.10 -1.54 0.12 
5.21 -11.20 -1.54 0.12 
5.00 -11.30 -1.54 0.12 
4.78 -11.39 -1.54 0.12 
4.57 -11.48 -1.54 0.12 
4.35 -11.57 -1.54 0.12 
4.13 -11.65 -1.55 0.12 
3.91 -11.73 -1.55 0.12 
3.69 -11.81 -1.55 0.12 
3.47 -11.88 -1.55 0.12 
3.24 -11.94 -1.55 0.12 
3.01 -12.00 -1.55 0.12 
2.79 -12.06 -1.55 0.12 
2.56 -12.11 -1.55 0.12 
2.33 -12.16 -1.55 0.12 
2.10 -12.21 -1.55 0.12 
1.87 -12.25 -1.55 0.12 
1.64 -12.28 -1.55 0.12 
1.37 -11.97 -1.51 0.55 
1.17 -12.34 -1.55 0.12 
0.94 -12.36 -1.55 0.12 
0.46 -8.03 -1.01 0.96 
0.31 -8.06 -1.01 0.96 
0.23 -12.40 -1.55 0.12 
0.00 -12.40 -1.55 0.12 
-0.23 -12.40 -1.55 0.12 
-0.47 -12.40 -1.55 0.12 
-0.70 -12.39 -1.55 0.12 
-0.94 -12.37 -1.55 0.12 
-1.17 -12.36 -1.55 0.12 
-1.41 -12.33 -1.55 0.12 
-1.64 -12.30 -1.55 0.12 
-1.87 -12.27 -1.55 0.12 
-2.10 -12.24 -1.55 0.12 
-2.34 -12.19 -1.55 0.12 
-2.57 -12.15 -1.55 0.12 
-2.80 -12.10 -1.55 0.12 
-3.02 -12.05 -1.55 0.12 
-3.25 -11.99 -1.55 0.12 
-3.48 -11.92 -1.55 0.12 
-3.70 -11.86 -1.55 0.12 
-3.93 -11.78 -1.55 0.12 
-4.15 -11.71 -1.55 0.12 
-4.37 -11.63 -1.55 0.12 
-4.59 -11.54 -1.55 0.12 
-4.81 -11.46 -1.55 0.12 
-5.02 -11.36 -1.55 0.12 
-5.24 -11.27 -1.55 0.12 
-5.45 -11.16 -1.55 0.12 
-5.66 -11.06 -1.55 0.12 
-5.87 -10.95 -1.55 0.12 
-6.08 -10.84 -1.55 0.12 
-6.28 -10.72 -1.55 0.12 
-6.48 -10.60 -1.55 0.12 
-6.68 -10.47 -1.55 0.12 
-6.88 -10.35 -1.55 0.12 
-7.07 -10.21 -1.55 0.12 
-7.26 -10.08 -1.55 0.12 
-7.45 -9.94 -1.55 0.12 
-7.64 -9.79 -1.55 0.12 
-7.82 -9.65 -1.55 0.12 
-8.00 -9.50 -1.55 0.12 
-8.18 -9.34 -1.55 0.12 
-8.35 -9.19 -1.55 0.12 
-8.53 -9.02 -1.55 0.12 
-8.70 -8.86 -1.55 0.12 
-8.86 -8.69 -1.55 0.12 
-9.02 -8.52 -1.55 0.12 
-9.29 -8.45 -1.57 0.52 
-9.73 -8.52 -1.62 0.51 
-10.19 -8.59 -1.66 0.49 
-10.56 -8.56 -1.70 0.12 
-10.74 -8.38 -1.70 0.12 
-10.91 -8.18 -1.70 0.12 
-11.06 -7.97 -1.70 0.12 
-11.21 -7.76 -1.70 0.12 
-11.35 -7.55 -1.70 0.12 
-11.49 -7.33 -1.70 0.12 
-11.63 -7.11 -1.70 0.12 
-11.76 -6.89 -1.70 0.12 
-11.89 -6.66 -1.70 0.12 
-12.01 -6.44 -1.70 0.12 
-12.13 -6.21 -1.70 0.12 
-12.22 -5.96 -1.70 0.12 
-12.35 -5.74 -1.70 0.12 
-12.45 -5.51 -1.70 0.12 
-12.55 -5.27 -1.70 0.12 
-12.65 -5.03 -1.70 0.12 
-12.74 -4.79 -1.70 0.12 
-12.82 -4.55 -1.70 0.12 
-12.90 -4.30 -1.70 0.12 
-12.98 -4.05 -1.70 0.12 
-13.05 -3.81 -1.70 0.12 
-13.12 -3.56 -1.70 0.12 
-13.18 -3.31 -1.70 0.12 
-13.24 -3.06 -1.70 0.12 
-13.29 -2.81 -1.70 0.12 
-13.34 -2.55 -1.70 0.12 
-10.66 -1.83 -1.35 0.91 
-10.21 -1.56 -1.29 0.93 
-10.20 -1.36 -1.29 0.94 
-10.20 -1.16 -1.28 0.95 
-10.22 -0.97 -1.28 0.95 
-10.24 -0.78 -1.28 0.94 
-13.54 -0.77 -1.69 0.12 
-13.54 -0.51 -1.69 0.12 
-11.48 -0.22 -1.44 0.14 
-10.98 -0.00 -1.39 0.89 
-13.41 0.25 -1.69 0.12 
-13.40 0.51 -1.69 0.12 
-13.38 0.76 -1.69 0.12 
-13.36 1.01 -1.69 0.12 
-13.34 1.27 -1.69 0.12 
-13.31 1.52 -1.69 0.12 
-13.27 1.77 -1.69 0.12 
-13.23 2.02 -1.69 0.12 
-13.19 2.27 -1.69 0.12 
-13.14 2.52 -1.69 0.12 
-13.09 2.76 -1.69 0.12 
-13.03 3.01 -1.69 0.12 
-12.97 3.26 -1.69 0.12 
-12.90 3.50 -1.69 0.12 
-12.83 3.74 -1.69 0.12 
-12.75 3.98 -1.69 0.12 
-12.67 4.22 -1.68 0.12 
-12.58 4.46 -1.68 0.12 
-12.49 4.70 -1.68 0.12 
-12.40 4.93 -1.68 0.12 
-12.30 5.16 -1.68 0.12 
-11.40 5.04 -1.57 0.52 
-11.01 5.12 -1.53 0.58 
-11.98 5.85 -1.68 0.12 
-11.86 6.07 -1.68 0.12 
-11.74 6.29 -1.68 0.12 
-11.61 6.51 -1.68 0.12 
-11.49 6.73 -1.68 0.12 
-11.35 6.94 -1.68 0.12 
-11.22 7.15 -1.68 0.12 
-11.08 7.36 -1.68 0.12 
-10.93 7.57 -1.68 0.12 
-10.78 7.77 -1.68 0.12 
-10.63 7.97 -1.68 0.12 
-10.48 8.17 -1.68 0.12 
-10.32 8.36 -1.68 0.12 
-10.15 8.56 -1.68 0.12 
-9.99 8.74 -1.67 0.12 
-9.82 8.93 -1.67 0.12 
-9.64 9.11 -1.67 0.12 
-9.47 9.29 -1.67 0.12 
-9.29 9.46 -1.67 0.12 
-9.10 9.64 -1.67 0.12 
-8.92 9.80 -1.67 0.12 
-8.73 9.97 -1.67 0.12 
-8.54 10.13 -1.67 0.12 
-8.34 10.29 -1.67 0.12 
-8.14 10.44 -1.67 0.12 
-7.93 10.58 -1.67 0.13 
-7.72 10.71 -1.67 0.13 
-7.51 10.84 -1.66 0.13 
-7.29 10.97 -1.66 0.13 
-7.05 11.05 -1.65 0.85 
-6.78 11.08 -1.64 0.86 
-6.51 11.12 -1.63 0.87 
-6.25 11.15 -1.61 0.88 
-5.99 11.18 -1.60 0.88 
-5.73 11.20 -1.59 0.88 
-5.48 11.23 -1.58 0.89 
-5.23 11.25 -1.57 0.90 
-4.99 11.28 -1.56 0.90 
-4.74 11.30 -1.55 0.90 
-4.50 11.31 -1.54 0.91 
-4.26 11.33 -1.53 0.91 
-4.02 11.35 -1.52 0.73 
-3.79 11.37 -1.51 0.73 
-3.57 11.44 -1.51 0.12 
-3.36 11.50 -1.51 0.12 
-3.14 11.56 -1.51 0.12 
-2.92 11.62 -1.51 0.12 
-2.70 11.67 -1.51 0.12 
-2.47 11.72 -1.51 0.12 
-2.25 11.76 -1.51 0.12 
-2.03 11.80 -1.51 0.12 
-1.81 11.83 -1.51 0.12 
-1.58 11.86 -1.51 0.12 
-1.36 11.89 -1.51 0.12 
-1.13 11.91 -1.51 0.12 
-0.90 11.93 -1.51 0.12 
-0.68 11.94 -1.51 0.12 
-0.45 11.95 -1.51 0.12 
-0.23 11.95 -1.51 0.12 
0.00 11.96 -1.51 0.12 
0.23 11.95 -1.51 0.12 
0.45 11.94 -1.51 0.12 
0.68 11.93 -1.51 0.12 
0.90 11.92 -1.51 0.12 
1.13 11.89 -1.51 0.12 
1.35 11.87 -1.51 0.12 
1.58 11.84 -1.51 0.12 
1.80 11.81 -1.51 0.12 
2.02 11.77 -1.51 0.12 
2.25 11.73 -1.51 0.12 
2.47 11.68 -1.51 0.12 
2.69 11.63 -1.51 0.12 
2.91 11.58 -1.51 0.12 
3.13 11.52 -1.51 0.12 
3.34 11.46 -1.51 0.12 
3.56 11.40 -1.51 0.12 
3.77 11.33 -1.51 0.12 
4.00 11.28 -1.51 0.73 
4.23 11.26 -1.52 0.91 
4.47 11.24 -1.53 0.91 
4.71 11.21 -1.53 0.91 
4.95 11.19 -1.54 0.90 
5.19 11.16 -1.55 0.90 
5.44 11.13 -1.56 0.89 
5.69 11.11 -1.57 0.89 
5.94 11.07 -1.59 0.89 
6.19 11.04 -1.60 0.88 
6.45 11.01 -1.61 0.87 
6.71 10.97 -1.62 0.87 
6.97 10.93 -1.64 0.87 
7.24 10.88 -1.65 0.13 
7.45 10.76 -1.65 0.13 
7.66 10.62 -1.65 0.13 
7.87 10.49 -1.65 0.13 
8.07 10.35 -1.66 0.13 
8.27 10.20 -1.66 0.12 
8.46 10.04 -1.66 0.12 
8.65 9.88 -1.66 0.12 
8.84 9.72 -1.66 0.12 
9.02 9.55 -1.66 0.12 
9.20 9.38 -1.66 0.12 
9.38 9.20 -1.66 0.12 
9.55 9.02 -1.66 0.12 
9.72 8.84 -1.66 0.12 
9.89 8.66 -1.66 0.12 
10.05 8.47 -1.66 0.12 
10.21 8.28 -1.66 0.12 
10.36 8.08 -1.66 0.12 
10.52 7.89 -1.66 0.12 
10.67 7.69 -1.66 0.12 
10.81 7.49 -1.66 0.12 
10.95 7.28 -1.66 0.12 
11.09 7.07 -1.66 0.12 
11.22 6.86 -1.66 0.12 
11.35 6.65 -1.66 0.12 
11.48 6.44 -1.66 0.12 
11.60 6.22 -1.66 0.12 
11.72 6.00 -1.66 0.12 
11.83 5.78 -1.66 0.12 
11.94 5.55 -1.66 0.12 
12.05 5.33 -1.66 0.12 
12.15 5.10 -1.66 0.12 
12.24 4.87 -1.66 0.12 
12.34 4.64 -1.66 0.12 
12.42 4.40 -1.66 0.12 
12.51 4.17 -1.66 0.12 
12.59 3.93 -1.66 0.12 
12.66 3.69 -1.66 0.12 
12.73 3.45 -1.66 0.12 
12.80 3.21 -1.66 0.12 
12.86 2.97 -1.67 0.12 
12.91 2.73 -1.67 0.12 
12.97 2.48 -1.67 0.12 
13.01 2.24 -1.67 0.12 
13.06 1.99 -1.67 0.12 
13.10 1.75 -1.67 0.12 
13.13 1.50 -1.67 0.12 
13.16 1.25 -1.67 0.12 
13.18 1.00 -1.67 0.12 
13.20 0.75 -1.67 0.12 
13.22 0.50 -1.67 0.12 
13.23 0.25 -1.67 0.12 
13.23 0.00 -1.67 0.12 
13.24 -0.25 -1.67 0.12 
13.23 -0.50 -1.67 0.12 
13.22 -0.75 -1.67 0.12 
13.21 -1.00 -1.67 0.12 
13.19 -1.25 -1.67 0.12 
13.17 -1.50 -1.67 0.12 
13.14 -1.75 -1.67 0.12 
13.11 -2.00 -1.67 0.12 
13.07 -2.25 -1.67 0.12 
13.03 -2.50 -1.67 0.12 
12.99 -2.74 -1.67 0.12 
12.94 -2.99 -1.68 0.12 
12.88 -3.23 -1.68 0.12 
12.82 -3.48 -1.68 0.12 
12.76 -3.72 -1.68 0.12 
12.69 -3.96 -1.68 0.12 
12.61 -4.20 -1.68 0.12 
12.53 -4.44 -1.68 0.12 
12.45 -4.68 -1.68 0.12 
12.36 -4.92 -1.68 0.12 
12.27 -5.15 -1.68 0.12 
12.18 -5.38 -1.68 0.12 
12.08 -5.62 -1.68 0.12 
11.97 -5.84 -1.68 0.12 
11.86 -6.07 -1.68 0.12 
6.49 -3.48 -0.93 0.39 
6.15 -3.45 -0.89 0.41 
5.84 -3.42 -0.85 0.46 
5.58 -3.41 -0.83 0.55 
5.37 -3.43 -0.80 0.59 
5.21 -3.46 -0.79 0.83 
5.12 -3.55 -0.79 0.95 
5.06 -3.65 -0.79 0.87 
5.02 -3.77 -0.79 0.81 
4.98 -3.89 -0.80 0.81 
4.98 -4.04 -0.81 0.71 
5.00 -4.21 -0.82 0.19 
10.04 -8.79 -1.68 0.12 
9.85 -8.96 -1.68 0.13 
9.35 -8.83 -1.62 0.44 
8.87 -8.71 -1.57 0.50 
8.53 -8.69 -1.54 0.12 
8.36 -8.85 -1.54 0.12 
8.20 -9.01 -1.54 0.12 
8.03 -9.17 -1.54 0.12 
7.85 -9.32 -1.54 0.12 
7.68 -9.47 -1.54 0.12 
7.50 -9.62 -1.54 0.12 
7.32 -9.76 -1.54 0.12 
7.13 -9.90 -1.54 0.12 
6.95 -10.03 -1.54 0.12 
6.76 -10.17 -1.54 0.12 
6.57 -10.30 -1.54 0.12 
6.37 -10.42 -1.54 0.12 
6.18 -10.54 -1.54 0.12 
5.98 -10.66 -1.54 0.12 
5.77 -10.77 -1.54 0.12 
5.57 -10.88 -1.54 0.12 
5.37 -10.99 -1.54 0.12 
5.16 -11.09 -1.54 0.12 
4.95 -11.19 -1.54 0.12 
4.74 -11.28 -1.54 0.12 
4.52 -11.37 -1.54 0.12 
4.31 -11.46 -1.54 0.12 
4.09 -11.54 -1.55 0.12 
3.87 -11.62 -1.55 0.12 
3.65 -11.69 -1.55 0.12 
3.43 -11.76 -1.55 0.12 
3.21 -11.83 -1.55 0.12 
2.99 -11.89 -1.55 0.12 
2.76 -11.94 -1.55 0.12 
2.53 -12.00 -1.55 0.12 
2.31 -12.04 -1.55 0.12 
2.08 -12.09 -1.55 0.12 
1.85 -12.13 -1.55 0.12 
1.62 -12.16 -1.55 0.12 
1.39 -12.19 -1.55 0.12 
1.16 -12.22 -1.55 0.12 
0.93 -12.24 -1.55 0.12 
0.46 -8.03 -1.02 0.96 
0.31 -8.06 -1.02 0.96 
0.23 -12.28 -1.55 0.12 
0.00 -12.28 -1.55 0.12 
-0.23 -12.28 -1.55 0.12 
-0.46 -12.28 -1.55 0.12 
-0.70 -12.27 -1.55 0.12 
-0.93 -12.25 -1.55 0.12 
-1.16 -12.23 -1.55 0.12 
-1.39 -12.21 -1.55 0.12 
-1.62 -12.18 -1.55 0.12 
-1.85 -12.15 -1.55 0.12 
-2.08 -12.12 -1.55 0.12 
-2.31 -12.08 -1.55 0.12 
-2.54 -12.03 -1.55 0.12 
-2.77 -11.98 -1.55 0.12 
-3.00 -11.93 -1.55 0.12 
-3.22 -11.87 -1.55 0.12 
-3.44 -11.81 -1.55 0.12 
-3.67 -11.74 -1.55 0.12 
-3.89 -11.67 -1.55 0.12 
-4.11 -11.59 -1.55 0.12 
-4.33 -11.51 -1.55 0.12 
-4.55 -11.43 -1.55 0.12 
-4.76 -11.34 -1.55 0.12 
-4.98 -11.25 -1.55 0.12 
-5.19 -11.16 -1.55 0.12 
-5.40 -11.06 -1.55 0.12 
-5.61 -10.95 -1.55 0.12 
-5.81 -10.84 -1.55 0.12 
-6.02 -10.73 -1.55 0.12 
-6.22 -10.61 -1.55 0.12 
-6.42 -10.50 -1.55 0.12 
-6.61 -10.37 -1.55 0.12 
-6.81 -10.24 -1.55 0.12 
-7.00 -10.11 -1.55 0.12 
-7.19 -9.98 -1.55 0.12 
-7.38 -9.84 -1.55 0.12 
-7.56 -9.70 -1.55 0.12 
-7.75 -9.55 -1.55 0.12 
-7.92 -9.40 -1.55 0.12 
-8.10 -9.25 -1.55 0.12 
-8.27 -9.10 -1.55 0.12 
-8.44 -8.94 -1.55 0.12 
-8.61 -8.77 -1.55 0.12 
-8.77 -8.61 -1.55 0.12 
-8.93 -8.44 -1.55 0.12 
-9.29 -8.45 -1.58 0.52 
-9.72 -8.51 -1.63 0.51 
-10.18 -8.58 -1.68 0.49 
-10.46 -8.48 -1.70 0.12 
-10.64 -8.30 -1.70 0.12 
-10.81 -8.10 -1.70 0.12 
-10.96 -7.90 -1.70 0.12 
-11.10 -7.69 -1.70 0.12 
-11.24 -7.47 -1.70 0.12 
-11.38 -7.26 -1.70 0.12 
-11.52 -7.04 -1.70 0.12 
-11.64 -6.82 -1.70 0.12 
-11.77 -6.60 -1.70 0.12 
-11.89 -6.37 -1.70 0.12 
-12.01 -6.15 -1.70 0.12 
-12.12 -5.92 -1.70 0.12 
-12.23 -5.69 -1.70 0.12 
-12.33 -5.45 -1.70 0.12 
-12.43 -5.22 -1.70 0.12 
-12.52 -4.98 -1.70 0.12 
-12.61 -4.74 -1.70 0.12 
-12.70 -4.50 -1.70 0.12 
-12.78 -4.26 -1.70 0.12 
-12.85 -4.02 -1.70 0.12 
-12.92 -3.77 -1.70 0.12 
-12.99 -3.52 -1.70 0.12 
-13.05 -3.28 -1.70 0.12 
-13.11 -3.03 -1.70 0.12 
-13.16 -2.78 -1.70 0.12 
-13.21 -2.53 -1.70 0.12 
-10.66 -1.83 -1.37 0.91 
-10.70 -1.63 -1.37 0.91 
-13.32 -1.78 -1.70 0.12 
-13.35 -1.52 -1.70 0.12 
-13.37 -1.27 -1.69 0.12 
-13.39 -1.02 -1.69 0.12 
-13.40 -0.76 -1.69 0.12 
-13.41 -0.51 -1.69 0.12 
-11.48 -0.22 -1.45 0.14 
-10.98 -0.00 -1.40 0.89 
-13.28 0.25 -1.69 0.12 
-13.27 0.50 -1.69 0.12 
-13.26 0.75 -1.69 0.12 
-13.23 1.00 -1.69 0.12 
-13.21 1.25 -1.69 0.12 
-13.18 1.50 -1.69 0.12 
-13.15 1.75 -1.69 0.12 
-13.11 2.00 -1.69 0.12 
-13.06 2.25 -1.69 0.12 
-13.01 2.49 -1.69 0.12 
-12.96 2.74 -1.69 0.12 
-12.90 2.98 -1.69 0.12 
-12.84 3.22 -1.69 0.12 
-12.77 3.47 -1.69 0.12 
-12.70 3.71 -1.69 0.12 
-12.63 3.94 -1.69 0.12 
-12.55 4.18 -1.68 0.12 
-12.46 4.42 -1.68 0.12 
-12.37 4.65 -1.68 0.12 
-12.28 4.88 -1.68 0.12 
-12.18 5.11 -1.68 0.12 
-11.40 5.04 -1.59 0.52 
-11.03 5.13 -1.55 0.58 
-11.86 5.79 -1.68 0.12 
-11.75 6.01 -1.68 0.12 
-11.63 6.23 -1.68 0.12 
-11.50 6.45 -1.68 0.12 
-11.38 6.66 -1.68 0.12 
-11.25 6.88 -1.68 0.12 
-11.11 7.09 -1.68 0.12 
-10.97 7.29 -1.68 0.12 
-10.83 7.50 -1.68 0.12 
-10.68 7.70 -1.68 0.12 
-10.53 7.90 -1.68 0.12 
-10.38 8.09 -1.68 0.12 
-10.22 8.29 -1.68 0.12 
-10.06 8.47 -1.68 0.12 
-9.89 8.66 -1.67 0.12 
-9.72 8.84 -1.67 0.12 
-9.55 9.02 -1.67 0.12 
-9.38 9.20 -1.67 0.12 
-9.20 9.37 -1.67 0.12 
-9.02 9.54 -1.67 0.12 
-8.83 9.71 -1.67 0.12 
-8.65 9.87 -1.67 0.12 
-8.45 10.03 -1.67 0.12 
-8.26 10.19 -1.67 0.12 
-8.06 10.34 -1.67 0.12 
-7.87 10.49 -1.67 0.12 
-7.66 10.62 -1.67 0.13 
-7.44 10.75 -1.67 0.13 
-7.23 10.88 -1.66 0.14 
-7.01 11.00 -1.66 0.14 
-6.78 11.08 -1.65 0.86 
-6.51 11.11 -1.64 0.87 
-6.25 11.15 -1.63 0.88 
-5.99 11.17 -1.62 0.88 
-5.73 11.20 -1.60 0.88 
-5.48 11.22 -1.59 0.89 
-5.23 11.25 -1.58 0.90 
-4.99 11.27 -1.57 0.90 
-4.74 11.29 -1.56 0.90 
-4.50 11.31 -1.55 0.91 
-4.26 11.33 -1.54 0.91 
-4.02 11.35 -1.53 0.92 
-3.79 11.37 -1.53 0.92 
-3.56 11.38 -1.52 0.73 
-3.33 11.40 -1.51 0.74 
-3.11 11.45 -1.51 0.12 
-2.89 11.51 -1.51 0.12 
-2.67 11.56 -1.51 0.12 
-2.45 11.61 -1.51 0.12 
-2.23 11.65 -1.51 0.12 
-2.01 11.69 -1.51 0.12 
-1.79 11.72 -1.51 0.12 
-1.57 11.75 -1.51 0.12 
-1.34 11.78 -1.51 0.12 
-1.12 11.80 -1.51 0.12 
-0.90 11.82 -1.51 0.12 
-0.67 11.83 -1.51 0.12 
-0.45 11.84 -1.51 0.12 
-0.22 11.84 -1.51 0.12 
0.00 11.84 -1.51 0.12 
0.22 11.84 -1.51 0.12 
0.45 11.83 -1.51 0.12 
0.67 11.82 -1.51 0.12 
0.90 11.80 -1.51 0.12 
1.12 11.78 -1.51 0.12 
1.34 11.76 -1.51 0.12 
1.56 11.73 -1.51 0.12 
1.78 11.70 -1.51 0.12 
2.01 11.66 -1.51 0.12 
2.23 11.62 -1.51 0.12 
2.44 11.57 -1.51 0.12 
2.66 11.53 -1.51 0.12 
2.88 11.47 -1.51 0.12 
3.10 11.41 -1.51 0.12 
3.31 11.35 -1.51 0.12 
3.54 11.32 -1.51 0.74 
3.77 11.30 -1.52 0.92 
4.00 11.28 -1.52 0.92 
4.23 11.26 -1.53 0.92 
4.47 11.24 -1.54 0.91 
4.71 11.21 -1.55 0.91 
4.95 11.19 -1.56 0.90 
5.19 11.16 -1.57 0.90 
5.44 11.13 -1.58 0.89 
5.68 11.10 -1.59 0.89 
5.93 11.07 -1.60 0.89 
6.19 11.04 -1.61 0.88 
6.45 11.00 -1.62 0.87 
6.71 10.97 -1.64 0.87 
6.96 10.92 -1.65 0.14 
7.17 10.79 -1.65 0.14 
7.38 10.67 -1.65 0.14 
7.59 10.53 -1.65 0.14 
7.80 10.40 -1.66 0.14 
8.00 10.26 -1.66 0.12 
8.19 10.10 -1.66 0.12 
8.38 9.95 -1.66 0.12 
8.57 9.79 -1.66 0.12 
8.75 9.62 -1.66 0.12 
8.94 9.46 -1.66 0.12 
9.11 9.29 -1.66 0.12 
9.29 9.11 -1.66 0.12 
9.46 8.94 -1.66 0.12 
9.63 8.76 -1.66 0.12 
9.79 8.57 -1.66 0.12 
9.95 8.39 -1.66 0.12 
10.11 8.20 -1.66 0.12 
10.27 8.01 -1.66 0.12 
10.42 7.81 -1.66 0.12 
10.57 7.62 -1.66 0.12 
10.71 7.42 -1.66 0.12 
10.85 7.21 -1.66 0.12 
10.99 7.01 -1.66 0.12 
11.12 6.80 -1.66 0.12 
11.25 6.59 -1.66 0.12 
11.37 6.37 -1.66 0.12 
11.49 6.16 -1.66 0.12 
11.61 5.94 -1.66 0.12 
11.72 5.72 -1.66 0.12 
11.83 5.50 -1.66 0.12 
11.93 5.28 -1.66 0.12 
12.03 5.05 -1.66 0.12 
12.13 4.82 -1.66 0.12 
12.22 4.59 -1.66 0.12 
12.31 4.36 -1.66 0.12 
12.39 4.13 -1.66 0.12 
12.47 3.89 -1.66 0.12 
12.54 3.66 -1.66 0.12 
12.61 3.42 -1.66 0.12 
12.68 3.18 -1.66 0.12 
12.74 2.94 -1.67 0.12 
12.79 2.70 -1.67 0.12 
12.84 2.46 -1.67 0.12 
12.89 2.22 -1.67 0.12 
12.93 1.97 -1.67 0.12 
12.97 1.73 -1.67 0.12 
13.01 1.48 -1.67 0.12 
13.03 1.24 -1.67 0.12 
13.06 0.99 -1.67 0.12 
13.08 0.74 -1.67 0.12 
13.09 0.50 -1.67 0.12 
13.10 0.25 -1.67 0.12 
13.11 0.00 -1.67 0.12 
13.11 -0.25 -1.67 0.12 
13.11 -0.50 -1.67 0.12 
13.10 -0.74 -1.67 0.12 
13.08 -0.99 -1.67 0.12 
13.07 -1.24 -1.67 0.12 
13.04 -1.49 -1.67 0.12 
13.02 -1.73 -1.67 0.12 
12.99 -1.98 -1.67 0.12 
12.95 -2.23 -1.67 0.12 
12.91 -2.47 -1.67 0.12 
12.86 -2.72 -1.67 0.12 
12.81 -2.96 -1.68 0.12 
12.76 -3.20 -1.68 0.12 
12.70 -3.45 -1.68 0.12 
12.63 -3.69 -1.68 0.12 
12.57 -3.93 -1.68 0.12 
12.49 -4.16 -1.68 0.12 
12.42 -4.40 -1.68 0.12 
12.33 -4.64 -1.68 0.12 
12.25 -4.87 -1.68 0.12 
12.16 -5.10 -1.68 0.12 
12.06 -5.33 -1.68 0.12 
11.96 -5.56 -1.68 0.12 
11.86 -5.79 -1.68 0.12 
11.75 -6.01 -1.68 0.12 
6.49 -3.48 -0.94 0.39 
6.15 -3.45 -0.90 0.41 
5.84 -3.42 -0.86 0.46 
5.58 -3.41 -0.83 0.55 
5.37 -3.43 -0.81 0.59 
5.20 -3.46 -0.80 0.83 
5.12 -3.55 -0.79 0.95 
5.06 -3.65 -0.79 0.87 
5.02 -3.76 -0.80 0.81 
4.98 -3.88 -0.80 0.81 
4.97 -4.03 -0.82 0.71 
4.98 -4.20 -0.83 0.19 
9.95 -8.71 -1.68 0.13 
9.76 -8.88 -1.68 0.13 
9.34 -8.83 -1.64 0.44 
8.87 -8.70 -1.58 0.50 
8.45 -8.62 -1.54 0.44 
8.28 -8.77 -1.54 0.12 
8.12 -8.93 -1.54 0.12 
7.95 -9.08 -1.54 0.12 
7.78 -9.23 -1.54 0.12 
7.61 -9.38 -1.54 0.12 
7.43 -9.52 -1.54 0.12 
7.25 -9.67 -1.54 0.12 
7.07 -9.80 -1.54 0.12 
6.88 -9.94 -1.54 0.12 
6.69 -10.07 -1.54 0.12 
6.50 -10.20 -1.54 0.12 
6.31 -10.32 -1.54 0.12 
6.12 -10.44 -1.54 0.12 
5.92 -10.56 -1.54 0.12 
5.72 -10.67 -1.54 0.12 
5.52 -10.78 -1.54 0.12 
5.31 -10.88 -1.54 0.12 
5.11 -10.98 -1.54 0.12 
4.90 -11.08 -1.54 0.12 
4.69 -11.17 -1.54 0.12 
4.48 -11.26 -1.54 0.12 
4.27 -11.35 -1.54 0.12 
4.05 -11.43 -1.54 0.12 
3.84 -11.51 -1.55 0.12 
3.62 -11.58 -1.55 0.12 
3.40 -11.65 -1.55 0.12 
3.18 -11.71 -1.55 0.12 
2.96 -11.77 -1.55 0.12 
2.73 -11.83 -1.55 0.12 
2.51 -11.88 -1.55 0.12 
2.28 -11.93 -1.55 0.12 
2.06 -11.97 -1.55 0.12 
1.83 -12.01 -1.55 0.12 
1.61 -12.04 -1.55 0.12 
1.38 -12.07 -1.55 0.12 
1.15 -12.10 -1.55 0.12 
0.92 -12.12 -1.55 0.12 
0.46 -8.03 -1.02 0.96 
0.31 -8.06 -1.03 0.96 
0.23 -12.16 -1.55 0.12 
0.00 -12.16 -1.55 0.12 
-0.23 -12.16 -1.55 0.12 
-0.46 -12.16 -1.55 0.12 
-0.69 -12.15 -1.55 0.12 
-0.92 -12.13 -1.55 0.12 
-1.15 -12.12 -1.55 0.12 
-1.38 -12.09 -1.55 0.12 
-1.61 -12.07 -1.55 0.12 
-1.84 -12.03 -1.55 0.12 
-2.06 -12.00 -1.55 0.12 
-2.29 -11.96 -1.55 0.12 
-2.52 -11.91 -1.55 0.12 
-2.74 -11.87 -1.55 0.12 
-2.97 -11.81 -1.55 0.12 
-3.19 -11.75 -1.55 0.12 
-3.41 -11.69 -1.55 0.12 
-3.63 -11.63 -1.55 0.12 
-3.85 -11.56 -1.55 0.12 
-4.07 -11.48 -1.55 0.12 
-4.29 -11.40 -1.55 0.12 
-4.50 -11.32 -1.55 0.12 
-4.72 -11.23 -1.55 0.12 
-4.93 -11.14 -1.55 0.12 
-5.14 -11.05 -1.55 0.12 
-5.35 -10.95 -1.55 0.12 
-5.55 -10.85 -1.55 0.12 
-5.76 -10.74 -1.55 0.12 
-5.96 -10.63 -1.55 0.12 
-6.16 -10.51 -1.55 0.12 
-6.36 -10.39 -1.55 0.12 
-6.55 -10.27 -1.55 0.12 
-6.74 -10.15 -1.55 0.12 
-6.93 -10.02 -1.55 0.12 
-7.12 -9.88 -1.55 0.12 
-7.31 -9.74 -1.55 0.12 
-7.49 -9.60 -1.55 0.12 
-7.67 -9.46 -1.55 0.12 
-7.85 -9.31 -1.55 0.12 
-8.02 -9.16 -1.55 0.12 
-8.19 -9.01 -1.55 0.12 
-8.36 -8.85 -1.55 0.12 
-8.53 -8.69 -1.55 0.12 
-8.69 -8.53 -1.55 0.12 
-8.88 -8.39 -1.56 0.46 
-9.28 -8.44 -1.60 0.52 
-9.72 -8.51 -1.65 0.51 
-10.18 -8.58 -1.70 0.49 
-10.37 -8.41 -1.70 0.13 
-10.54 -8.22 -1.70 0.13 
-10.70 -8.03 -1.70 0.12 
-10.85 -7.82 -1.70 0.12 
-10.99 -7.61 -1.70 0.12 
-11.14 -7.40 -1.70 0.12 
-11.27 -7.19 -1.70 0.12 
-11.40 -6.97 -1.70 0.12 
-11.53 -6.76 -1.70 0.12 
-11.66 -6.53 -1.70 0.12 
-11.78 -6.31 -1.70 0.12 
-11.89 -6.09 -1.70 0.12 
-12.00 -5.86 -1.70 0.12 
-12.11 -5.63 -1.70 0.12 
-12.21 -5.40 -1.70 0.12 
-12.31 -5.17 -1.70 0.12 
-12.40 -4.93 -1.70 0.12 
-12.49 -4.70 -1.70 0.12 
-12.57 -4.46 -1.70 0.12 
-12.65 -4.22 -1.70 0.12 
-12.73 -3.98 -1.70 0.12 
-12.80 -3.73 -1.70 0.12 
-12.87 -3.49 -1.70 0.12 
-12.93 -3.25 -1.70 0.12 
-12.98 -3.00 -1.70 0.12 
-13.03 -2.75 -1.70 0.12 
-13.08 -2.51 -1.70 0.12 
-10.67 -1.83 -1.38 0.91 
-10.70 -1.63 -1.38 0.91 
-13.19 -1.76 -1.70 0.12 
-13.22 -1.51 -1.70 0.12 
-13.24 -1.26 -1.69 0.12 
-13.26 -1.01 -1.69 0.12 
-13.28 -0.75 -1.69 0.12 
-13.28 -0.50 -1.69 0.12 
-11.48 -0.22 -1.46 0.14 
-10.99 -0.00 -1.41 0.71 
-13.15 0.25 -1.69 0.12 
-13.14 0.50 -1.69 0.12 
-13.13 0.75 -1.69 0.12 
-13.11 0.99 -1.69 0.12 
-13.08 1.24 -1.69 0.12 
-13.06 1.49 -1.69 0.12 
-13.02 1.74 -1.69 0.12 
-12.98 1.98 -1.69 0.12 
-12.94 2.23 -1.69 0.12 
-12.89 2.47 -1.69 0.12 
-12.84 2.71 -1.69 0.12 
-12.78 2.95 -1.69 0.12 
-12.72 3.19 -1.69 0.12 
-12.65 3.43 -1.69 0.12 
-12.58 3.67 -1.69 0.12 
-12.51 3.91 -1.69 0.12 
-12.43 4.14 -1.68 0.12 
-12.34 4.38 -1.68 0.12 
-12.26 4.61 -1.68 0.12 
-12.16 4.84 -1.68 0.12 
-12.07 5.06 -1.68 0.12 
-11.40 5.04 -1.60 0.52 
-11.05 5.14 -1.57 0.33 
-11.75 5.74 -1.68 0.12 
-11.64 5.96 -1.68 0.12 
-11.52 6.17 -1.68 0.12 
-11.40 6.39 -1.68 0.12 
-11.27 6.60 -1.68 0.12 
-11.14 6.81 -1.68 0.12 
-11.01 7.02 -1.68 0.12 
-10.87 7.22 -1.68 0.12 
-10.73 7.43 -1.68 0.12 
-10.58 7.63 -1.68 0.12 
-10.43 7.82 -1.68 0.12 
-10.28 8.02 -1.68 0.12 
-10.12 8.21 -1.68 0.12 
-9.96 8.40 -1.68 0.12 
-9.80 8.58 -1.68 0.12 
-9.63 8.76 -1.67 0.12 
-9.46 8.94 -1.67 0.12 
-9.29 9.11 -1.67 0.12 
-9.11 9.29 -1.67 0.12 
-8.93 9.45 -1.67 0.12 
-8.75 9.62 -1.67 0.12 
-8.56 9.78 -1.67 0.12 
-8.38 9.94 -1.67 0.12 
-8.18 10.09 -1.67 0.12 
-7.99 10.24 -1.67 0.12 
-7.79 10.39 -1.67 0.12 
-7.59 10.53 -1.67 0.14 
-7.38 10.66 -1.67 0.14 
-7.17 10.79 -1.67 0.14 
-6.96 10.91 -1.66 0.14 
-6.74 11.02 -1.66 0.14 
-6.51 11.11 -1.66 0.87 
-6.25 11.14 -1.64 0.88 
-5.99 11.17 -1.63 0.88 
-5.73 11.20 -1.62 0.88 
-5.48 11.22 -1.61 0.89 
-5.23 11.25 -1.60 0.90 
-4.98 11.27 -1.59 0.90 
-4.74 11.29 -1.57 0.90 
-4.50 11.31 -1.57 0.91 
-4.26 11.33 -1.56 0.91 
-4.02 11.35 -1.55 0.92 
-3.79 11.36 -1.54 0.92 
-3.55 11.38 -1.53 0.92 
-3.32 11.39 -1.53 0.93 
-3.09 11.40 -1.52 0.74 
-2.87 11.42 -1.51 0.74 
-2.65 11.45 -1.51 0.12 
-2.43 11.50 -1.51 0.12 
-2.21 11.54 -1.51 0.12 
-1.99 11.58 -1.51 0.12 
-1.77 11.61 -1.51 0.12 
-1.55 11.64 -1.51 0.12 
-1.33 11.67 -1.51 0.12 
-1.11 11.69 -1.51 0.12 
-0.89 11.70 -1.51 0.12 
-0.67 11.72 -1.51 0.12 
-0.44 11.73 -1.51 0.12 
-0.22 11.73 -1.51 0.12 
0.00 11.73 -1.51 0.12 
0.22 11.73 -1.51 0.12 
0.44 11.72 -1.51 0.12 
0.67 11.71 -1.51 0.12 
0.89 11.69 -1.51 0.12 
1.11 11.67 -1.51 0.12 
1.33 11.65 -1.51 0.12 
1.55 11.62 -1.51 0.12 
1.77 11.59 -1.51 0.12 
1.99 11.55 -1.51 0.12 
2.20 11.51 -1.51 0.12 
2.42 11.47 -1.51 0.12 
2.64 11.42 -1.51 0.12 
2.85 11.37 -1.51 0.74 
3.08 11.35 -1.51 0.74 
3.31 11.33 -1.52 0.93 
3.53 11.31 -1.52 0.93 
3.76 11.29 -1.53 0.92 
4.00 11.27 -1.54 0.92 
4.23 11.25 -1.55 0.92 
4.47 11.23 -1.55 0.91 
4.70 11.21 -1.56 0.91 
4.95 11.18 -1.57 0.90 
5.19 11.16 -1.58 0.90 
5.43 11.13 -1.59 0.89 
5.68 11.10 -1.60 0.89 
5.93 11.07 -1.62 0.89 
6.19 11.04 -1.63 0.88 
6.44 11.00 -1.64 0.87 
6.69 10.94 -1.65 0.14 
6.90 10.82 -1.65 0.14 
7.11 10.70 -1.65 0.14 
7.32 10.58 -1.65 0.14 
7.53 10.45 -1.66 0.14 
7.73 10.31 -1.66 0.12 
7.92 10.16 -1.66 0.12 
8.12 10.01 -1.66 0.12 
8.30 9.85 -1.66 0.12 
8.49 9.70 -1.66 0.12 
8.67 9.53 -1.66 0.12 
8.85 9.37 -1.66 0.12 
9.03 9.20 -1.66 0.12 
9.20 9.03 -1.66 0.12 
9.37 8.85 -1.66 0.12 
9.54 8.68 -1.66 0.12 
9.70 8.49 -1.66 0.12 
9.86 8.31 -1.66 0.12 
10.02 8.12 -1.66 0.12 
10.17 7.93 -1.66 0.12 
10.32 7.74 -1.66 0.12 
10.47 7.54 -1.66 0.12 
10.61 7.35 -1.66 0.12 
10.75 7.14 -1.66 0.12 
10.88 6.94 -1.66 0.12 
11.01 6.73 -1.66 0.12 
11.14 6.53 -1.66 0.12 
11.26 6.32 -1.66 0.12 
11.38 6.10 -1.66 0.12 
11.50 5.89 -1.66 0.12 
11.61 5.67 -1.66 0.12 
11.72 5.45 -1.66 0.12 
11.82 5.23 -1.66 0.12 
11.92 5.00 -1.66 0.12 
12.01 4.78 -1.66 0.12 
12.10 4.55 -1.66 0.12 
12.19 4.32 -1.66 0.12 
12.27 4.09 -1.66 0.12 
12.35 3.86 -1.66 0.12 
12.42 3.62 -1.66 0.12 
12.49 3.39 -1.66 0.12 
12.56 3.15 -1.67 0.12 
12.62 2.92 -1.67 0.12 
12.67 2.68 -1.67 0.12 
12.72 2.44 -1.67 0.12 
12.77 2.20 -1.67 0.12 
12.81 1.95 -1.67 0.12 
12.85 1.71 -1.67 0.12 
12.88 1.47 -1.67 0.12 
12.91 1.23 -1.67 0.12 
12.94 0.98 -1.67 0.12 
12.96 0.74 -1.67 0.12 
12.97 0.49 -1.67 0.12 
12.98 0.25 -1.67 0.12 
12.99 -0.00 -1.67 0.12 
12.99 -0.25 -1.67 0.12 
12.98 -0.49 -1.67 0.12 
12.97 -0.74 -1.67 0.12 
12.96 -0.98 -1.67 0.12 
12.94 -1.23 -1.67 0.12 
12.92 -1.47 -1.67 0.12 
12.90 -1.72 -1.67 0.12 
12.86 -1.96 -1.67 0.12 
12.83 -2.21 -1.67 0.12 
12.79 -2.45 -1.67 0.12 
12.74 -2.69 -1.67 0.12 
12.69 -2.93 -1.68 0.12 
12.64 -3.17 -1.68 0.12 
12.58 -3.41 -1.68 0.12 
12.52 -3.65 -1.68 0.12 
12.45 -3.89 -1.68 0.12 
12.38 -4.12 -1.68 0.12 
12.30 -4.36 -1.68 0.12 
12.22 -4.59 -1.68 0.12 
12.13 -4.82 -1.68 0.12 
12.04 -5.05 -1.68 0.12 
11.95 -5.28 -1.68 0.12 
11.85 -5.51 -1.68 0.12 
11.74 -5.73 -1.68 0.12 
11.64 -5.96 -1.68 0.12 
6.48 -3.47 -0.95 0.39 
